ply
format ascii 1.0
comment Created by CloudCompare v2.11 alpha (Anoia)
comment Created 17/05/2019 19:20
obj_info Generated by CloudCompare!
element vertex 1934
property float x
property float y
property float z
end_header
608.841 57.8607 49.2628 
610.274 12.8712 50.8547 
611.076 13.6095 51.4768 
611.878 14.3447 52.0989 
611.899 15.063 52.0945 
612.701 15.7934 52.7167 
612.723 16.51 52.7123 
612.745 17.2267 52.708 
612.767 17.9434 52.7036 
613.568 18.6659 53.3258 
613.59 19.381 53.3214 
613.612 20.0961 53.3171 
613.633 20.8112 53.3127 
613.655 21.5263 53.3084 
613.677 22.2414 53.304 
613.699 22.9565 53.2997 
614.5 23.6662 53.922 
614.522 24.3797 53.9176 
613.764 25.1018 53.2866 
613.786 25.8169 53.2822 
613.807 26.532 53.2779 
613.829 27.2471 53.2735 
613.851 27.9622 53.2692 
613.873 28.6773 53.2648 
613.894 29.3924 53.2604 
613.916 30.1075 53.2561 
613.938 30.8226 53.2517 
613.959 31.5377 53.2474 
613.981 32.2528 53.243 
614.003 32.9679 53.2387 
614.025 33.683 53.2343 
614.046 34.3981 53.2299 
614.068 35.1132 53.2256 
614.09 35.8283 53.2212 
614.112 36.5434 53.2169 
614.133 37.2585 53.2125 
614.155 37.9736 53.2081 
614.177 38.6887 53.2038 
614.199 39.4038 53.1994 
614.22 40.1189 53.1951 
614.242 40.834 53.1907 
614.264 41.5491 53.1864 
614.286 42.2642 53.182 
614.307 42.9793 53.1776 
614.329 43.6944 53.1733 
614.351 44.4095 53.1689 
614.372 45.1246 53.1646 
614.394 45.8397 53.1602 
614.416 46.5548 53.1559 
614.438 47.2699 53.1515 
613.682 48.0446 52.5202 
613.703 48.7613 52.5158 
613.725 49.478 52.5114 
613.747 50.1947 52.5071 
612.991 50.9773 51.8757 
612.235 51.7631 51.2443 
612.257 52.483 51.2399 
611.502 53.2736 50.6085 
611.524 53.9951 50.6041 
610.768 54.7905 49.9726 
610.79 55.5135 49.9682 
610.812 56.2366 49.9638 
610.834 56.9597 49.9594 
610.079 57.763 49.3279 
610.731 12.8539 50.2963 
610.753 13.5753 50.2919 
611.554 14.3121 50.9153 
611.576 15.032 50.9109 
612.376 15.764 51.5343 
613.177 16.4929 52.1577 
613.199 17.2096 52.1533 
613.221 17.9263 52.149 
613.243 18.6429 52.1446 
613.264 19.3596 52.1402 
613.286 20.0763 52.1359 
614.087 20.794 52.7593 
614.108 21.5091 52.755 
614.13 22.2242 52.7506 
614.152 22.9393 52.7463 
614.173 23.6544 52.7419 
614.195 24.3695 52.7375 
614.217 25.0846 52.7332 
614.239 25.7997 52.7288 
614.26 26.5148 52.7245 
614.282 27.2299 52.7201 
614.304 27.945 52.7157 
614.326 28.6601 52.7114 
614.347 29.3752 52.707 
614.369 30.0903 52.7027 
614.391 30.8054 52.6983 
614.413 31.5205 52.694 
614.434 32.2357 52.6896 
614.456 32.9508 52.6852 
614.478 33.6659 52.6809 
614.5 34.381 52.6765 
614.521 35.0961 52.6722 
614.543 35.8112 52.6678 
614.565 36.5263 52.6635 
614.586 37.2414 52.6591 
614.608 37.9565 52.6547 
614.63 38.6716 52.6504 
614.652 39.3867 52.646 
614.673 40.1018 52.6417 
614.695 40.8169 52.6373 
613.94 41.5772 52.0048 
613.961 42.2939 52.0005 
613.983 43.0106 51.9961 
614.005 43.7273 51.9917 
614.027 44.444 51.9874 
614.049 45.1606 51.983 
614.07 45.8773 51.9786 
614.092 46.594 51.9743 
614.114 47.3107 51.9699 
614.136 48.0274 51.9655 
614.157 48.7441 51.9612 
614.179 49.4608 51.9568 
613.424 50.2418 51.3242 
613.446 50.9601 51.3198 
613.468 51.6784 51.3154 
612.713 52.4658 50.6828 
611.959 53.2563 50.0501 
611.981 53.9778 50.0457 
612.003 54.6993 50.0413 
612.025 55.4207 50.0369 
612.047 56.1422 50.0325 
611.292 56.9423 49.3998 
612.09 57.5852 50.0237 
608.831 12.0547 47.8555 
610.41 12.818 49.109 
611.21 13.558 49.7336 
611.232 14.2795 49.7292 
612.032 15.0148 50.3538 
612.054 15.7346 50.3494 
612.853 16.4651 50.974 
612.875 17.1834 50.9696 
612.897 17.9017 50.9653 
613.697 18.6258 51.5899 
613.718 19.3425 51.5856 
613.74 20.0592 51.5812 
613.762 20.7759 51.5768 
613.784 21.4925 51.5725 
613.806 22.2092 51.5681 
613.827 22.9259 51.5637 
613.849 23.6426 51.5594 
613.871 24.3593 51.555 
613.893 25.076 51.5506 
613.914 25.7927 51.5463 
613.936 26.5094 51.5419 
613.958 27.2261 51.5375 
613.98 27.9428 51.5332 
614.002 28.6595 51.5288 
614.023 29.3762 51.5244 
614.045 30.0929 51.5201 
614.067 30.8096 51.5157 
614.089 31.5263 51.5113 
614.111 32.243 51.507 
614.132 32.9597 51.5026 
614.154 33.6763 51.4982 
614.176 34.393 51.4939 
614.198 35.1097 51.4895 
614.219 35.8264 51.4851 
614.241 36.5431 51.4808 
614.263 37.2598 51.4764 
614.285 37.9765 51.472 
614.307 38.6932 51.4677 
614.328 39.4099 51.4633 
614.35 40.1266 51.4589 
614.372 40.8433 51.4546 
614.394 41.56 51.4502 
614.416 42.2767 51.4458 
614.437 42.9934 51.4415 
614.459 43.7101 51.4371 
614.481 44.4268 51.4327 
614.503 45.1435 51.4284 
614.524 45.8602 51.424 
614.546 46.5768 51.4196 
614.568 47.2935 51.4153 
614.59 48.0102 51.4109 
614.612 48.7269 51.4065 
613.858 49.5063 50.7727 
613.88 50.2246 50.7683 
613.901 50.9429 50.7639 
613.923 51.6612 50.7595 
613.169 52.4485 50.1257 
613.191 53.1684 50.1213 
613.213 53.8883 50.1169 
612.46 54.682 49.483 
612.482 55.4034 49.4786 
612.504 56.1249 49.4742 
612.526 56.8464 49.4698 
612.548 57.5679 49.4654 
612.569 58.2893 49.461 
612.591 59.0108 49.4566 
602.961 8.18088 42.2744 
603.761 8.94642 42.9001 
605.338 9.73373 44.1559 
610.091 12.7821 47.9192 
610.89 13.5238 48.545 
611.689 14.2622 49.1708 
611.711 14.9837 49.1665 
612.51 15.7174 49.7923 
612.532 16.4373 49.7879 
613.33 17.1662 50.4138 
613.352 17.8845 50.4094 
613.374 18.6027 50.405 
613.396 19.321 50.4006 
614.194 20.042 51.0266 
614.216 20.7587 51.0222 
614.238 21.4754 51.0178 
614.26 22.1921 51.0135 
614.281 22.9087 51.0091 
614.303 23.6254 51.0047 
614.325 24.3421 51.0004 
614.347 25.0588 50.996 
614.369 25.7755 50.9916 
614.39 26.4922 50.9873 
614.412 27.2089 50.9829 
614.434 27.9256 50.9785 
614.456 28.6423 50.9742 
614.478 29.359 50.9698 
614.499 30.0757 50.9654 
614.521 30.7924 50.9611 
614.543 31.5091 50.9567 
614.565 32.2258 50.9523 
614.586 32.9425 50.948 
614.608 33.6592 50.9436 
614.63 34.3759 50.9392 
614.652 35.0926 50.9349 
614.674 35.8092 50.9305 
614.695 36.5259 50.9261 
614.717 37.2426 50.9218 
614.739 37.9593 50.9174 
614.761 38.676 50.913 
614.783 39.3927 50.9087 
614.804 40.1094 50.9043 
614.826 40.8261 50.8999 
614.073 41.5879 50.2649 
614.094 42.3062 50.2606 
614.116 43.0245 50.2562 
614.138 43.7428 50.2518 
614.16 44.4611 50.2474 
614.182 45.1794 50.2431 
614.204 45.8976 50.2387 
614.225 46.6159 50.2343 
614.247 47.3342 50.2299 
614.269 48.0525 50.2256 
614.291 48.7708 50.2212 
614.313 49.4891 50.2168 
614.335 50.2074 50.2124 
614.356 50.9257 50.208 
614.378 51.6439 50.2037 
613.626 52.4312 49.5686 
613.648 53.1511 49.5642 
613.669 53.871 49.5598 
613.691 54.5909 49.5554 
612.939 55.3861 48.9202 
613.735 56.0306 49.5466 
612.983 56.8291 48.9115 
613.005 57.5506 48.9071 
613.027 58.272 48.9027 
613.049 58.9935 48.8983 
613.07 59.715 48.8939 
613.092 60.4364 48.8895 
603.407 7.42417 41.707 
604.206 8.19134 42.3339 
604.229 8.92874 42.3294 
605.804 9.71613 43.5877 
607.379 10.4971 44.846 
608.177 11.25 45.473 
609.752 12.0198 46.7314 
610.55 12.7647 47.3584 
611.348 13.5064 47.9855 
612.146 14.2449 48.6125 
612.168 14.9664 48.6081 
612.19 15.6879 48.6037 
612.988 16.42 49.2308 
613.01 17.1399 49.2264 
613.031 17.8598 49.222 
613.829 18.5855 49.8491 
613.851 19.3038 49.8448 
613.873 20.0221 49.8404 
613.895 20.7404 49.836 
613.916 21.4587 49.8316 
613.938 22.177 49.8273 
613.96 22.8952 49.8229 
613.982 23.6135 49.8185 
614.004 24.3318 49.8141 
614.026 25.0501 49.8097 
614.047 25.7684 49.8054 
614.069 26.4867 49.801 
614.091 27.205 49.7966 
614.113 27.9233 49.7922 
614.135 28.6415 49.7879 
614.157 29.3598 49.7835 
614.178 30.0781 49.7791 
614.2 30.7964 49.7747 
614.222 31.5147 49.7704 
614.244 32.233 49.766 
614.266 32.9513 49.7616 
614.288 33.6695 49.7572 
614.309 34.3878 49.7528 
614.331 35.1061 49.7485 
614.353 35.8244 49.7441 
614.375 36.5427 49.7397 
614.397 37.261 49.7353 
614.419 37.9793 49.731 
614.44 38.6976 49.7266 
614.462 39.4158 49.7222 
614.484 40.1341 49.7178 
614.506 40.8524 49.7135 
614.528 41.5707 49.7091 
614.55 42.289 49.7047 
614.571 43.0073 49.7003 
614.593 43.7256 49.6959 
614.615 44.4439 49.6916 
614.637 45.1621 49.6872 
614.659 45.8804 49.6828 
614.681 46.5987 49.6784 
614.702 47.317 49.6741 
614.724 48.0353 49.6697 
614.746 48.7536 49.6653 
614.768 49.4719 49.6609 
614.79 50.1902 49.6566 
614.038 50.9742 49.0202 
614.06 51.6941 49.0158 
614.082 52.414 49.0115 
614.104 53.1339 49.0071 
614.126 53.8537 49.0027 
614.147 54.5736 48.9983 
614.169 55.2935 48.9939 
614.191 56.0134 48.9895 
614.213 56.7333 48.9851 
613.462 57.5333 48.3487 
613.484 58.2547 48.3443 
613.506 58.9762 48.3399 
613.528 59.6977 48.3355 
613.55 60.4192 48.3311 
603.853 6.66746 41.1396 
603.875 7.40645 41.1351 
604.673 8.17366 41.7632 
605.471 8.93769 42.3914 
606.269 9.69852 43.0195 
607.842 10.4796 44.2803 
608.639 11.2325 44.9085 
609.437 11.9822 45.5367 
610.234 12.7287 46.1649 
611.031 13.472 46.7932 
611.828 14.2121 47.4215 
612.625 14.9491 48.0498 
612.647 15.6706 48.0454 
612.669 16.392 48.041 
613.466 17.1226 48.6693 
613.488 17.8425 48.6649 
613.509 18.5624 48.6605 
613.531 19.2823 48.6561 
613.553 20.0021 48.6518 
614.35 20.7232 49.2801 
614.372 21.4414 49.2758 
614.393 22.1597 49.2714 
614.415 22.878 49.267 
614.437 23.5963 49.2626 
614.459 24.3146 49.2583 
614.481 25.0329 49.2539 
614.503 25.7512 49.2495 
614.524 26.4695 49.2451 
614.546 27.1877 49.2407 
614.568 27.906 49.2364 
614.59 28.6243 49.232 
614.612 29.3426 49.2276 
614.634 30.0609 49.2232 
614.655 30.7792 49.2189 
614.677 31.4975 49.2145 
614.699 32.2158 49.2101 
614.721 32.934 49.2057 
614.743 33.6523 49.2013 
614.765 34.3706 49.197 
614.786 35.0889 49.1926 
614.808 35.8072 49.1882 
614.83 36.5255 49.1838 
614.852 37.2438 49.1795 
614.874 37.962 49.1751 
614.896 38.6803 49.1707 
614.144 39.4389 48.5333 
614.166 40.1588 48.5289 
614.188 40.8787 48.5245 
614.21 41.5985 48.5202 
614.232 42.3184 48.5158 
614.253 43.0383 48.5114 
614.275 43.7582 48.507 
614.297 44.478 48.5026 
614.319 45.1979 48.4982 
614.341 45.9178 48.4938 
614.363 46.6377 48.4894 
614.385 47.3576 48.4851 
614.407 48.0774 48.4807 
614.429 48.7973 48.4763 
614.45 49.5172 48.4719 
614.472 50.2371 48.4675 
614.494 50.957 48.4631 
614.516 51.6768 48.4587 
614.538 52.3967 48.4544 
614.56 53.1166 48.45 
614.582 53.8365 48.4456 
614.604 54.5564 48.4412 
613.853 55.3515 47.8036 
614.647 55.9961 48.4324 
613.897 56.7945 47.7948 
613.919 57.516 47.7904 
613.941 58.2374 47.786 
613.963 58.9589 47.7816 
613.985 59.6804 47.7772 
614.007 60.4019 47.7728 
614.029 61.1233 47.7684 
604.299 5.91075 40.5722 
604.321 6.64974 40.5677 
605.118 7.41858 41.1971 
605.915 8.18424 41.8264 
605.937 8.92005 41.8219 
606.734 9.68092 42.4513 
608.305 10.4621 43.7146 
609.101 11.215 44.344 
609.898 11.9647 44.9734 
610.694 12.7113 45.6029 
611.49 13.4546 46.2324 
611.512 14.1793 46.228 
612.308 14.9179 46.8575 
612.33 15.6409 46.8531 
613.126 16.3747 47.4826 
613.148 17.0962 47.4782 
613.17 17.8177 47.4738 
613.966 18.5451 48.1034 
613.987 19.265 48.099 
614.009 19.9849 48.0947 
614.031 20.7048 48.0903 
614.053 21.4246 48.0859 
614.075 22.1445 48.0815 
614.097 22.8644 48.0771 
614.119 23.5843 48.0727 
614.141 24.3042 48.0683 
614.163 25.024 48.0639 
614.184 25.7439 48.0596 
614.206 26.4638 48.0552 
614.228 27.1837 48.0508 
614.25 27.9036 48.0464 
614.272 28.6234 48.042 
614.294 29.3433 48.0376 
614.316 30.0632 48.0332 
614.338 30.7831 48.0288 
614.359 31.503 48.0245 
614.381 32.2228 48.0201 
614.403 32.9427 48.0157 
614.425 33.6626 48.0113 
614.447 34.3825 48.0069 
614.469 35.1024 48.0025 
614.491 35.8222 47.9981 
614.513 36.5421 47.9938 
614.535 37.262 47.9894 
614.556 37.9819 47.985 
614.578 38.7018 47.9806 
614.6 39.4216 47.9762 
614.622 40.1415 47.9718 
614.644 40.8614 47.9674 
614.666 41.5813 47.963 
614.688 42.3011 47.9587 
614.71 43.021 47.9543 
614.732 43.7409 47.9499 
614.753 44.4608 47.9455 
614.775 45.1807 47.9411 
614.797 45.9005 47.9367 
614.819 46.6204 47.9323 
614.841 47.3403 47.9279 
614.863 48.0602 47.9236 
614.885 48.7801 47.9192 
614.906 49.4999 47.9148 
614.928 50.2198 47.9104 
614.95 50.9397 47.906 
614.201 51.7269 47.2672 
614.223 52.4484 47.2628 
614.245 53.1698 47.2584 
614.266 53.8913 47.254 
614.288 54.6128 47.2496 
614.31 55.3342 47.2452 
614.332 56.0557 47.2408 
614.354 56.7772 47.2364 
614.376 57.4987 47.232 
614.398 58.2201 47.2276 
614.42 58.9416 47.2232 
614.442 59.6631 47.2189 
613.693 60.471 46.5799 
613.715 61.194 46.5755 
605.563 6.6635 40.6309 
606.359 7.43079 41.2615 
606.381 8.1666 41.257 
607.177 8.9291 41.8876 
607.973 9.68843 42.5182 
608.768 10.4446 43.1488 
608.79 11.1756 43.1444 
609.586 11.927 43.775 
611.154 12.6939 45.0409 
611.176 13.4201 45.0364 
611.971 14.1619 45.6672 
611.993 14.8866 45.6628 
612.788 15.6236 46.2935 
612.81 16.3467 46.2891 
613.605 17.0789 46.9199 
613.627 17.8004 46.9155 
613.649 18.5219 46.9111 
613.671 19.2433 46.9067 
613.693 19.9648 46.9023 
613.715 20.6863 46.8979 
613.737 21.4077 46.8935 
614.531 22.1273 47.5244 
614.553 22.8471 47.52 
614.575 23.567 47.5156 
614.597 24.2869 47.5112 
614.619 25.0068 47.5068 
614.641 25.7267 47.5024 
614.662 26.4465 47.4981 
614.684 27.1664 47.4937 
614.706 27.8863 47.4893 
614.728 28.6062 47.4849 
614.75 29.3261 47.4805 
614.772 30.0459 47.4761 
614.794 30.7658 47.4717 
614.816 31.4857 47.4674 
614.838 32.2056 47.463 
614.859 32.9255 47.4586 
614.881 33.6453 47.4542 
614.131 34.3943 46.8144 
614.153 35.1157 46.81 
614.175 35.8372 46.8056 
614.197 36.5587 46.8012 
614.219 37.2801 46.7968 
614.241 38.0016 46.7924 
614.263 38.7231 46.788 
614.285 39.4446 46.7836 
614.307 40.166 46.7792 
614.329 40.8875 46.7748 
614.351 41.609 46.7704 
614.373 42.3305 46.766 
614.395 43.0519 46.7616 
614.417 43.7734 46.7572 
614.438 44.4949 46.7528 
614.46 45.2163 46.7484 
614.482 45.9378 46.744 
614.504 46.6593 46.7397 
614.526 47.3808 46.7353 
614.548 48.1022 46.7309 
614.57 48.8237 46.7265 
614.592 49.5452 46.7221 
614.614 50.2666 46.7177 
614.636 50.9881 46.7133 
614.658 51.7096 46.7089 
614.68 52.4311 46.7045 
614.702 53.1525 46.7001 
614.724 53.874 46.6957 
614.745 54.5955 46.6913 
614.767 55.317 46.6869 
614.789 56.0384 46.6825 
614.811 56.7599 46.6781 
614.063 57.5614 46.038 
614.855 58.2028 46.6693 
614.107 59.0075 46.0291 
614.129 59.7306 46.0247 
614.151 60.4536 46.0203 
614.173 61.1767 46.0159 
606.803 6.67734 40.6965 
606.825 7.41315 40.692 
607.62 8.17729 41.3239 
608.415 8.93824 41.9557 
608.437 9.67086 41.9512 
609.231 10.427 42.5831 
610.026 11.18 43.215 
610.82 11.9298 43.8469 
610.842 12.6577 43.8425 
611.636 13.4027 44.4744 
611.659 14.129 44.47 
612.453 14.8692 45.102 
612.475 15.5939 45.0975 
613.268 16.3293 45.7295 
613.29 17.0524 45.7251 
613.312 17.7755 45.7207 
614.106 18.5046 46.3528 
614.128 19.226 46.3484 
614.15 19.9475 46.344 
614.172 20.669 46.3396 
614.194 21.3905 46.3352 
614.216 22.1119 46.3308 
614.238 22.8334 46.3264 
614.26 23.5549 46.322 
614.282 24.2763 46.3176 
614.304 24.9978 46.3132 
614.325 25.7193 46.3088 
614.347 26.4408 46.3044 
614.369 27.1622 46.3 
614.391 27.8837 46.2956 
614.413 28.6052 46.2912 
614.435 29.3266 46.2868 
614.457 30.0481 46.2824 
614.479 30.7696 46.278 
614.501 31.4911 46.2736 
614.523 32.2125 46.2692 
614.545 32.934 46.2648 
614.567 33.6555 46.2604 
614.589 34.377 46.2561 
614.611 35.0984 46.2517 
614.633 35.8199 46.2473 
614.654 36.5414 46.2429 
614.676 37.2628 46.2385 
614.698 37.9843 46.2341 
614.72 38.7058 46.2297 
614.742 39.4273 46.2253 
614.764 40.1487 46.2209 
614.786 40.8702 46.2165 
614.808 41.5917 46.2121 
614.83 42.3132 46.2077 
614.852 43.0346 46.2033 
614.874 43.7561 46.1989 
614.896 44.4776 46.1945 
614.918 45.199 46.1901 
614.94 45.9205 46.1857 
614.961 46.642 46.1813 
614.983 47.3635 46.1769 
615.005 48.0849 46.1725 
615.027 48.8064 46.1681 
615.049 49.5279 46.1637 
615.071 50.2493 46.1593 
615.093 50.9708 46.1549 
615.115 51.6923 46.1505 
615.137 52.4138 46.1461 
615.159 53.1352 46.1417 
615.181 53.8567 46.1373 
614.433 54.6518 45.496 
614.455 55.3748 45.4916 
614.477 56.0979 45.4872 
614.499 56.821 45.4828 
614.521 57.544 45.4784 
614.543 58.2671 45.474 
613.796 59.0733 44.8326 
613.818 59.798 44.8282 
613.84 60.5226 44.8238 
613.862 61.2473 44.8193 
607.247 5.9239 40.1316 
607.269 6.6597 40.1271 
608.063 7.42547 40.7601 
608.085 8.15969 40.7557 
608.879 8.92068 41.3887 
609.672 9.67848 42.0218 
609.695 10.4095 42.0174 
610.488 11.1625 42.6505 
611.281 11.9124 43.2836 
611.303 12.6402 43.2792 
612.097 13.3853 43.9124 
612.119 14.1115 43.9079 
612.141 14.8378 43.9035 
612.934 15.5765 44.5367 
612.956 16.3011 44.5323 
613.749 17.0351 45.1656 
613.771 17.7581 45.1612 
613.793 18.4812 45.1567 
613.815 19.2043 45.1523 
613.837 19.9273 45.1479 
614.629 20.6517 45.7812 
614.651 21.3732 45.7768 
614.673 22.0946 45.7724 
614.695 22.8161 45.7681 
614.717 23.5376 45.7637 
614.739 24.259 45.7593 
614.761 24.9805 45.7549 
614.783 25.702 45.7505 
614.805 26.4235 45.7461 
614.826 27.1449 45.7417 
614.848 27.8664 45.7373 
614.87 28.5879 45.7329 
614.892 29.3094 45.7285 
614.914 30.0308 45.7241 
614.936 30.7523 45.7197 
614.958 31.4738 45.7153 
614.98 32.1952 45.7109 
614.232 32.9425 45.0686 
614.254 33.6656 45.0642 
614.276 34.3886 45.0598 
614.298 35.1117 45.0554 
614.32 35.8348 45.051 
614.342 36.5578 45.0466 
614.364 37.2809 45.0422 
614.386 38.0039 45.0378 
614.408 38.727 45.0334 
614.43 39.4501 45.029 
614.452 40.1731 45.0246 
614.474 40.8962 45.0202 
614.496 41.6193 45.0157 
614.518 42.3423 45.0113 
614.54 43.0654 45.0069 
614.562 43.7885 45.0025 
614.584 44.5115 44.9981 
614.606 45.2346 44.9937 
614.628 45.9577 44.9893 
614.65 46.6807 44.9849 
614.672 47.4038 44.9805 
614.694 48.1269 44.9761 
614.716 48.8499 44.9717 
614.738 49.573 44.9673 
614.76 50.2961 44.9629 
614.782 51.0191 44.9585 
614.804 51.7422 44.9541 
614.826 52.4652 44.9497 
614.848 53.1883 44.9452 
614.869 53.9114 44.9408 
614.891 54.6344 44.9364 
614.913 55.3575 44.932 
614.935 56.0806 44.9276 
614.189 56.882 44.285 
614.211 57.6066 44.2806 
614.233 58.3313 44.2762 
614.255 59.056 44.2718 
613.509 59.8653 43.6291 
613.531 60.5916 43.6247 
613.554 61.3178 43.6203 
607.713 5.90626 39.5621 
608.506 6.67365 40.1964 
608.528 7.40787 40.1919 
609.321 8.17049 40.8262 
610.113 8.92993 41.4605 
610.136 9.66096 41.4561 
610.158 10.392 41.4516 
610.95 11.1451 42.086 
611.742 11.8949 42.7204 
611.765 12.6228 42.7159 
612.557 13.3679 43.3503 
612.579 14.0941 43.3459 
612.601 14.8204 43.3415 
612.623 15.5466 43.3371 
613.415 16.2838 43.9715 
613.437 17.0084 43.9671 
613.459 17.7331 43.9627 
613.481 18.4577 43.9583 
614.273 19.1869 44.5928 
614.295 19.91 44.5884 
614.317 20.6331 44.584 
614.339 21.3561 44.5795 
614.361 22.0792 44.5751 
614.383 22.8022 44.5707 
614.405 23.5253 44.5663 
614.427 24.2484 44.5619 
614.449 24.9714 44.5575 
614.471 25.6945 44.5531 
614.492 26.4176 44.5487 
614.514 27.1406 44.5443 
614.536 27.8637 44.5399 
614.558 28.5868 44.5355 
614.58 29.3098 44.5311 
614.602 30.0329 44.5267 
614.624 30.756 44.5223 
614.646 31.479 44.5179 
614.668 32.2021 44.5135 
614.69 32.9252 44.509 
614.712 33.6482 44.5046 
614.734 34.3713 44.5002 
614.756 35.0944 44.4958 
614.778 35.8174 44.4914 
614.8 36.5405 44.487 
614.822 37.2635 44.4826 
614.844 37.9866 44.4782 
614.866 38.7097 44.4738 
614.888 39.4327 44.4694 
614.91 40.1558 44.465 
614.932 40.8789 44.4606 
614.954 41.6019 44.4562 
614.976 42.325 44.4518 
614.998 43.0481 44.4474 
615.02 43.7711 44.443 
615.042 44.4942 44.4386 
615.064 45.2173 44.4341 
615.086 45.9403 44.4297 
615.108 46.6634 44.4253 
615.13 47.3865 44.4209 
615.152 48.1095 44.4165 
615.174 48.8326 44.4121 
615.196 49.5557 44.4077 
615.218 50.2787 44.4033 
615.24 51.0018 44.3989 
615.262 51.7248 44.3945 
615.284 52.4479 44.3901 
615.306 53.171 44.3857 
615.328 53.894 44.3813 
614.582 54.6906 43.7375 
614.604 55.4153 43.7331 
614.626 56.1399 43.7286 
614.648 56.8646 43.7242 
613.903 57.6692 43.0804 
613.925 58.3954 43.0759 
613.948 59.1217 43.0715 
613.203 59.9326 42.4276 
612.458 60.7467 41.7837 
612.48 61.4761 41.7793 
608.926 5.18763 39.6371 
608.949 5.92184 39.6327 
608.971 6.65605 39.6282 
609.763 7.42031 40.2637 
609.785 8.15293 40.2593 
610.577 8.9124 40.8948 
610.599 9.64343 40.8904 
610.621 10.3745 40.8859 
611.412 11.1276 41.5215 
612.204 11.8775 42.1571 
612.226 12.6053 42.1527 
612.248 13.3332 42.1482 
613.039 14.0767 42.7839 
613.061 14.803 42.7794 
613.083 15.5292 42.775 
613.105 16.2555 42.7706 
613.127 16.9817 42.7662 
613.918 17.7157 43.4019 
613.94 18.4404 43.3975 
613.962 19.165 43.3931 
613.984 19.8897 43.3886 
614.006 20.6143 43.3842 
614.028 21.339 43.3798 
614.05 22.0637 43.3754 
614.072 22.7883 43.371 
614.863 23.508 44.0068 
614.885 24.231 44.0023 
614.907 24.9541 43.9979 
614.929 25.6772 43.9935 
614.951 26.4002 43.9891 
614.973 27.1233 43.9847 
614.995 27.8464 43.9803 
615.017 28.5694 43.9759 
615.039 29.2925 43.9715 
615.06 30.0156 43.9671 
614.315 30.7596 43.3224 
614.337 31.4842 43.318 
614.359 32.2089 43.3136 
614.381 32.9335 43.3092 
614.403 33.6582 43.3047 
614.425 34.3828 43.3003 
614.447 35.1075 43.2959 
614.469 35.8322 43.2915 
614.491 36.5568 43.2871 
614.513 37.2815 43.2827 
614.535 38.0061 43.2782 
614.557 38.7308 43.2738 
614.579 39.4554 43.2694 
614.601 40.1801 43.265 
614.623 40.9048 43.2606 
614.645 41.6294 43.2562 
614.667 42.3541 43.2517 
614.689 43.0787 43.2473 
614.711 43.8034 43.2429 
614.733 44.528 43.2385 
614.755 45.2527 43.2341 
614.777 45.9774 43.2297 
614.799 46.702 43.2252 
614.821 47.4267 43.2208 
614.843 48.1513 43.2164 
614.865 48.876 43.212 
614.887 49.6007 43.2076 
614.909 50.3253 43.2032 
614.931 51.05 43.1988 
614.953 51.7746 43.1943 
614.975 52.4993 43.1899 
614.997 53.2239 43.1855 
615.019 53.9486 43.1811 
615.042 54.6733 43.1767 
614.297 55.473 42.5316 
614.319 56.1992 42.5272 
614.341 56.9255 42.5228 
614.363 57.6517 42.5183 
613.62 58.4594 41.8732 
613.642 59.1873 41.8688 
612.898 59.9998 41.2237 
612.154 60.8154 40.5785 
612.176 61.5464 40.5741 
608.601 4.39936 38.4322 
609.391 5.17002 39.0689 
609.414 5.90424 39.0645 
609.436 6.63845 39.06 
610.227 7.40274 39.6968 
610.249 8.13536 39.6923 
611.04 8.89488 40.3291 
611.062 9.6259 40.3246 
611.852 10.3806 40.9614 
611.875 11.1101 40.957 
611.897 11.8395 40.9525 
612.687 12.5879 41.5894 
612.709 13.3157 41.585 
612.731 14.0436 41.5805 
613.521 14.7856 42.2174 
613.543 15.5118 42.213 
613.565 16.2381 42.2086 
613.588 16.9643 42.2041 
613.61 17.6906 42.1997 
613.632 18.4168 42.1953 
613.654 19.1431 42.1909 
614.443 19.8723 42.8278 
614.465 20.597 42.8234 
614.487 21.3216 42.819 
614.509 22.0463 42.8146 
614.531 22.7709 42.8102 
614.554 23.4956 42.8058 
614.576 24.2203 42.8013 
614.598 24.9449 42.7969 
614.62 25.6696 42.7925 
614.642 26.3942 42.7881 
614.664 27.1189 42.7837 
614.686 27.8435 42.7793 
614.708 28.5682 42.7748 
614.73 29.2929 42.7704 
614.752 30.0175 42.766 
614.774 30.7422 42.7616 
614.796 31.4668 42.7572 
614.818 32.1915 42.7528 
614.84 32.9161 42.7483 
614.862 33.6408 42.7439 
614.884 34.3655 42.7395 
614.906 35.0901 42.7351 
614.928 35.8148 42.7307 
614.95 36.5394 42.7263 
614.206 37.2993 42.0802 
614.228 38.0256 42.0758 
614.25 38.7518 42.0714 
614.272 39.4781 42.0669 
614.294 40.2043 42.0625 
614.316 40.9306 42.0581 
614.338 41.6568 42.0537 
614.36 42.3831 42.0492 
614.382 43.1093 42.0448 
614.404 43.8356 42.0404 
614.426 44.5618 42.036 
614.448 45.2881 42.0315 
614.47 46.0143 42.0271 
614.493 46.7406 42.0227 
614.515 47.4668 42.0183 
615.302 48.134 42.6556 
615.324 48.8586 42.6512 
615.346 49.5833 42.6468 
615.368 50.3079 42.6424 
615.391 51.0326 42.6379 
614.647 51.8243 41.9917 
614.669 52.5506 41.9873 
614.691 53.2768 41.9829 
614.713 54.0031 41.9784 
614.735 54.7293 41.974 
614.758 55.4556 41.9696 
614.78 56.1818 41.9651 
614.036 56.9863 41.3188 
614.059 57.7141 41.3144 
613.316 58.5234 40.6681 
613.338 59.2528 40.6636 
612.595 60.0669 40.0172 
611.852 60.8841 39.3709 
611.11 61.7045 38.7244 
610.367 62.5281 38.078 
609.067 4.38172 37.8628 
609.857 5.15242 38.5007 
609.879 5.88663 38.4963 
610.669 6.65256 39.1343 
610.691 7.38518 39.1298 
611.481 8.14632 39.7678 
611.503 8.87735 39.7633 
611.525 9.60838 39.7589 
612.315 10.3632 40.3969 
612.337 11.0926 40.3925 
612.359 11.822 40.388 
612.381 12.5515 40.3836 
613.17 13.2983 41.0217 
613.192 14.0261 41.0173 
613.214 14.754 41.0128 
613.237 15.4818 41.0084 
613.259 16.2096 41.0039 
614.048 16.9469 41.6421 
614.07 17.6731 41.6377 
614.092 18.3994 41.6332 
614.114 19.1256 41.6288 
614.136 19.8519 41.6244 
614.158 20.5781 41.62 
614.18 21.3044 41.6155 
614.202 22.0306 41.6111 
614.224 22.7569 41.6067 
614.246 23.4832 41.6023 
614.268 24.2094 41.5978 
614.29 24.9356 41.5934 
614.313 25.6619 41.589 
614.335 26.3882 41.5846 
614.357 27.1144 41.5801 
614.379 27.8407 41.5757 
614.401 28.5669 41.5713 
614.423 29.2932 41.5669 
614.445 30.0194 41.5624 
614.467 30.7457 41.558 
614.489 31.4719 41.5536 
614.511 32.1982 41.5492 
614.533 32.9244 41.5447 
614.555 33.6507 41.5403 
614.577 34.3769 41.5359 
614.6 35.1032 41.5315 
614.622 35.8294 41.527 
614.644 36.5557 41.5226 
614.666 37.2819 41.5182 
614.688 38.0082 41.5138 
614.71 38.7344 41.5093 
614.732 39.4607 41.5049 
614.754 40.1869 41.5005 
614.776 40.9132 41.496 
614.798 41.6394 41.4916 
614.82 42.3657 41.4872 
614.842 43.0919 41.4828 
614.864 43.8182 41.4783 
614.887 44.5444 41.4739 
614.909 45.2707 41.4695 
614.931 45.9969 41.4651 
614.953 46.7232 41.4606 
614.975 47.4494 41.4562 
614.997 48.1757 41.4518 
615.019 48.9019 41.4474 
615.041 49.6282 41.4429 
615.063 50.3544 41.4385 
615.085 51.0807 41.4341 
615.107 51.8069 41.4297 
615.129 52.5332 41.4252 
615.151 53.2594 41.4208 
615.173 53.9857 41.4164 
615.196 54.7119 41.412 
614.453 55.5132 40.7644 
614.476 56.241 40.76 
613.734 57.047 40.1124 
613.756 57.7765 40.108 
613.014 58.5873 39.4604 
613.036 59.3183 39.456 
612.294 60.1339 38.8084 
611.553 60.9527 38.1607 
610.811 61.7746 37.5131 
610.07 62.5997 36.8654 
609.328 63.4281 36.2177 
608.587 64.2596 35.57 
607.846 65.0943 34.9223 
609.511 3.62827 37.2979 
609.533 4.36408 37.2934 
610.322 5.13482 37.9325 
610.344 5.86903 37.9281 
611.133 6.63499 38.5673 
611.155 7.36761 38.5628 
611.177 8.10023 38.5584 
611.966 8.85982 39.1976 
611.988 9.59085 39.1931 
612.011 10.3219 39.1887 
612.799 11.0751 39.828 
612.821 11.8045 39.8235 
612.843 12.534 39.8191 
612.865 13.2634 39.8146 
613.654 14.0087 40.454 
613.676 14.7365 40.4495 
613.698 15.4643 40.4451 
613.72 16.1922 40.4407 
613.742 16.92 40.4362 
613.764 17.6479 40.4318 
613.786 18.3757 40.4274 
613.808 19.1036 40.4229 
614.596 19.8345 41.0624 
614.618 20.5607 41.0579 
614.64 21.287 41.0535 
614.662 22.0132 41.0491 
614.684 22.7395 41.0446 
614.707 23.4657 41.0402 
614.729 24.192 41.0358 
614.751 24.9182 41.0314 
614.773 25.6445 41.0269 
614.795 26.3707 41.0225 
614.817 27.097 41.0181 
614.839 27.8232 41.0137 
614.861 28.5495 41.0092 
614.883 29.2757 41.0048 
614.905 30.002 41.0004 
614.927 30.7282 40.996 
614.949 31.4545 40.9915 
614.971 32.1807 40.9871 
614.993 32.907 40.9827 
615.016 33.6332 40.9783 
614.273 34.3883 40.3298 
614.295 35.1161 40.3254 
614.317 35.844 40.3209 
614.339 36.5718 40.3165 
614.362 37.2996 40.3121 
614.384 38.0275 40.3076 
614.406 38.7553 40.3032 
614.428 39.4832 40.2987 
614.45 40.211 40.2943 
614.472 40.9389 40.2899 
614.494 41.6667 40.2854 
614.516 42.3945 40.281 
614.539 43.1224 40.2766 
614.561 43.8502 40.2721 
614.583 44.5781 40.2677 
614.605 45.3059 40.2633 
615.391 45.9795 40.903 
615.413 46.7057 40.8986 
615.435 47.432 40.8942 
615.457 48.1582 40.8898 
615.479 48.8845 40.8853 
615.501 49.6107 40.8809 
615.523 50.337 40.8765 
615.545 51.0633 40.8721 
615.567 51.7895 40.8676 
614.826 52.5843 40.2189 
614.848 53.3122 40.2145 
614.87 54.04 40.21 
614.892 54.7679 40.2056 
614.151 55.5707 39.5568 
614.174 56.3001 39.5524 
614.196 57.0295 39.5479 
613.455 57.8387 38.8991 
613.477 58.5697 38.8947 
612.736 59.3837 38.2459 
611.996 60.2008 37.597 
611.255 61.0212 36.9481 
610.515 61.8447 36.2992 
610.537 62.5821 36.2947 
609.797 63.4104 35.6458 
609.057 64.2418 34.9969 
608.316 65.0765 34.3479 
606.814 66.01 33.0545 
606.074 66.8526 32.4055 
606.097 67.5996 32.4009 
608.423 2.79533 35.4432 
609.977 3.61063 36.7284 
609.999 4.34644 36.7239 
610.787 5.11721 37.3643 
610.809 5.85143 37.3599 
610.832 6.58564 37.3554 
611.619 7.35005 37.9959 
611.642 8.08267 37.9914 
612.429 8.8423 38.6319 
612.451 9.57332 38.6274 
612.474 10.3044 38.623 
612.496 11.0354 38.6185 
613.283 11.787 39.259 
613.305 12.5165 39.2546 
613.328 13.2459 39.2501 
613.35 13.9754 39.2457 
613.372 14.7048 39.2412 
613.394 15.4342 39.2368 
614.181 16.1747 39.8774 
614.203 16.9026 39.873 
614.225 17.6304 39.8685 
614.247 18.3583 39.8641 
614.27 19.0861 39.8597 
614.292 19.814 39.8552 
614.314 20.5418 39.8508 
614.336 21.2696 39.8464 
614.358 21.9975 39.8419 
614.38 22.7253 39.8375 
614.402 23.4532 39.8331 
614.424 24.181 39.8286 
614.447 24.9089 39.8242 
614.469 25.6367 39.8198 
614.491 26.3645 39.8153 
614.513 27.0924 39.8109 
614.535 27.8202 39.8064 
614.557 28.5481 39.802 
614.579 29.2759 39.7976 
614.602 30.0038 39.7931 
614.624 30.7316 39.7887 
614.646 31.4594 39.7843 
614.668 32.1873 39.7798 
614.69 32.9151 39.7754 
614.712 33.643 39.771 
614.734 34.3708 39.7665 
614.756 35.0987 39.7621 
614.778 35.8265 39.7577 
614.801 36.5543 39.7532 
614.823 37.2822 39.7488 
614.845 38.01 39.7444 
614.867 38.7379 39.7399 
614.889 39.4657 39.7355 
614.911 40.1936 39.731 
614.933 40.9214 39.7266 
614.955 41.6493 39.7222 
614.978 42.3771 39.7177 
615 43.1049 39.7133 
615.022 43.8328 39.7089 
615.044 44.5606 39.7044 
615.066 45.2885 39.7 
615.088 46.0163 39.6956 
615.11 46.7441 39.6911 
615.132 47.472 39.6867 
615.155 48.1998 39.6823 
615.177 48.9277 39.6778 
615.199 49.6555 39.6734 
615.221 50.3834 39.669 
615.243 51.1112 39.6645 
615.265 51.8391 39.6601 
615.287 52.5669 39.6556 
615.309 53.2947 39.6512 
614.569 54.0943 39.0012 
614.591 54.8238 38.9968 
614.614 55.5532 38.9923 
613.874 56.3591 38.3423 
613.896 57.0902 38.3379 
613.918 57.8212 38.3334 
613.178 58.6335 37.6834 
612.439 59.449 37.0333 
611.699 60.2677 36.3832 
611.721 61.0035 36.3787 
610.982 61.827 35.7285 
610.243 62.6536 35.0784 
609.503 63.4835 34.4282 
608.764 64.3165 33.7781 
608.787 65.0587 33.7735 
608.048 65.8965 33.1233 
607.309 66.7375 32.4731 
606.57 67.5817 31.8228 
606.593 68.3286 31.8183 
601.13 -1.39485 28.4333 
602.683 -0.547612 29.7208 
604.235 0.293249 31.0084 
605.787 1.12774 32.296 
607.339 1.95586 33.5836 
608.891 2.77761 34.8713 
609.678 3.55479 35.5129 
610.465 4.3288 36.1545 
610.488 5.0646 36.15 
611.275 5.83382 36.7917 
612.061 6.59986 37.4334 
612.084 7.33248 37.4289 
612.106 8.0651 37.4244 
612.128 8.79773 37.42 
612.915 9.5558 38.0617 
612.937 10.2868 38.0572 
612.959 11.0179 38.0528 
612.981 11.7489 38.0483 
613.004 12.4799 38.0439 
613.79 13.2284 38.6856 
613.812 13.9579 38.6812 
613.834 14.6873 38.6767 
613.856 15.4167 38.6723 
613.878 16.1462 38.6679 
613.901 16.8756 38.6634 
613.923 17.605 38.659 
613.945 18.3345 38.6545 
613.967 19.0639 38.6501 
613.989 19.7934 38.6456 
614.775 20.5244 39.2875 
614.797 21.2522 39.2831 
614.819 21.98 39.2787 
614.841 22.7079 39.2742 
614.864 23.4357 39.2698 
614.886 24.1636 39.2654 
614.908 24.8914 39.2609 
614.93 25.6192 39.2565 
614.952 26.3471 39.252 
614.974 27.0749 39.2476 
614.996 27.8028 39.2432 
615.018 28.5306 39.2387 
615.041 29.2585 39.2343 
615.063 29.9863 39.2299 
615.085 30.7142 39.2254 
615.107 31.442 39.221 
615.129 32.1698 39.2166 
615.151 32.8977 39.2121 
615.173 33.6255 39.2077 
615.195 34.3534 39.2033 
614.455 35.1115 38.5523 
614.477 35.8409 38.5478 
614.499 36.5704 38.5434 
614.521 37.2998 38.5389 
614.544 38.0292 38.5345 
614.566 38.7587 38.5301 
614.588 39.4881 38.5256 
614.61 40.2175 38.5212 
614.632 40.947 38.5167 
614.654 41.6764 38.5123 
614.677 42.4059 38.5078 
614.699 43.1353 38.5034 
614.721 43.8647 38.4989 
614.743 44.5942 38.4945 
614.765 45.3236 38.4901 
614.788 46.053 38.4856 
614.81 46.7825 38.4812 
614.832 47.5119 38.4767 
614.854 48.2413 38.4723 
614.876 48.9708 38.4678 
614.898 49.7002 38.4634 
614.921 50.4296 38.4589 
614.943 51.1591 38.4545 
614.965 51.8885 38.45 
614.987 52.618 38.4456 
615.009 53.3474 38.4412 
615.031 54.0768 38.4367 
614.292 54.8796 37.7855 
614.315 55.6106 37.781 
614.337 56.3416 37.7766 
613.598 57.1507 37.1253 
613.62 57.8833 37.1208 
612.881 58.6972 36.4695 
612.904 59.4314 36.4651 
612.165 60.2501 35.8137 
611.427 61.0719 35.1624 
610.688 61.8969 34.511 
610.711 62.6359 34.5065 
609.973 63.4657 33.8551 
609.234 64.2987 33.2037 
609.257 65.0409 33.1992 
608.519 65.8787 32.5477 
607.781 66.7196 31.8963 
607.804 67.465 31.8917 
607.066 68.3107 31.2402 
607.089 69.0577 31.2357 
599.27 -3.0757 25.9165 
600.057 -2.26662 26.5591 
600.844 -1.46074 27.2018 
607.81 1.93807 33.0092 
609.36 2.75989 34.2994 
610.146 3.53711 34.9422 
610.932 4.31116 35.5851 
610.954 5.04696 35.5806 
611.74 5.81622 36.2235 
611.762 6.55043 36.219 
611.785 7.28465 36.2145 
612.57 8.04754 36.8575 
612.592 8.78016 36.853 
612.615 9.51278 36.8485 
613.4 10.2693 37.4915 
613.422 11.0003 37.487 
613.445 11.7314 37.4826 
613.467 12.4624 37.4781 
613.489 13.1934 37.4737 
613.511 13.9244 37.4692 
613.533 14.6555 37.4648 
613.556 15.3865 37.4603 
613.578 16.1175 37.4559 
613.6 16.8486 37.4514 
614.385 17.5876 38.0945 
614.407 18.317 38.09 
614.429 19.0464 38.0856 
614.452 19.7759 38.0811 
614.474 20.5053 38.0767 
614.496 21.2347 38.0722 
614.518 21.9642 38.0678 
614.54 22.6936 38.0633 
614.562 23.423 38.0589 
614.585 24.1525 38.0545 
614.607 24.8819 38.05 
614.629 25.6113 38.0456 
614.651 26.3408 38.0411 
614.673 27.0702 38.0367 
614.695 27.7997 38.0322 
614.718 28.5291 38.0278 
614.74 29.2585 38.0233 
614.762 29.988 38.0189 
614.784 30.7174 38.0145 
614.806 31.4468 38.01 
614.828 32.1763 38.0056 
614.851 32.9057 38.0011 
614.873 33.6351 37.9967 
614.895 34.3646 37.9922 
614.917 35.094 37.9878 
614.939 35.8234 37.9833 
614.961 36.5529 37.9789 
614.984 37.2823 37.9744 
615.006 38.0118 37.97 
615.028 38.7412 37.9656 
615.05 39.4706 37.9611 
615.072 40.2001 37.9567 
615.094 40.9295 37.9522 
615.117 41.6589 37.9478 
615.139 42.3884 37.9433 
615.161 43.1178 37.9389 
615.183 43.8472 37.9344 
615.205 44.5767 37.93 
615.228 45.3061 37.9256 
615.25 46.0355 37.9211 
615.272 46.765 37.9167 
615.294 47.4944 37.9122 
615.316 48.2239 37.9078 
615.338 48.9533 37.9033 
615.361 49.6827 37.8989 
615.383 50.4122 37.8944 
615.405 51.1416 37.89 
614.667 51.9379 37.2376 
614.689 52.6689 37.2331 
614.711 53.4 37.2287 
614.733 54.131 37.2242 
614.756 54.862 37.2198 
614.778 55.5931 37.2153 
614.04 56.4005 36.5628 
614.062 57.1331 36.5583 
613.324 57.9454 35.9058 
613.347 58.6796 35.9013 
612.609 59.4966 35.2488 
611.872 60.3168 34.5962 
611.894 61.0542 34.5917 
611.157 61.8792 33.9391 
610.419 62.7074 33.2865 
610.442 63.448 33.282 
609.705 64.2809 32.6293 
609.727 65.0231 32.6248 
608.99 65.8608 31.9721 
608.253 66.7017 31.3194 
608.276 67.4471 31.3149 
608.299 68.1925 31.3103 
607.562 69.0398 30.6576 
607.585 69.7867 30.6531 
599.729 -3.85361 25.3332 
599.752 -3.09392 25.3285 
600.538 -2.2848 25.9724 
601.324 -1.47887 26.6163 
603.635 -0.583658 28.5573 
606.732 1.092 31.1423 
607.517 1.87882 31.7863 
609.065 2.70231 33.0789 
610.613 3.51944 34.3715 
611.398 4.29352 35.0156 
611.42 5.02932 35.0112 
611.443 5.76513 35.0067 
612.227 6.53283 35.6508 
612.25 7.26705 35.6463 
612.272 8.00126 35.6418 
613.057 8.7626 36.286 
613.079 9.49522 36.2816 
613.101 10.2278 36.2771 
613.123 10.9605 36.2726 
613.146 11.6931 36.2682 
613.168 12.4257 36.2637 
613.952 13.1759 36.9079 
613.974 13.9069 36.9035 
613.997 14.6379 36.899 
614.019 15.369 36.8946 
614.041 16.1 36.8901 
614.063 16.831 36.8857 
614.086 17.5621 36.8812 
614.108 18.2931 36.8768 
614.13 19.0241 36.8723 
614.152 19.7551 36.8678 
614.174 20.4862 36.8634 
614.197 21.2172 36.8589 
614.219 21.9482 36.8545 
614.241 22.6793 36.85 
614.263 23.4103 36.8456 
615.047 24.135 37.49 
615.069 24.8644 37.4855 
615.091 25.5939 37.4811 
615.113 26.3233 37.4766 
615.135 27.0527 37.4722 
615.158 27.7822 37.4677 
615.18 28.5116 37.4633 
615.202 29.241 37.4588 
615.224 29.9705 37.4544 
614.485 30.7206 36.801 
614.508 31.4516 36.7966 
614.53 32.1826 36.7921 
614.552 32.9137 36.7877 
614.574 33.6447 36.7832 
614.597 34.3757 36.7787 
614.619 35.1067 36.7743 
614.641 35.8378 36.7698 
614.663 36.5688 36.7654 
614.685 37.2998 36.7609 
614.708 38.0309 36.7565 
614.73 38.7619 36.752 
614.752 39.4929 36.7476 
614.774 40.2239 36.7431 
614.797 40.955 36.7387 
614.819 41.686 36.7342 
614.841 42.417 36.7297 
614.863 43.148 36.7253 
614.885 43.8791 36.7208 
614.908 44.6101 36.7164 
614.93 45.3411 36.7119 
614.952 46.0722 36.7075 
614.974 46.8032 36.703 
614.997 47.5342 36.6986 
615.019 48.2652 36.6941 
615.041 48.9963 36.6897 
615.063 49.7273 36.6852 
615.085 50.4583 36.6807 
615.108 51.1894 36.6763 
615.13 51.9204 36.6718 
615.152 52.6514 36.6674 
615.174 53.3824 36.6629 
614.437 54.1851 36.0092 
614.46 54.9177 36.0048 
614.482 55.6503 36.0003 
613.745 56.4594 35.3466 
613.767 57.1936 35.3421 
613.79 57.9278 35.3376 
613.053 58.7432 34.6838 
613.075 59.479 34.6794 
612.339 60.2992 34.0255 
612.361 61.0366 34.021 
611.625 61.8615 33.3672 
611.647 62.6005 33.3627 
610.911 63.4302 32.7088 
610.934 64.1708 32.7043 
610.198 65.0053 32.0504 
609.461 65.843 31.3965 
609.484 66.5868 31.392 
608.748 67.4292 30.7381 
608.771 68.1746 30.7335 
608.794 68.92 30.729 
608.816 69.6653 30.7244 
600.187 -4.63152 24.7499 
600.21 -3.87182 24.7452 
600.233 -3.11213 24.7406 
601.018 -2.30297 25.3857 
601.803 -1.49701 26.0309 
604.112 -0.601681 27.9755 
607.204 1.07413 30.5655 
607.989 1.86099 31.2107 
609.534 2.68456 32.5058 
611.08 3.50176 33.8009 
611.103 4.23916 33.7964 
611.886 5.01168 34.4417 
611.909 5.74749 34.4372 
612.693 6.51523 35.0826 
612.715 7.24944 35.0781 
612.737 7.98366 35.0737 
612.76 8.71787 35.0692 
612.782 9.45208 35.0647 
613.565 10.2103 35.7101 
613.588 10.9429 35.7057 
613.61 11.6755 35.7012 
613.632 12.4081 35.6967 
613.654 13.1408 35.6923 
613.677 13.8734 35.6878 
613.699 14.606 35.6833 
613.721 15.3386 35.6789 
613.744 16.0712 35.6744 
613.766 16.8039 35.67 
614.549 17.5445 36.3155 
614.571 18.2756 36.311 
614.593 19.0066 36.3066 
614.615 19.7376 36.3021 
614.638 20.4686 36.2977 
614.66 21.1997 36.2932 
614.682 21.9307 36.2887 
614.704 22.6617 36.2843 
614.727 23.3928 36.2798 
614.749 24.1238 36.2754 
614.771 24.8548 36.2709 
614.793 25.5858 36.2665 
614.815 26.3169 36.262 
614.838 27.0479 36.2576 
614.86 27.7789 36.2531 
614.882 28.51 36.2487 
614.904 29.241 36.2442 
614.926 29.972 36.2397 
614.949 30.703 36.2353 
614.971 31.4341 36.2308 
614.993 32.1651 36.2264 
615.015 32.8961 36.2219 
615.038 33.6272 36.2175 
615.06 34.3582 36.213 
615.082 35.0892 36.2086 
615.104 35.8202 36.2041 
615.126 36.5513 36.1996 
615.149 37.2823 36.1952 
615.171 38.0133 36.1907 
615.193 38.7444 36.1863 
615.215 39.4754 36.1818 
615.238 40.2064 36.1774 
615.26 40.9374 36.1729 
615.282 41.6685 36.1685 
615.304 42.3995 36.164 
615.326 43.1305 36.1596 
615.349 43.8615 36.1551 
615.371 44.5926 36.1507 
615.393 45.3236 36.1462 
615.415 46.0546 36.1417 
615.438 46.7857 36.1373 
614.701 47.5739 35.4825 
614.723 48.3066 35.478 
614.746 49.0392 35.4735 
614.768 49.7718 35.4691 
614.79 50.5044 35.4646 
614.812 51.237 35.4601 
614.835 51.9697 35.4557 
614.857 52.7023 35.4512 
614.879 53.4349 35.4467 
614.901 54.1675 35.4423 
614.166 54.9733 34.7873 
614.188 55.7075 34.7828 
614.21 56.4418 34.7784 
614.232 57.176 34.7739 
613.497 57.9897 34.1189 
613.519 58.7255 34.1144 
612.784 59.5441 33.4594 
612.806 60.2815 33.4549 
612.828 61.0189 33.4504 
612.093 61.8438 32.7953 
612.115 62.5828 32.7908 
611.38 63.4125 32.1357 
611.403 64.1531 32.1312 
611.425 64.8936 32.1267 
610.69 65.7297 31.4716 
610.713 66.4719 31.467 
609.978 67.3127 30.8119 
610.001 68.0565 30.8074 
610.023 68.8002 30.8028 
609.289 69.6475 30.1476 
600.599 -6.92882 24.1758 
600.622 -6.16913 24.1712 
600.645 -5.40943 24.1666 
600.668 -4.64974 24.1619 
600.691 -3.89004 24.1573 
600.714 -3.13034 24.1527 
601.498 -2.32115 24.799 
602.282 -1.51515 25.4454 
604.588 -0.619704 27.3938 
606.916 1.01314 29.3376 
608.46 1.84315 30.6351 
610.004 2.6668 31.9326 
610.787 3.44573 32.5792 
611.57 4.22148 33.2257 
612.353 4.99404 33.8723 
612.375 5.72985 33.8678 
612.397 6.46565 33.8633 
613.18 7.23184 34.5099 
613.202 7.96605 34.5054 
613.225 8.70027 34.501 
613.247 9.43448 34.4965 
613.269 10.1687 34.492 
613.292 10.9029 34.4876 
613.314 11.6371 34.4831 
613.336 12.3713 34.4786 
614.119 13.1232 35.1253 
614.141 13.8558 35.1208 
614.163 14.5884 35.1164 
614.185 15.3211 35.1119 
614.208 16.0537 35.1075 
614.23 16.7863 35.103 
614.252 17.5189 35.0985 
614.275 18.2515 35.0941 
614.297 18.9842 35.0896 
614.319 19.7168 35.0851 
614.341 20.4494 35.0807 
614.364 21.182 35.0762 
614.386 21.9146 35.0717 
614.408 22.6473 35.0673 
614.43 23.3799 35.0628 
615.212 24.1063 35.7096 
615.234 24.8373 35.7052 
615.256 25.5683 35.7007 
615.279 26.2993 35.6963 
615.301 27.0304 35.6918 
615.323 27.7614 35.6874 
615.345 28.4924 35.6829 
615.367 29.2235 35.6785 
615.39 29.9545 35.674 
615.412 30.6855 35.6696 
615.434 31.4165 35.6651 
615.456 32.1476 35.6606 
615.479 32.8786 35.6562 
615.501 33.6096 35.6517 
615.523 34.3407 35.6473 
615.545 35.0717 35.6428 
615.567 35.8027 35.6384 
615.59 36.5337 35.6339 
615.612 37.2648 35.6295 
615.634 37.9958 35.625 
615.656 38.7268 35.6206 
614.92 39.4975 34.9646 
614.943 40.2302 34.9601 
614.965 40.9628 34.9557 
614.987 41.6954 34.9512 
615.009 42.428 34.9467 
615.032 43.1607 34.9423 
615.054 43.8933 34.9378 
615.076 44.6259 34.9333 
615.098 45.3585 34.9289 
615.121 46.0911 34.9244 
615.143 46.8238 34.9199 
615.165 47.5564 34.9155 
615.188 48.289 34.911 
615.21 49.0216 34.9066 
615.232 49.7542 34.9021 
615.254 50.4869 34.8976 
615.277 51.2195 34.8932 
614.541 52.0189 34.237 
614.564 52.7531 34.2325 
614.586 53.4873 34.2281 
614.608 54.2215 34.2236 
614.631 54.9557 34.2191 
614.653 55.6899 34.2146 
613.918 56.5005 33.5584 
613.941 57.2363 33.5539 
613.963 57.9721 33.5495 
613.228 58.789 32.8932 
613.251 59.5264 32.8887 
613.273 60.2638 32.8842 
613.296 61.0012 32.8797 
612.561 61.8261 32.2234 
612.584 62.5651 32.2189 
612.606 63.3041 32.2144 
611.872 64.1353 31.5581 
611.895 64.8759 31.5536 
611.161 65.7119 30.8972 
611.183 66.4541 30.8927 
611.206 67.1963 30.8882 
610.472 68.0386 30.2318 
610.494 68.7824 30.2272 
610.517 69.5262 30.2227 
552.066 120.305 -21.5373 
552.092 121.174 -21.5426 
552.119 122.044 -21.5479 
552.145 122.913 -21.5532 
552.172 123.783 -21.5585 
601.08 -6.94704 23.5879 
601.103 -6.18734 23.5833 
601.126 -5.42765 23.5787 
601.15 -4.66795 23.574 
601.173 -3.90825 23.5694 
601.196 -3.14856 23.5648 
601.979 -2.33933 24.2124 
603.522 -1.48535 25.5121 
605.064 -0.637727 26.812 
606.607 0.203517 28.1119 
607.389 0.995227 28.7596 
608.931 1.82532 30.0595 
610.473 2.64904 31.3595 
611.255 3.42801 32.0073 
612.037 4.2038 32.6551 
612.059 4.9412 32.6506 
612.841 5.7122 33.2984 
612.864 6.44801 33.2939 
612.886 7.18382 33.2894 
612.908 7.91962 33.2849 
612.931 8.65543 33.2804 
613.712 9.41688 33.9283 
613.735 10.1511 33.9238 
613.757 10.8853 33.9194 
613.779 11.6195 33.9149 
613.802 12.3537 33.9104 
613.824 13.0879 33.9059 
613.846 13.8222 33.9015 
613.869 14.5564 33.897 
613.891 15.2906 33.8925 
613.913 16.0248 33.888 
613.935 16.759 33.8836 
613.958 17.4932 33.8791 
613.98 18.2274 33.8746 
614.761 18.9666 34.5226 
614.783 19.6992 34.5182 
614.806 20.4318 34.5137 
614.828 21.1645 34.5092 
614.85 21.8971 34.5048 
614.872 22.6297 34.5003 
614.895 23.3623 34.4958 
614.917 24.0949 34.4914 
614.939 24.8276 34.4869 
614.961 25.5602 34.4824 
614.984 26.2928 34.478 
615.006 27.0254 34.4735 
615.028 27.758 34.4691 
615.05 28.4907 34.4646 
615.073 29.2233 34.4601 
615.095 29.9559 34.4557 
615.117 30.6885 34.4512 
615.14 31.4212 34.4467 
615.162 32.1538 34.4423 
615.184 32.8864 34.4378 
615.206 33.619 34.4333 
615.229 34.3516 34.4289 
615.251 35.0843 34.4244 
615.273 35.8169 34.4199 
615.295 36.5495 34.4155 
615.318 37.2821 34.411 
615.34 38.0147 34.4066 
615.362 38.7474 34.4021 
615.385 39.48 34.3976 
615.407 40.2126 34.3932 
615.429 40.9452 34.3887 
615.451 41.6778 34.3842 
615.474 42.4105 34.3798 
615.496 43.1431 34.3753 
615.518 43.8757 34.3708 
614.784 44.6591 33.7135 
614.806 45.3933 33.7091 
614.828 46.1276 33.7046 
614.85 46.8618 33.7001 
614.873 47.596 33.6956 
614.895 48.3302 33.6912 
614.917 49.0644 33.6867 
614.94 49.7986 33.6822 
614.962 50.5328 33.6778 
614.984 51.2671 33.6733 
615.007 52.0013 33.6688 
615.029 52.7355 33.6643 
615.051 53.4697 33.6599 
614.317 54.2754 33.0024 
614.34 55.0112 32.998 
614.362 55.747 32.9935 
614.384 56.4828 32.989 
614.407 57.2186 32.9845 
613.673 58.0339 32.327 
613.696 58.7713 32.3225 
613.718 59.5087 32.318 
613.74 60.2461 32.3135 
613.007 61.0694 31.656 
613.03 61.8083 31.6515 
613.052 62.5473 31.647 
613.074 63.2863 31.6425 
613.097 64.0253 31.638 
612.364 64.8581 30.9804 
612.386 65.5987 30.9759 
611.653 66.4363 30.3183 
611.676 67.1785 30.3138 
611.698 67.9206 30.3093 
611.721 68.6628 30.3047 
610.988 69.5084 29.6471 
553.396 120.97 -21.562 
553.422 121.838 -21.5673 
553.449 122.706 -21.5726 
601.539 -7.72495 23.0046 
601.562 -6.96525 23 
602.344 -6.14802 23.6488 
601.608 -5.44586 22.9907 
601.631 -4.68616 22.9861 
601.654 -3.92647 22.9815 
602.436 -3.11561 23.6303 
602.459 -2.3575 23.6257 
604 -1.50345 24.9279 
605.54 -0.655749 26.2302 
606.322 0.140776 26.8791 
607.862 0.977318 28.1815 
610.184 2.59127 30.1329 
611.723 3.4103 31.4354 
611.746 4.14929 31.4309 
612.527 4.92352 32.0799 
612.549 5.66092 32.0754 
613.33 6.43037 32.7245 
613.352 7.16618 32.72 
613.375 7.90198 32.7155 
613.397 8.63779 32.711 
613.419 9.37359 32.7065 
613.442 10.1094 32.702 
613.464 10.8452 32.6976 
613.486 11.581 32.6931 
613.509 12.3168 32.6886 
613.531 13.0526 32.6841 
613.554 13.7884 32.6796 
613.576 14.5242 32.6751 
613.598 15.26 32.6707 
614.378 16.0072 33.3198 
614.401 16.7414 33.3154 
614.423 17.4756 33.3109 
614.445 18.2098 33.3064 
614.468 18.9441 33.3019 
614.49 19.6783 33.2975 
614.512 20.4125 33.293 
614.535 21.1467 33.2885 
614.557 21.8809 33.284 
614.579 22.6151 33.2796 
614.602 23.3493 33.2751 
614.624 24.0835 33.2706 
614.646 24.8178 33.2661 
614.669 25.552 33.2617 
614.691 26.2862 33.2572 
614.713 27.0204 33.2527 
614.735 27.7546 33.2482 
614.758 28.4888 33.2438 
614.78 29.223 33.2393 
614.802 29.9573 33.2348 
615.582 30.671 33.8842 
615.604 31.4036 33.8798 
615.626 32.1362 33.8753 
615.648 32.8688 33.8708 
615.671 33.6015 33.8664 
615.693 34.3341 33.8619 
615.715 35.0667 33.8574 
615.737 35.7993 33.853 
615.76 36.5319 33.8485 
615.026 37.2994 33.1901 
615.048 38.0336 33.1856 
615.07 38.7678 33.1811 
615.093 39.502 33.1767 
615.115 40.2362 33.1722 
615.137 40.9705 33.1677 
615.159 41.7047 33.1632 
615.182 42.4389 33.1588 
615.204 43.1731 33.1543 
615.226 43.9073 33.1498 
615.249 44.6415 33.1453 
615.271 45.3757 33.1409 
615.293 46.11 33.1364 
615.316 46.8442 33.1319 
615.338 47.5784 33.1274 
615.36 48.3126 33.123 
614.627 49.1071 32.4644 
614.649 49.8429 32.4599 
614.672 50.5787 32.4554 
614.694 51.3146 32.451 
614.717 52.0504 32.4465 
614.739 52.7862 32.442 
614.761 53.522 32.4375 
614.784 54.2578 32.433 
614.806 54.9936 32.4285 
614.073 55.804 31.7698 
614.096 56.5414 31.7653 
614.118 57.2788 31.7609 
614.14 58.0162 31.7564 
614.163 58.7536 31.7519 
614.185 59.491 31.7474 
613.453 60.3127 31.0886 
613.475 61.0516 31.0841 
613.498 61.7906 31.0796 
613.52 62.5296 31.0751 
613.543 63.2686 31.0706 
613.565 64.0076 31.0661 
612.833 64.8404 30.4073 
612.856 65.581 30.4028 
612.124 66.4185 29.7439 
612.146 67.1607 29.7394 
612.169 67.9028 29.7349 
612.191 68.645 29.7304 
612.214 69.3872 29.7259 
611.482 70.2343 29.067 
554.672 119.9 -21.5736 
554.698 120.767 -21.5789 
554.724 121.633 -21.5842 
602.778 -7.6824 23.0713 
602.801 -6.9243 23.0667 
602.824 -6.16619 23.0621 
602.847 -5.40809 23.0575 
602.87 -4.64999 23.0528 
602.893 -3.89188 23.0482 
603.674 -3.08258 23.6983 
603.697 -2.32607 23.6936 
605.236 -1.47353 24.9984 
609.874 1.78966 28.9083 
611.411 2.61353 30.2133 
612.192 3.39258 30.8635 
612.214 4.13157 30.859 
612.994 4.90584 31.5092 
