ply
format ascii 1.0
comment FreeCAD generated
element vertex 1900
property float x
property float y
property float z
end_header
16.8380 55.9130 23.4697 
16.1120 56.9240 22.8085 
16.1350 57.6810 22.8039 
16.1580 58.4370 22.7993 
16.1810 59.1940 22.7947 
16.2040 59.9500 22.7901 
16.2270 60.7070 22.7855 
18.8980 -16.3387 26.6066 
18.9200 -15.5917 26.6021 
18.9430 -14.8447 26.5975 
18.9660 -14.0978 26.5930 
18.9890 -13.3508 26.5884 
19.0110 -12.6039 26.5839 
19.0340 -11.8569 26.5793 
19.0570 -11.1100 26.5748 
19.0790 -10.3630 26.5702 
19.1020 -9.61610 26.5657 
19.1250 -8.86910 26.5611 
19.1470 -8.12210 26.5566 
19.1700 -7.37520 26.5520 
19.1930 -6.62820 26.5475 
19.2160 -5.88130 26.5429 
19.9900 -5.26150 27.1953 
20.0120 -4.51610 27.1908 
20.0350 -3.77070 27.1863 
20.0580 -3.02540 27.1817 
20.0800 -2.28000 27.1772 
20.1030 -1.53470 27.1726 
20.1260 -0.789299 27.1681 
20.1480 -0.0438995 27.1635 
20.1710 0.701401 27.1590 
20.1940 1.44680 27.1545 
20.2160 2.19220 27.1499 
20.2390 2.93750 27.1454 
20.2620 3.68290 27.1408 
20.2840 4.42820 27.1363 
20.3070 5.17360 27.1317 
19.5790 6.07000 26.4701 
19.6020 6.81690 26.4655 
19.6240 7.56390 26.4610 
19.6470 8.31090 26.4564 
19.6700 9.05780 26.4519 
20.4430 9.64580 27.1045 
20.4660 10.3912 27.1000 
20.4880 11.1365 27.0954 
20.5110 11.8819 27.0909 
20.5330 12.6272 27.0863 
20.5560 13.3726 27.0818 
19.8280 14.2860 26.4200 
19.8510 15.0330 26.4155 
19.8740 15.7800 26.4109 
19.8970 16.5270 26.4064 
19.9190 17.2740 26.4018 
19.9420 18.0210 26.3973 
19.9650 18.7680 26.3927 
19.9870 19.5150 26.3882 
20.0100 20.2620 26.3836 
20.0330 21.0090 26.3791 
20.0560 21.7560 26.3745 
20.0780 22.5030 26.3699 
20.1010 23.2500 26.3654 
20.1240 23.9970 26.3608 
20.1460 24.7440 26.3563 
20.1690 25.4910 26.3517 
20.1920 26.2380 26.3472 
20.2140 26.9850 26.3426 
20.2370 27.7320 26.3381 
20.2600 28.4790 26.3335 
20.2830 29.2260 26.3290 
20.3050 29.9730 26.3244 
20.3280 30.7200 26.3199 
20.3510 31.4660 26.3153 
20.3730 32.2130 26.3108 
20.3960 32.9600 26.3062 
20.4190 33.7070 26.3017 
20.4420 34.4540 26.2971 
20.4640 35.2010 26.2926 
20.4870 35.9480 26.2880 
20.5100 36.6950 26.2835 
20.5320 37.4420 26.2789 
19.8060 38.4090 25.6168 
19.8290 39.1570 25.6122 
19.8520 39.9060 25.6077 
19.8750 40.6540 25.6031 
19.8970 41.4030 25.5986 
19.9200 42.1510 25.5940 
19.9430 42.9000 25.5894 
19.9660 43.6480 25.5849 
19.9880 44.3970 25.5803 
20.0110 45.1450 25.5758 
20.0340 45.8940 25.5712 
19.3080 46.8800 24.9090 
19.3310 47.6300 24.9044 
19.3540 48.3800 24.8999 
19.3770 49.1300 24.8953 
18.6520 50.1240 24.2330 
18.6740 50.8750 24.2284 
17.9490 51.8740 23.5661 
17.9720 52.6270 23.5616 
17.9950 53.3800 23.5570 
17.2700 54.3850 22.8946 
17.2930 55.1400 22.8900 
17.3160 55.8950 22.8854 
16.5920 56.9060 22.2231 
17.3620 57.4050 22.8762 
16.6380 58.4190 22.2139 
16.6610 59.1750 22.2092 
16.6840 59.9320 22.2046 
16.7070 60.6880 22.2000 
16.7300 61.4450 22.1954 
19.3710 -16.3566 26.0286 
19.3940 -15.6096 26.0240 
19.4160 -14.8626 26.0195 
19.4390 -14.1157 26.0149 
19.4620 -13.3687 26.0104 
19.4840 -12.6218 26.0058 
19.5070 -11.8748 26.0013 
19.5300 -11.1279 25.9967 
19.5530 -10.3809 25.9922 
19.5750 -9.63400 25.9876 
19.5980 -8.88700 25.9831 
19.6210 -8.14010 25.9785 
19.6430 -7.39310 25.9740 
19.6660 -6.64610 25.9694 
19.6890 -5.89920 25.9649 
19.7110 -5.15220 25.9603 
19.7340 -4.40530 25.9558 
19.7570 -3.65830 25.9512 
19.7800 -2.91140 25.9466 
19.8020 -2.16440 25.9421 
19.8250 -1.41750 25.9375 
19.8480 -0.670502 25.9330 
19.8700 0.0764008 25.9284 
19.8930 0.823402 25.9239 
19.9160 1.57040 25.9193 
19.9390 2.31730 25.9148 
19.9610 3.06430 25.9102 
19.9840 3.81120 25.9057 
20.0070 4.55820 25.9011 
20.0290 5.30510 25.8966 
20.0520 6.05210 25.8920 
20.0750 6.79900 25.8875 
20.0970 7.54600 25.8829 
20.1200 8.29300 25.8784 
20.1430 9.03990 25.8738 
20.1660 9.78690 25.8693 
20.1880 10.5338 25.8647 
20.2110 11.2808 25.8602 
20.2340 12.0277 25.8556 
20.2560 12.7747 25.8511 
20.2790 13.5216 25.8465 
20.3020 14.2690 25.8420 
20.3250 15.0160 25.8374 
20.3470 15.7630 25.8329 
20.3700 16.5090 25.8283 
20.3930 17.2560 25.8238 
20.4150 18.0030 25.8192 
19.6890 18.9280 25.1561 
19.7120 19.6770 25.1516 
19.7350 20.4250 25.1470 
19.7570 21.1740 25.1424 
19.7800 21.9230 25.1379 
19.8030 22.6710 25.1333 
19.8260 23.4200 25.1287 
19.8480 24.1680 25.1242 
19.8710 24.9170 25.1196 
19.8940 25.6650 25.1151 
19.9170 26.4140 25.1105 
19.9390 27.1620 25.1059 
19.9620 27.9110 25.1014 
19.9850 28.6600 25.0968 
20.0080 29.4080 25.0923 
20.0300 30.1570 25.0877 
20.0530 30.9050 25.0831 
20.0760 31.6540 25.0786 
20.0990 32.4020 25.0740 
20.1210 33.1510 25.0694 
20.1440 33.8990 25.0649 
20.1670 34.6480 25.0603 
20.1900 35.3960 25.0558 
20.2120 36.1450 25.0512 
20.2350 36.8940 25.0466 
20.2580 37.6420 25.0421 
20.2810 38.3910 25.0375 
20.3030 39.1390 25.0330 
20.3260 39.8880 25.0284 
20.3490 40.6360 25.0238 
20.3720 41.3850 25.0193 
20.3940 42.1330 25.0147 
19.6700 43.1110 24.3513 
19.6930 43.8610 24.3468 
19.7150 44.6110 24.3422 
19.7380 45.3610 24.3376 
19.7610 46.1110 24.3330 
19.7840 46.8620 24.3285 
19.8070 47.6120 24.3239 
19.8290 48.3620 24.3193 
19.1050 49.3540 23.6558 
19.1280 50.1060 23.6513 
19.1510 50.8570 23.6467 
18.4270 51.8560 22.9832 
18.4500 52.6090 22.9786 
18.4730 53.3620 22.9740 
18.4950 54.1160 22.9694 
17.7720 55.1220 22.3058 
17.7950 55.8770 22.3012 
17.8180 56.6320 22.2966 
17.8410 57.3870 22.2920 
17.8630 58.1410 22.2874 
17.8860 58.8960 22.2828 
17.1630 59.9140 21.6192 
17.1860 60.6700 21.6146 
17.2090 61.4270 21.6100 
19.0940 -16.2713 24.7912 
19.1170 -15.5227 24.7866 
19.1390 -14.7742 24.7821 
19.1620 -14.0257 24.7775 
19.1850 -13.2771 24.7730 
19.2080 -12.5286 24.7684 
19.2300 -11.7800 24.7638 
19.2530 -11.0315 24.7593 
19.2760 -10.2829 24.7547 
19.2990 -9.53440 24.7502 
19.3220 -8.78580 24.7456 
19.3440 -8.03730 24.7410 
19.3670 -7.28870 24.7365 
19.3900 -6.54020 24.7319 
19.4130 -5.79160 24.7274 
20.1850 -5.17020 25.3822 
20.2070 -4.42320 25.3777 
20.2300 -3.67620 25.3731 
20.2530 -2.92930 25.3686 
20.2760 -2.18230 25.3640 
20.2980 -1.43540 25.3595 
20.3210 -0.688400 25.3549 
20.3440 0.0585022 25.3504 
20.3660 0.805496 25.3458 
20.3890 1.55250 25.3413 
20.4120 2.29940 25.3367 
20.4350 3.04640 25.3322 
20.4570 3.79330 25.3276 
20.4800 4.54030 25.3231 
19.7540 5.43660 24.6589 
19.7770 6.18510 24.6544 
19.7990 6.93370 24.6498 
19.8220 7.68220 24.6452 
19.8450 8.43080 24.6407 
19.8680 9.17930 24.6361 
19.8900 9.92790 24.6316 
19.9130 10.6764 24.6270 
19.9360 11.4250 24.6224 
19.9590 12.1735 24.6179 
19.9810 12.9221 24.6133 
20.0040 13.6706 24.6088 
20.0270 14.4190 24.6042 
20.0500 15.1680 24.5996 
20.0720 15.9160 24.5951 
20.0950 16.6650 24.5905 
20.1180 17.4130 24.5859 
20.1410 18.1620 24.5814 
20.1630 18.9100 24.5768 
20.1860 19.6590 24.5723 
20.2090 20.4080 24.5677 
20.2320 21.1560 24.5631 
20.2540 21.9050 24.5586 
20.2770 22.6530 24.5540 
20.3000 23.4020 24.5495 
20.3230 24.1500 24.5449 
20.3450 24.8990 24.5403 
19.6210 25.8400 23.8759 
19.6430 26.5900 23.8714 
19.6660 27.3400 23.8668 
19.6890 28.0900 23.8622 
19.7120 28.8400 23.8576 
19.7350 29.5900 23.8531 
19.7570 30.3410 23.8485 
19.7800 31.0910 23.8439 
19.8030 31.8410 23.8394 
19.8260 32.5910 23.8348 
19.8490 33.3410 23.8302 
19.8710 34.0910 23.8257 
19.8940 34.8410 23.8211 
19.9170 35.5920 23.8165 
19.9400 36.3420 23.8119 
19.9630 37.0920 23.8074 
19.9850 37.8420 23.8028 
20.0080 38.5920 23.7982 
20.0310 39.3420 23.7937 
20.0540 40.0920 23.7891 
20.0770 40.8430 23.7845 
20.0990 41.5930 23.7799 
20.1220 42.3430 23.7754 
20.1450 43.0930 23.7708 
20.1680 43.8430 23.7662 
20.1910 44.5930 23.7617 
20.2130 45.3430 23.7571 
19.4900 46.3290 23.0924 
19.5130 47.0810 23.0878 
19.5360 47.8320 23.0832 
19.5590 48.5840 23.0787 
19.5810 49.3360 23.0741 
19.6040 50.0880 23.0695 
18.8810 51.0840 22.4048 
18.9040 51.8380 22.4002 
18.9270 52.5910 22.3956 
18.9500 53.3440 22.3910 
18.9730 54.0970 22.3864 
18.2500 55.1040 21.7216 
18.2730 55.8590 21.7170 
18.2960 56.6140 21.7124 
18.3190 57.3680 21.7078 
18.3420 58.1230 21.7032 
18.3650 58.8780 21.6986 
17.6420 59.8960 21.0337 
17.6650 60.6520 21.0291 
17.6880 61.4090 21.0245 
19.5680 -16.2892 24.2119 
19.5910 -15.5407 24.2074 
19.6140 -14.7922 24.2028 
19.6370 -14.0436 24.1982 
19.6590 -13.2951 24.1937 
19.6820 -12.5465 24.1891 
19.7050 -11.7980 24.1845 
19.7280 -11.0494 24.1800 
19.7500 -10.3009 24.1754 
19.7730 -9.55230 24.1709 
19.7960 -8.80380 24.1663 
19.8190 -8.05520 24.1617 
19.8410 -7.30670 24.1572 
19.8640 -6.55810 24.1526 
19.8870 -5.80960 24.1481 
19.9100 -5.06100 24.1435 
19.9320 -4.31250 24.1389 
19.9550 -3.56390 24.1344 
19.9780 -2.81540 24.1298 
20.0010 -2.06680 24.1252 
20.0230 -1.31830 24.1207 
20.0460 -0.569702 24.1161 
20.0690 0.178802 24.1116 
20.0920 0.927399 24.1070 
20.1140 1.67590 24.1024 
20.1370 2.42450 24.0979 
20.1600 3.17300 24.0933 
20.1830 3.92150 24.0888 
20.2050 4.67010 24.0842 
20.2280 5.41860 24.0796 
20.2510 6.16720 24.0751 
20.2740 6.91570 24.0705 
20.2960 7.66430 24.0659 
20.3190 8.41280 24.0614 
20.3420 9.16140 24.0568 
20.3650 9.90990 24.0523 
20.3870 10.6585 24.0477 
20.4100 11.4070 24.0431 
20.4330 12.1556 24.0386 
20.4560 12.9041 24.0340 
19.7310 13.8195 23.3685 
19.7540 14.5700 23.3640 
19.7770 15.3200 23.3594 
19.8000 16.0700 23.3548 
19.8220 16.8200 23.3503 
19.8450 17.5700 23.3457 
19.8680 18.3200 23.3411 
19.8910 19.0700 23.3365 
19.9140 19.8210 23.3320 
19.9360 20.5710 23.3274 
19.9590 21.3210 23.3228 
19.9820 22.0710 23.3183 
20.0050 22.8210 23.3137 
20.0280 23.5710 23.3091 
20.0500 24.3210 23.3046 
20.0730 25.0720 23.3000 
20.0960 25.8220 23.2954 
20.1190 26.5720 23.2908 
20.1420 27.3220 23.2863 
20.1640 28.0720 23.2817 
20.1870 28.8220 23.2771 
20.2100 29.5720 23.2726 
20.2330 30.3230 23.2680 
20.2550 31.0730 23.2634 
20.2780 31.8230 23.2588 
20.3010 32.5730 23.2543 
20.3240 33.3230 23.2497 
20.3470 34.0730 23.2451 
20.3700 34.8230 23.2406 
20.3920 35.5740 23.2360 
20.4150 36.3240 23.2314 
20.4380 37.0740 23.2268 
20.4610 37.8240 23.2223 
20.4840 38.5740 23.2177 
20.5060 39.3240 23.2131 
20.5290 40.0740 23.2086 
20.5520 40.8250 23.2040 
20.5750 41.5750 23.1994 
19.8520 42.5520 22.5335 
19.8750 43.3040 22.5290 
19.8980 44.0560 22.5244 
19.9210 44.8070 22.5198 
19.9430 45.5590 22.5152 
19.9660 46.3110 22.5106 
19.9890 47.0630 22.5061 
20.0120 47.8140 22.5015 
20.0350 48.5660 22.4969 
19.3130 49.5590 21.8309 
19.3360 50.3130 21.8264 
19.3590 51.0660 21.8218 
19.3810 51.8190 21.8172 
19.4040 52.5730 21.8126 
19.4270 53.3260 21.8080 
18.7050 54.3310 21.1420 
18.7280 55.0860 21.1374 
18.7510 55.8410 21.1328 
18.7740 56.5950 21.1282 
18.7970 57.3500 21.1236 
18.8200 58.1050 21.1190 
18.0990 59.1210 20.4529 
18.1220 59.8780 20.4483 
18.1450 60.6340 20.4437 
17.4230 61.6560 19.7775 
17.4460 62.4140 19.7729 
16.7250 63.4410 19.1067 
20.0650 -15.5586 23.6281 
20.0880 -14.8101 23.6235 
20.1110 -14.0615 23.6189 
20.1340 -13.3130 23.6144 
19.4080 -12.4534 22.9480 
20.1790 -11.8159 23.6053 
19.4540 -10.9531 22.9389 
19.4770 -10.2030 22.9343 
19.5000 -9.45280 22.9297 
19.5220 -8.70270 22.9252 
19.5450 -7.95260 22.9206 
19.5680 -7.20240 22.9160 
19.5910 -6.45230 22.9114 
19.6140 -5.70210 22.9069 
19.6360 -4.95200 22.9023 
19.6590 -4.20190 22.8977 
19.6820 -3.45170 22.8932 
19.7050 -2.70160 22.8886 
20.4750 -2.08480 23.5460 
20.4980 -1.33620 23.5414 
20.5200 -0.587700 23.5368 
20.5430 0.160896 23.5323 
19.8190 1.04910 22.8657 
19.8420 1.79930 22.8612 
19.8640 2.54940 22.8566 
19.8870 3.29960 22.8520 
19.9100 4.04970 22.8474 
19.9330 4.79980 22.8429 
19.9560 5.55000 22.8383 
19.9780 6.30010 22.8337 
20.0010 7.05020 22.8292 
20.0240 7.80040 22.8246 
20.0470 8.55050 22.8200 
20.0700 9.30070 22.8154 
20.0920 10.0508 22.8109 
20.1150 10.8009 22.8063 
20.1380 11.5511 22.8017 
20.1610 12.3012 22.7972 
20.1840 13.0514 22.7926 
20.2060 13.8015 22.7880 
20.2290 14.5520 22.7835 
20.2520 15.3020 22.7789 
20.2750 16.0520 22.7743 
20.2980 16.8020 22.7697 
20.3200 17.5520 22.7652 
20.3430 18.3020 22.7606 
19.6200 19.2300 22.0938 
19.6430 19.9820 22.0892 
19.6660 20.7340 22.0846 
19.6890 21.4860 22.0801 
19.7110 22.2370 22.0755 
19.7340 22.9890 22.0709 
19.7570 23.7410 22.0663 
19.7800 24.4930 22.0617 
19.8030 25.2440 22.0571 
19.8260 25.9960 22.0526 
19.8490 26.7480 22.0480 
19.8710 27.5000 22.0434 
19.8940 28.2510 22.0388 
19.9170 29.0030 22.0342 
19.9400 29.7550 22.0297 
19.9630 30.5060 22.0251 
19.9860 31.2580 22.0205 
20.0080 32.0100 22.0159 
20.0310 32.7620 22.0113 
20.0540 33.5130 22.0068 
20.0770 34.2650 22.0022 
20.1000 35.0170 21.9976 
20.1230 35.7690 21.9930 
20.1460 36.5200 21.9884 
20.1680 37.2720 21.9839 
20.1910 38.0240 21.9793 
20.2140 38.7750 21.9747 
20.2370 39.5270 21.9701 
20.2600 40.2790 21.9655 
20.2830 41.0310 21.9609 
20.3060 41.7820 21.9564 
20.3280 42.5340 21.9518 
20.3510 43.2860 21.9472 
20.3740 44.0380 21.9426 
20.3970 44.7890 21.9380 
19.6760 45.7750 21.2709 
19.6980 46.5280 21.2663 
19.7210 47.2810 21.2617 
19.7440 48.0350 21.2571 
19.7670 48.7880 21.2525 
19.7900 49.5410 21.2480 
19.8130 50.2950 21.2434 
19.8360 51.0480 21.2388 
19.8590 51.8010 21.2342 
19.8820 52.5550 21.2296 
19.1610 53.5580 20.5623 
19.1840 54.3130 20.5577 
19.2070 55.0670 20.5531 
19.2300 55.8220 20.5485 
19.2530 56.5770 20.5439 
19.2760 57.3320 20.5393 
18.5550 58.3460 19.8720 
18.5780 59.1030 19.8674 
18.6010 59.8590 19.8628 
18.6240 60.6160 19.8582 
17.9040 61.6380 19.1908 
17.1830 62.6630 18.5235 
17.2070 63.4230 18.5188 
19.8150 -14.7218 22.3812 
19.8380 -13.9717 22.3766 
19.8610 -13.2215 22.3721 
19.8840 -12.4714 22.3675 
19.9070 -11.7212 22.3629 
19.9290 -10.9711 22.3583 
19.9520 -10.2210 22.3538 
19.9750 -9.47080 22.3492 
19.9980 -8.72070 22.3446 
20.0210 -7.97050 22.3401 
20.0430 -7.22040 22.3355 
20.0660 -6.47030 22.3309 
20.0890 -5.72010 22.3263 
20.1120 -4.97000 22.3218 
20.1350 -4.21980 22.3172 
20.1570 -3.46970 22.3126 
20.1800 -2.71960 22.3081 
20.2030 -1.96940 22.3035 
20.2260 -1.21930 22.2989 
20.2490 -0.469101 22.2943 
20.2710 0.280998 22.2898 
20.2940 1.03110 22.2852 
20.3170 1.78130 22.2806 
20.3400 2.53140 22.2761 
20.3620 3.28160 22.2715 
20.3850 4.03170 22.2669 
20.4080 4.78180 22.2624 
20.4310 5.53200 22.2578 
19.7080 6.43300 21.5899 
19.7310 7.18470 21.5853 
19.7540 7.93640 21.5807 
19.7770 8.68820 21.5762 
19.7990 9.43990 21.5716 
19.8220 10.1916 21.5670 
19.8450 10.9434 21.5624 
19.8680 11.6951 21.5578 
19.8910 12.4468 21.5533 
19.9140 13.1986 21.5487 
19.9360 13.9503 21.5441 
19.9590 14.7020 21.5395 
19.9820 15.4540 21.5349 
20.0050 16.2050 21.5304 
20.0280 16.9570 21.5258 
20.0510 17.7090 21.5212 
20.0740 18.4610 21.5166 
20.0960 19.2120 21.5120 
20.1190 19.9640 21.5075 
20.1420 20.7160 21.5029 
20.1650 21.4680 21.4983 
20.1880 22.2190 21.4937 
20.2110 22.9710 21.4891 
20.2330 23.7230 21.4846 
20.2560 24.4750 21.4800 
20.2790 25.2260 21.4754 
20.3020 25.9780 21.4708 
20.3250 26.7300 21.4662 
20.3480 27.4810 21.4616 
20.3710 28.2330 21.4571 
20.3930 28.9850 21.4525 
20.4160 29.7370 21.4479 
20.4390 30.4880 21.4433 
20.4620 31.2400 21.4387 
20.4850 31.9920 21.4342 
20.5080 32.7440 21.4296 
20.5310 33.4950 21.4250 
20.5530 34.2470 21.4204 
19.8320 35.2100 20.7522 
19.8550 35.9630 20.7476 
19.8780 36.7170 20.7430 
19.9010 37.4700 20.7384 
19.9240 38.2230 20.7338 
19.9470 38.9770 20.7292 
19.9700 39.7300 20.7246 
19.9930 40.4830 20.7201 
20.0160 41.2370 20.7155 
20.0380 41.9900 20.7109 
20.0610 42.7430 20.7063 
20.0840 43.4970 20.7017 
20.1070 44.2500 20.6971 
20.1300 45.0030 20.6925 
20.1530 45.7570 20.6879 
20.1760 46.5100 20.6833 
20.1990 47.2630 20.6787 
20.2220 48.0170 20.6742 
20.2450 48.7700 20.6696 
20.2670 49.5230 20.6650 
19.5470 50.5200 19.9965 
19.5700 51.2750 19.9919 
19.5930 52.0300 19.9873 
19.6160 52.7850 19.9827 
19.6390 53.5400 19.9781 
19.6620 54.2940 19.9735 
19.6850 55.0490 19.9689 
19.7080 55.8040 19.9643 
18.9880 56.8150 19.2958 
19.0110 57.5720 19.2912 
19.0340 58.3280 19.2866 
19.0570 59.0850 19.2820 
19.0800 59.8410 19.2774 
18.3610 60.8620 18.6088 
18.3840 61.6200 18.6042 
17.6650 62.6450 17.9355 
17.6880 63.4050 17.9309 
20.3130 -13.9896 21.7961 
20.3360 -13.2395 21.7915 
20.3590 -12.4894 21.7870 
20.3820 -11.7392 21.7824 
19.6590 -10.8749 21.1135 
20.4270 -10.2389 21.7732 
19.7040 -9.37150 21.1044 
19.7270 -8.61970 21.0998 
19.7500 -7.86800 21.0952 
19.7730 -7.11620 21.0906 
19.7960 -6.36450 21.0860 
19.8190 -5.61280 21.0814 
19.8420 -4.86110 21.0769 
19.8640 -4.10930 21.0723 
19.8870 -3.35760 21.0677 
19.9100 -2.60590 21.0631 
19.9330 -1.85410 21.0585 
19.9560 -1.10240 21.0540 
19.9790 -0.350700 21.0494 
20.0010 0.401100 21.0448 
20.0240 1.15280 21.0402 
20.0470 1.90450 21.0356 
20.0700 2.65630 21.0311 
20.0930 3.40800 21.0265 
20.1160 4.15970 21.0219 
20.1390 4.91150 21.0173 
20.1610 5.66320 21.0127 
20.1840 6.41490 21.0082 
20.2070 7.16670 21.0036 
20.2300 7.91840 20.9990 
20.2530 8.67010 20.9944 
20.2760 9.42190 20.9898 
20.2990 10.1736 20.9852 
20.3210 10.9253 20.9807 
19.6000 11.8390 20.3115 
19.6230 12.5923 20.3069 
19.6460 13.3457 20.3023 
19.6690 14.0990 20.2977 
19.6910 14.8520 20.2931 
19.7140 15.6060 20.2886 
19.7370 16.3590 20.2840 
19.7600 17.1120 20.2794 
19.7830 17.8660 20.2748 
19.8060 18.6190 20.2702 
19.8290 19.3720 20.2656 
19.8520 20.1260 20.2610 
19.8750 20.8790 20.2564 
19.8970 21.6320 20.2518 
19.9200 22.3860 20.2472 
19.9430 23.1390 20.2426 
19.9660 23.8920 20.2381 
19.9890 24.6460 20.2335 
20.0120 25.3990 20.2289 
20.0350 26.1520 20.2243 
20.0580 26.9060 20.2197 
20.0810 27.6590 20.2151 
20.1040 28.4120 20.2105 
20.1260 29.1660 20.2059 
20.1490 29.9190 20.2013 
20.1720 30.6720 20.1967 
20.1950 31.4250 20.1922 
20.2180 32.1790 20.1876 
20.2410 32.9320 20.1830 
20.2640 33.6850 20.1784 
20.2870 34.4390 20.1738 
20.3100 35.1920 20.1692 
20.3330 35.9450 20.1646 
20.3550 36.6990 20.1600 
20.3780 37.4520 20.1554 
20.4010 38.2050 20.1508 
20.4240 38.9590 20.1462 
20.4470 39.7120 20.1417 
20.4700 40.4650 20.1371 
20.4930 41.2190 20.1325 
20.5160 41.9720 20.1279 
20.5390 42.7250 20.1233 
20.5620 43.4790 20.1187 
19.8420 44.4620 19.4491 
19.8650 45.2170 19.4445 
19.8880 45.9720 19.4399 
19.9110 46.7270 19.4353 
19.9340 47.4820 19.4307 
19.9570 48.2370 19.4261 
19.9800 48.9920 19.4215 
20.0030 49.7470 19.4169 
20.0260 50.5020 19.4123 
20.0490 51.2570 19.4077 
20.0720 52.0120 19.4031 
19.3530 53.0140 18.7334 
19.3760 53.7710 18.7288 
19.3990 54.5270 18.7242 
19.4220 55.2840 18.7196 
19.4450 56.0410 18.7149 
19.4680 56.7970 18.7103 
19.4910 57.5540 18.7057 
19.5140 58.3100 18.7011 
19.5370 59.0670 18.6965 
19.5600 59.8230 18.6919 
18.8410 60.8430 18.0221 
18.1230 61.8670 17.3522 
18.1460 62.6270 17.3476 
17.4280 63.6550 16.6778 
16.7100 64.6870 16.0079 
15.9920 65.7210 15.3380 
20.0670 -13.1481 20.5455 
20.0890 -12.3964 20.5409 
20.1120 -11.6447 20.5363 
20.1350 -10.8929 20.5318 
20.1580 -10.1412 20.5272 
20.1810 -9.38950 20.5226 
20.2040 -8.63770 20.5180 
20.2270 -7.88600 20.5134 
19.5050 -7.01220 19.8433 
19.5280 -6.25890 19.8387 
19.5510 -5.50550 19.8341 
20.3180 -4.87910 20.4951 
20.3410 -4.12730 20.4905 
20.3640 -3.37560 20.4859 
20.3860 -2.62390 20.4814 
19.6650 -1.73890 19.8111 
19.6880 -0.985603 19.8066 
19.7110 -0.232300 19.8020 
19.7340 0.521103 19.7974 
19.7570 1.27440 19.7928 
19.7800 2.02770 19.7882 
19.8020 2.78110 19.7836 
19.8250 3.53440 19.7790 
19.8480 4.28770 19.7744 
19.8710 5.04100 19.7698 
19.8940 5.79430 19.7652 
19.9170 6.54770 19.7606 
19.9400 7.30100 19.7561 
19.9630 8.05430 19.7515 
19.9860 8.80770 19.7469 
20.0080 9.56100 19.7423 
20.0310 10.3143 19.7377 
20.0540 11.0676 19.7331 
20.0770 11.8210 19.7285 
20.1000 12.5743 19.7239 
20.1230 13.3276 19.7193 
20.1460 14.0810 19.7147 
20.1690 14.8340 19.7102 
20.1920 15.5880 19.7056 
20.2150 16.3410 19.7010 
20.2370 17.0940 19.6964 
20.2600 17.8480 19.6918 
20.2830 18.6010 19.6872 
20.3060 19.3540 19.6826 
20.3290 20.1080 19.6780 
19.6090 21.0420 19.0075 
19.6320 21.7970 19.0029 
19.6550 22.5520 18.9983 
20.4210 23.1210 19.6597 
19.7010 24.0620 18.9891 
19.7240 24.8160 18.9845 
19.7470 25.5710 18.9799 
19.7700 26.3260 18.9753 
19.7930 27.0810 18.9707 
19.8160 27.8360 18.9661 
19.8390 28.5910 18.9615 
19.8620 29.3460 18.9569 
19.8840 30.1010 18.9523 
19.9070 30.8560 18.9477 
19.9300 31.6110 18.9431 
19.9530 32.3660 18.9385 
19.9760 33.1210 18.9339 
19.9990 33.8750 18.9293 
20.0220 34.6300 18.9247 
20.0450 35.3850 18.9201 
20.0680 36.1400 18.9155 
20.0910 36.8950 18.9109 
20.1140 37.6500 18.9063 
20.1370 38.4050 18.9017 
20.1600 39.1600 18.8971 
20.1830 39.9150 18.8925 
20.2060 40.6700 18.8879 
20.2290 41.4250 18.8833 
20.2520 42.1800 18.8787 
20.2750 42.9350 18.8741 
20.2970 43.6890 18.8695 
20.3200 44.4440 18.8649 
20.3430 45.1990 18.8603 
20.3660 45.9540 18.8557 
19.6480 46.9440 18.1848 
19.6710 47.7010 18.1802 
19.6940 48.4570 18.1756 
19.7170 49.2140 18.1710 
19.7400 49.9700 18.1664 
19.7630 50.7270 18.1618 
19.7860 51.4830 18.1572 
19.8090 52.2400 18.1525 
19.8320 52.9960 18.1479 
19.8550 53.7530 18.1433 
19.8780 54.5090 18.1387 
19.9010 55.2660 18.1341 
19.9240 56.0220 18.1295 
19.9470 56.7790 18.1249 
19.9700 57.5350 18.1203 
19.2530 58.5510 17.4493 
19.2760 59.3090 17.4446 
19.2990 60.0670 17.4400 
19.3220 60.8250 17.4354 
18.6050 61.8490 16.7643 
17.8870 62.8760 16.0932 
17.1700 63.9050 15.4221 
17.1940 64.6680 15.4175 
15.7370 65.9750 14.0798 
12.0600 68.1080 10.7427 
20.5660 -12.4144 19.9592 
20.5890 -11.6627 19.9546 
20.6110 -10.9110 19.9500 
20.6340 -10.1592 19.9454 
19.9130 -9.29020 19.2741 
19.9360 -8.53690 19.2695 
19.9590 -7.78360 19.2649 
19.9820 -7.03020 19.2603 
20.0050 -6.27690 19.2557 
20.0280 -5.52360 19.2511 
20.0510 -4.77030 19.2465 
20.0740 -4.01690 19.2419 
20.0970 -3.26360 19.2373 
20.1190 -2.51030 19.2327 
20.1420 -1.75700 19.2282 
20.1650 -1.00360 19.2236 
20.1880 -0.250298 19.2190 
20.2110 0.502998 19.2144 
20.2340 1.25630 19.2098 
20.2570 2.00970 19.2052 
20.2800 2.76300 19.2006 
20.3030 3.51630 19.1960 
20.3260 4.26960 19.1914 
20.3480 5.02300 19.1868 
20.3710 5.77630 19.1822 
20.3940 6.52960 19.1777 
19.6740 7.43520 18.5061 
19.6970 8.19020 18.5015 
19.7200 8.94510 18.4969 
19.7430 9.70000 18.4923 
19.7660 10.4549 18.4877 
19.7890 11.2098 18.4831 
19.8120 11.9648 18.4785 
19.8350 12.7197 18.4739 
19.8580 13.4746 18.4693 
19.8810 14.2300 18.4647 
19.9040 14.9840 18.4601 
19.9270 15.7390 18.4555 
19.9500 16.4940 18.4509 
19.9730 17.2490 18.4463 
19.9960 18.0040 18.4417 
20.0190 18.7590 18.4371 
20.0420 19.5140 18.4325 
20.0640 20.2690 18.4279 
20.0870 21.0240 18.4233 
20.1100 21.7790 18.4187 
20.1330 22.5340 18.4141 
20.1560 23.2890 18.4095 
20.1790 24.0430 18.4049 
20.2020 24.7980 18.4003 
20.2250 25.5530 18.3957 
20.2480 26.3080 18.3911 
20.2710 27.0630 18.3865 
19.5530 28.0130 17.7146 
19.5760 28.7700 17.7100 
19.5990 29.5260 17.7054 
19.6220 30.2830 17.7008 
19.6450 31.0390 17.6962 
19.6680 31.7960 17.6916 
19.6910 32.5520 17.6869 
19.7140 33.3090 17.6823 
19.7370 34.0650 17.6777 
19.7600 34.8220 17.6731 
19.7830 35.5780 17.6685 
19.8060 36.3350 17.6639 
19.8280 37.0910 17.6593 
19.8520 37.8480 17.6547 
19.8750 38.6050 17.6501 
19.8980 39.3610 17.6455 
19.9210 40.1180 17.6408 
19.9430 40.8740 17.6362 
19.9660 41.6310 17.6316 
19.9900 42.3870 17.6270 
20.0130 43.1440 17.6224 
20.0350 43.9000 17.6178 
20.0580 44.6570 17.6132 
20.0810 45.4130 17.6086 
20.1040 46.1700 17.6040 
20.1280 46.9260 17.5994 
20.1500 47.6830 17.5947 
20.1730 48.4390 17.5901 
20.1960 49.1960 17.5855 
20.2190 49.9520 17.5809 
20.2420 50.7090 17.5763 
19.5260 51.7100 16.9042 
19.5490 52.4680 16.8995 
19.5720 53.2260 16.8949 
19.5950 53.9840 16.8903 
19.6180 54.7420 16.8857 
19.6410 55.5000 16.8811 
19.6640 56.2580 16.8764 
19.6870 57.0170 16.8718 
19.7100 57.7750 16.8672 
19.7330 58.5330 16.8626 
19.7560 59.2910 16.8580 
19.7790 60.0490 16.8533 
19.8020 60.8070 16.8487 
19.0860 61.8310 16.1764 
18.3700 62.8570 15.5041 
17.6540 63.8870 14.8317 
17.6770 64.6500 14.8271 
14.7440 66.5000 12.1516 
11.8110 68.3630 9.47593 
20.3220 -11.5683 18.7048 
20.3450 -10.8149 18.7003 
20.3680 -10.0616 18.6957 
20.3910 -9.30830 18.6911 
20.4140 -8.55500 18.6865 
19.6940 -7.68120 18.0138 
19.7170 -6.92630 18.0092 
19.7400 -6.17140 18.0046 
19.7630 -5.41650 18.0000 
19.7860 -4.66150 17.9954 
19.8090 -3.90660 17.9908 
19.8310 -3.15170 17.9862 
19.8540 -2.39680 17.9816 
19.8770 -1.64190 17.9770 
19.9000 -0.886902 17.9724 
19.9230 -0.132004 17.9678 
19.9460 0.622902 17.9632 
19.9690 1.37780 17.9586 
19.9920 2.13270 17.9540 
20.0150 2.88760 17.9494 
20.0380 3.64260 17.9448 
20.0610 4.39750 17.9402 
20.0840 5.15240 17.9356 
20.1070 5.90730 17.9310 
20.1300 6.66220 17.9264 
20.1530 7.41720 17.9218 
20.1760 8.17210 17.9172 
20.1990 8.92700 17.9126 
20.2220 9.68190 17.9080 
19.5030 10.5955 17.2352 
19.5260 11.3520 17.2306 
19.5490 12.1085 17.2260 
19.5720 12.8650 17.2213 
19.5950 13.6215 17.2167 
19.6180 14.3780 17.2121 
19.6410 15.1350 17.2075 
19.6640 15.8910 17.2029 
19.6870 16.6480 17.1983 
19.7100 17.4040 17.1937 
19.7330 18.1610 17.1891 
19.7560 18.9170 17.1845 
19.7790 19.6740 17.1799 
19.8020 20.4300 17.1753 
19.8250 21.1870 17.1706 
19.8480 21.9430 17.1660 
19.8710 22.7000 17.1614 
19.8940 23.4560 17.1568 
19.9170 24.2130 17.1522 
19.9400 24.9690 17.1476 
19.9630 25.7260 17.1430 
19.9860 26.4820 17.1384 
20.0090 27.2390 17.1338 
20.0320 27.9950 17.1292 
20.0550 28.7520 17.1245 
20.0780 29.5080 17.1199 
20.1010 30.2650 17.1153 
20.1240 31.0210 17.1107 
20.1470 31.7780 17.1061 
20.1700 32.5340 17.1015 
20.1930 33.2910 17.0969 
20.2160 34.0470 17.0923 
20.2390 34.8040 17.0877 
20.2620 35.5600 17.0831 
20.2850 36.3170 17.0784 
20.3080 37.0730 17.0738 
20.3310 37.8300 17.0692 
20.3540 38.5860 17.0646 
20.3770 39.3430 17.0600 
20.4000 40.0990 17.0554 
20.4230 40.8560 17.0508 
20.4460 41.6120 17.0462 
20.4690 42.3690 17.0416 
20.4920 43.1250 17.0370 
19.7760 44.1110 16.3637 
19.7990 44.8690 16.3590 
19.8220 45.6270 16.3544 
19.8450 46.3850 16.3498 
19.8680 47.1430 16.3452 
19.8910 47.9010 16.3406 
19.9140 48.6590 16.3359 
19.9370 49.4170 16.3313 
19.9600 50.1750 16.3267 
19.9830 50.9340 16.3221 
20.0060 51.6920 16.3175 
20.0290 52.4500 16.3128 
20.0520 53.2080 16.3082 
20.0750 53.9660 16.3036 
20.0980 54.7240 16.2990 
20.1210 55.4820 16.2944 
20.1440 56.2400 16.2897 
20.1670 56.9980 16.2851 
19.4520 58.0140 15.6116 
19.4750 58.7740 15.6070 
19.4980 59.5330 15.6024 
19.5210 60.2930 15.5977 
19.5440 61.0530 15.5931 
18.8290 62.0780 14.9196 
18.1140 63.1060 14.2460 
18.1370 63.8690 14.2413 
17.4220 64.9020 13.5678 
15.9690 66.2100 12.2252 
13.7790 67.7970 10.2136 
10.8510 69.6700 7.53301 
20.0800 -10.7190 17.4480 
20.1030 -9.96410 17.4434 
20.1260 -9.20910 17.4388 
20.1490 -8.45420 17.4342 
20.1720 -7.69930 17.4296 
19.4540 -6.82240 16.7558 
19.4770 -6.06590 16.7511 
19.5000 -5.30940 16.7465 
19.5230 -4.55290 16.7419 
19.5460 -3.79640 16.7373 
19.5680 -3.03990 16.7327 
19.5910 -2.28330 16.7281 
19.6150 -1.52680 16.7235 
19.6370 -0.770302 16.7189 
19.6600 -0.0138016 16.7143 
19.6830 0.742699 16.7097 
19.7060 1.49920 16.7050 
19.7290 2.25570 16.7004 
19.7520 3.01220 16.6958 
19.7750 3.76870 16.6912 
19.7980 4.52520 16.6866 
19.8210 5.28180 16.6820 
19.8440 6.03830 16.6774 
19.8670 6.79480 16.6728 
19.8900 7.55130 16.6682 
19.9130 8.30780 16.6636 
19.9360 9.06430 16.6589 
19.9590 9.82080 16.6543 
19.9820 10.5773 16.6497 
20.0050 11.3338 16.6451 
20.0280 12.0904 16.6405 
20.0510 12.8469 16.6359 
20.0740 13.6034 16.6313 
20.0970 14.3600 16.6267 
20.1200 15.1160 16.6221 
20.1430 15.8730 16.6175 
20.1660 16.6290 16.6128 
20.1890 17.3860 16.6082 
19.4720 18.3170 15.9340 
19.4950 19.0750 15.9294 
19.5180 19.8330 15.9248 
19.5420 20.5910 15.9202 
19.5650 21.3490 15.9156 
19.5880 22.1070 15.9109 
19.6110 22.8660 15.9063 
19.6340 23.6240 15.9017 
19.6570 24.3820 15.8971 
19.6800 25.1400 15.8925 
19.7030 25.8980 15.8878 
19.7260 26.6560 15.8832 
19.7490 27.4140 15.8786 
19.7720 28.1720 15.8740 
19.7950 28.9300 15.8694 
19.8180 29.6890 15.8647 
19.8410 30.4470 15.8601 
19.8640 31.2050 15.8555 
19.8870 31.9630 15.8509 
19.9100 32.7210 15.8463 
19.9330 33.4790 15.8416 
19.9560 34.2370 15.8370 
19.9790 34.9950 15.8324 
20.0020 35.7530 15.8278 
20.0250 36.5110 15.8232 
20.0480 37.2700 15.8185 
20.0720 38.0280 15.8139 
20.0950 38.7860 15.8093 
20.1180 39.5440 15.8047 
20.1410 40.3020 15.8001 
20.1640 41.0600 15.7954 
20.1870 41.8180 15.7908 
20.2100 42.5760 15.7862 
20.2330 43.3340 15.7816 
20.2560 44.0920 15.7770 
20.2790 44.8510 15.7724 
20.3020 45.6090 15.7677 
20.3250 46.3670 15.7631 
20.3480 47.1250 15.7585 
20.3710 47.8830 15.7539 
20.3940 48.6410 15.7493 
20.4170 49.3990 15.7446 
19.7020 50.3990 15.0700 
19.7250 51.1580 15.0654 
19.7480 51.9180 15.0607 
19.7720 52.6780 15.0561 
19.7950 53.4380 15.0515 
19.8180 54.1970 15.0469 
19.8410 54.9570 15.0422 
19.8640 55.7170 15.0376 
19.8870 56.4760 15.0330 
19.9100 57.2360 15.0283 
19.9330 57.9960 15.0237 
19.9560 58.7550 15.0191 
19.9790 59.5150 15.0144 
20.0020 60.2750 15.0098 
19.2880 61.2980 14.3351 
19.3110 62.0600 14.3304 
18.5970 63.0880 13.6556 
17.8830 64.1190 12.9808 
17.9070 64.8840 12.9761 
17.1930 65.9200 12.3013 
15.0050 67.5060 10.2860 
12.0810 69.3760 7.60050 
20.5590 -10.7371 16.8638 
20.5820 -9.98220 16.8592 
19.8640 -9.11010 16.1841 
19.8870 -8.35360 16.1795 
19.9100 -7.59710 16.1749 
19.9330 -6.84050 16.1703 
19.9560 -6.08400 16.1657 
19.9790 -5.32750 16.1611 
20.0020 -4.57100 16.1565 
20.0250 -3.81450 16.1519 
20.0480 -3.05800 16.1472 
20.0710 -2.30150 16.1426 
20.0940 -1.54500 16.1380 
20.1170 -0.788498 16.1334 
20.1400 -0.0319977 16.1288 
20.1630 0.724602 16.1242 
20.1860 1.48110 16.1196 
20.2090 2.23760 16.1150 
20.2320 2.99410 16.1104 
20.2550 3.75060 16.1058 
20.2780 4.50710 16.1011 
20.3010 5.26360 16.0965 
20.3240 6.02010 16.0919 
20.3470 6.77660 16.0873 
20.3700 7.53310 16.0827 
20.3930 8.28970 16.0781 
20.4160 9.04620 16.0735 
19.6990 9.95970 15.3982 
19.7220 10.7178 15.3935 
19.7450 11.4759 15.3889 
19.7680 12.2340 15.3843 
19.7910 12.9921 15.3797 
19.8150 13.7502 15.3751 
19.8380 14.5080 15.3704 
19.8610 15.2660 15.3658 
19.8840 16.0240 15.3612 
19.9070 16.7830 15.3566 
19.9300 17.5410 15.3520 
19.9530 18.2990 15.3473 
19.9760 19.0570 15.3427 
19.9990 19.8150 15.3381 
20.0220 20.5730 15.3335 
20.0450 21.3310 15.3289 
20.0680 22.0890 15.3243 
20.0910 22.8470 15.3196 
20.1140 23.6060 15.3150 
20.1370 24.3640 15.3104 
20.1600 25.1220 15.3058 
20.1830 25.8800 15.3012 
20.2060 26.6380 15.2965 
20.2290 27.3960 15.2919 
20.2520 28.1540 15.2873 
20.2750 28.9120 15.2827 
20.2980 29.6700 15.2781 
20.3210 30.4280 15.2734 
20.3440 31.1870 15.2688 
20.3670 31.9450 15.2642 
20.3910 32.7030 15.2596 
20.4140 33.4610 15.2550 
20.4370 34.2190 15.2503 
20.4600 34.9770 15.2457 
20.4830 35.7350 15.2411 
20.5060 36.4930 15.2365 
20.5290 37.2510 15.2319 
20.5520 38.0090 15.2272 
20.5750 38.7680 15.2226 
20.5980 39.5260 15.2180 
20.6210 40.2840 15.2134 
19.9070 41.2640 14.5376 
19.9300 42.0240 14.5330 
19.9530 42.7840 14.5284 
19.9760 43.5430 14.5237 
19.9990 44.3030 14.5191 
20.0220 45.0630 14.5145 
20.0450 45.8220 14.5099 
20.0680 46.5820 14.5052 
20.0910 47.3420 14.5006 
20.1140 48.1010 14.4960 
20.1370 48.8610 14.4913 
20.1610 49.6210 14.4867 
20.1840 50.3810 14.4821 
20.2070 51.1400 14.4774 
20.2300 51.9000 14.4728 
20.2530 52.6600 14.4682 
19.5390 53.6670 13.7923 
19.5620 54.4280 13.7877 
19.5860 55.1900 13.7830 
19.6090 55.9510 13.7784 
19.6320 56.7120 13.7737 
19.6550 57.4740 13.7691 
19.6780 58.2350 13.7645 
19.7010 58.9960 13.7598 
19.7240 59.7570 13.7552 
19.7470 60.5190 13.7505 
19.7710 61.2800 13.7459 
19.0570 62.3070 13.0699 
19.0810 63.0690 13.0652 
19.1040 63.8320 13.0606 
18.3910 64.8650 12.3845 
17.6780 65.9010 11.7084 
15.4940 67.4870 9.68948 
11.8370 69.6320 6.32759 
20.3200 -9.88470 15.6033 
20.3430 -9.12820 15.5987 
20.3660 -8.37170 15.5941 
20.3890 -7.61520 15.5895 
19.6730 -6.73680 14.9131 
19.6960 -5.97870 14.9085 
20.4580 -5.34570 15.5756 
19.7420 -4.46250 14.8993 
19.7650 -3.70440 14.8946 
19.7880 -2.94630 14.8900 
19.8110 -2.18820 14.8854 
19.8340 -1.43010 14.8808 
19.8570 -0.671997 14.8762 
19.8800 0.0860977 14.8715 
19.9030 0.844200 14.8669 
19.9260 1.60230 14.8623 
19.9490 2.36050 14.8577 
19.9720 3.11860 14.8531 
19.9950 3.87670 14.8484 
20.0180 4.63480 14.8438 
20.0410 5.39290 14.8392 
20.0640 6.15100 14.8346 
20.0870 6.90910 14.8300 
20.1100 7.66720 14.8253 
20.1340 8.42530 14.8207 
20.1570 9.18340 14.8161 
20.1800 9.94150 14.8115 
20.2030 10.6996 14.8069 
20.2260 11.4577 14.8022 
20.2490 12.2158 14.7976 
20.2720 12.9739 14.7930 
20.2950 13.7320 14.7884 
20.3180 14.4900 14.7838 
20.3410 15.2480 14.7791 
19.6260 16.1760 14.1025 
19.6490 16.9360 14.0978 
19.6720 17.6950 14.0932 
19.6950 18.4550 14.0886 
19.7180 19.2150 14.0840 
19.7410 19.9740 14.0793 
19.7640 20.7340 14.0747 
19.7870 21.4940 14.0701 
19.8110 22.2540 14.0654 
19.8340 23.0130 14.0608 
19.8570 23.7730 14.0562 
19.8800 24.5330 14.0516 
19.9030 25.2920 14.0469 
19.9260 26.0520 14.0423 
19.9490 26.8120 14.0377 
19.9720 27.5710 14.0330 
19.9950 28.3310 14.0284 
20.0180 29.0910 14.0238 
20.0420 29.8510 14.0191 
20.0650 30.6100 14.0145 
20.0880 31.3700 14.0099 
20.1110 32.1300 14.0053 
20.1340 32.8890 14.0006 
20.1570 33.6490 13.9960 
20.1800 34.4090 13.9914 
20.2030 35.1680 13.9867 
20.2260 35.9280 13.9821 
20.2490 36.6880 13.9775 
20.2720 37.4470 13.9729 
20.2960 38.2070 13.9682 
20.3190 38.9670 13.9636 
20.3420 39.7270 13.9590 
20.3650 40.4860 13.9543 
20.3880 41.2460 13.9497 
20.4110 42.0060 13.9451 
20.4340 42.7650 13.9404 
20.4570 43.5250 13.9358 
20.4800 44.2850 13.9312 
20.5030 45.0440 13.9266 
19.7900 46.0360 13.2495 
19.8130 46.7970 13.2449 
19.8360 47.5590 13.2403 
19.8600 48.3200 13.2356 
19.8830 49.0810 13.2310 
19.9060 49.8420 13.2263 
19.9290 50.6040 13.2217 
19.9520 51.3650 13.2171 
19.9750 52.1260 13.2124 
19.9980 52.8880 13.2078 
20.0220 53.6490 13.2031 
20.0450 54.4100 13.1985 
20.0680 55.1710 13.1939 
20.0910 55.9330 13.1892 
20.1140 56.6940 13.1846 
20.1370 57.4550 13.1799 
20.1600 58.2170 13.1753 
20.1840 58.9780 13.1707 
20.2070 59.7390 13.1660 
20.2300 60.5000 13.1614 
19.5180 61.5250 12.4841 
19.5410 62.2880 12.4795 
19.5640 63.0510 12.4748 
18.8520 64.0820 11.7976 
18.8750 64.8470 11.7929 
18.1640 65.8830 11.1156 
16.7170 67.1950 9.76560 
13.0660 69.3390 6.39754 
20.0840 -9.02930 14.3403 
20.1070 -8.27120 14.3357 
20.1300 -7.51310 14.3310 
20.1530 -6.75500 14.3264 
20.1760 -5.99690 14.3218 
20.1990 -5.23880 14.3172 
20.2220 -4.48070 14.3126 
20.2450 -3.72250 14.3079 
20.2680 -2.96440 14.3033 
20.2910 -2.20630 14.2987 
20.3140 -1.44820 14.2941 
20.3370 -0.690102 14.2895 
20.3600 0.0680008 14.2848 
20.3830 0.826103 14.2802 
19.6680 1.72360 13.6025 
19.6920 2.48330 13.5979 
19.7150 3.24300 13.5933 
19.7380 4.00260 13.5886 
20.4990 4.61660 14.2571 
19.7840 5.52200 13.5794 
19.8070 6.28170 13.5747 
20.5680 6.89090 14.2433 
20.5910 7.64900 14.2386 
20.6140 8.40710 14.2340 
20.6370 9.16520 14.2294 
19.9220 10.0802 13.5516 
19.9460 10.8399 13.5470 
19.9690 11.5996 13.5423 
19.9920 12.3593 13.5377 
20.0150 13.1190 13.5331 
20.0380 13.8787 13.5284 
20.0610 14.6380 13.5238 
20.0840 15.3980 13.5192 
20.1070 16.1580 13.5146 
20.1300 16.9170 13.5099 
20.1530 17.6770 13.5053 
20.1760 18.4370 13.5007 
19.4630 19.3730 12.8227 
19.4860 20.1340 12.8181 
19.5090 20.8950 12.8135 
19.5320 21.6560 12.8088 
19.5550 22.4180 12.8042 
19.5780 23.1790 12.7995 
19.6020 23.9400 12.7949 
19.6250 24.7020 12.7903 
19.6480 25.4630 12.7856 
19.6710 26.2240 12.7810 
19.6940 26.9850 12.7764 
19.7170 27.7470 12.7717 
19.7400 28.5080 12.7671 
19.7630 29.2690 12.7624 
19.7870 30.0310 12.7578 
19.8100 30.7920 12.7532 
19.8330 31.5530 12.7485 
19.8560 32.3140 12.7439 
19.8790 33.0760 12.7392 
19.9020 33.8370 12.7346 
19.9250 34.5980 12.7300 
19.9490 35.3600 12.7253 
19.9720 36.1210 12.7207 
19.9950 36.8820 12.7160 
20.0180 37.6440 12.7114 
20.0410 38.4050 12.7068 
20.0640 39.1660 12.7021 
20.0870 39.9270 12.6975 
20.1110 40.6890 12.6929 
20.1340 41.4500 12.6882 
20.1570 42.2110 12.6836 
20.1800 42.9730 12.6789 
20.2030 43.7340 12.6743 
20.2260 44.4950 12.6697 
20.2490 45.2560 12.6650 
20.2730 46.0180 12.6604 
20.2960 46.7790 12.6557 
20.3190 47.5400 12.6511 
20.3420 48.3020 12.6465 
20.3650 49.0630 12.6418 
19.6530 50.0640 11.9635 
19.6770 50.8270 11.9588 
19.7000 51.5900 11.9542 
19.7230 52.3520 11.9495 
19.7460 53.1150 11.9449 
19.7690 53.8780 11.9402 
19.7920 54.6410 11.9356 
19.8160 55.4040 11.9309 
19.8390 56.1670 11.9263 
19.8620 56.9300 11.9216 
19.8850 57.6930 11.9170 
19.9080 58.4560 11.9123 
19.9320 59.2180 11.9077 
19.9550 59.9810 11.9030 
19.9780 60.7440 11.8984 
20.0010 61.5070 11.8937 
20.0240 62.2700 11.8891 
19.3130 63.3000 11.2106 
19.3370 64.0640 11.2059 
18.6260 65.0990 10.5274 
18.6490 65.8650 10.5227 
17.9380 66.9040 9.84418 
15.7600 68.4960 7.81779 
18.3740 -7.93340 11.7264 
19.1350 -7.29080 12.3960 
19.8960 -6.65130 13.0655 
19.9190 -5.89160 13.0609 
20.6800 -5.25690 13.7305 
19.9650 -4.37220 13.0516 
19.9880 -3.61250 13.0470 
20.0110 -2.85280 13.0424 
20.0340 -2.09310 13.0377 
20.0570 -1.33340 13.0331 
20.0810 -0.573700 13.0285 
20.1040 0.185898 13.0239 
20.1270 0.945602 13.0192 
20.1500 1.70530 13.0146 
20.1730 2.46500 13.0100 
20.1960 3.22470 13.0053 
20.2190 3.98440 13.0007 
20.2420 4.74410 12.9961 
20.2650 5.50380 12.9914 
20.2880 6.26350 12.9868 
20.3110 7.02320 12.9822 
20.3350 7.78290 12.9776 
20.3580 8.54260 12.9729 
20.3810 9.30230 12.9683 
20.4040 10.0620 12.9637 
20.4270 10.8217 12.9590 
20.4500 11.5814 12.9544 
20.4730 12.3411 12.9498 
20.4960 13.1008 12.9452 
20.5190 13.8605 12.9405 
19.8060 14.7870 12.2614 
19.8290 15.5480 12.2568 
19.8530 16.3090 12.2521 
19.8760 17.0700 12.2475 
19.8990 17.8320 12.2429 
19.9220 18.5930 12.2382 
19.9450 19.3540 12.2336 
19.9680 20.1160 12.2290 
19.9910 20.8770 12.2243 
20.0140 21.6380 12.2197 
20.0380 22.3990 12.2150 
20.0610 23.1610 12.2104 
20.0840 23.9220 12.2058 
20.1070 24.6830 12.2011 
20.1300 25.4450 12.1965 
20.1530 26.2060 12.1918 
20.1760 26.9670 12.1872 
20.2000 27.7290 12.1826 
20.2230 28.4900 12.1779 
20.2460 29.2510 12.1733 
20.2690 30.0120 12.1686 
20.2920 30.7740 12.1640 
20.3150 31.5350 12.1594 
20.3380 32.2960 12.1547 
20.3620 33.0580 12.1501 
20.3850 33.8190 12.1454 
20.4080 34.5800 12.1408 
20.4310 35.3410 12.1362 
20.4540 36.1030 12.1315 
20.4770 36.8640 12.1269 
20.5000 37.6250 12.1223 
20.5240 38.3870 12.1176 
20.5470 39.1480 12.1130 
20.5700 39.9090 12.1083 
19.8580 40.8910 11.4289 
19.8820 41.6540 11.4242 
19.9050 42.4170 11.4196 
19.9280 43.1800 11.4149 
19.9510 43.9430 11.4103 
19.9740 44.7050 11.4056 
19.9980 45.4680 11.4010 
20.0210 46.2310 11.3963 
20.0440 46.9940 11.3917 
20.0670 47.7570 11.3870 
20.0900 48.5200 11.3824 
20.1130 49.2830 11.3777 
20.1370 50.0460 11.3731 
20.1600 50.8080 11.3684 
20.1830 51.5710 11.3638 
20.2060 52.3340 11.3591 
20.2290 53.0970 11.3545 
19.5190 54.1080 10.6749 
19.5420 54.8720 10.6702 
19.5650 55.6370 10.6656 
19.5890 56.4010 10.6609 
19.6120 57.1650 10.6563 
19.6350 57.9300 10.6516 
19.6580 58.6940 10.6469 
19.6820 59.4590 10.6423 
19.7050 60.2230 10.6376 
19.7280 60.9880 10.6330 
19.7510 61.7520 10.6283 
19.7740 62.5170 10.6236 
19.7980 63.2810 10.6190 
19.8210 64.0460 10.6143 
19.1110 65.0800 9.93455 
19.1340 65.8460 9.92988 
18.4250 66.8850 9.25009 
16.2500 68.4770 7.22001 
12.6090 70.6310 3.83957 
18.1440 -7.06860 10.4559 
18.9040 -6.42600 11.1267 
19.6640 -5.78650 11.7975 
20.4230 -5.15010 12.4683 
20.4460 -4.39040 12.4637 
19.7330 -3.50260 11.7836 
19.7560 -2.74130 11.7790 
19.7800 -1.98000 11.7743 
19.8030 -1.21870 11.7697 
19.8260 -0.457397 11.7651 
19.8490 0.303902 11.7604 
19.8720 1.06510 11.7558 
19.8950 1.82640 11.7511 
19.9180 2.58770 11.7465 
19.9420 3.34900 11.7419 
19.9650 4.11030 11.7372 
19.9880 4.87160 11.7326 
20.0110 5.63290 11.7279 
20.0340 6.39420 11.7233 
20.0570 7.15550 11.7187 
20.0800 7.91670 11.7140 
20.1030 8.67800 11.7094 
20.1270 9.43930 11.7047 
20.1500 10.2006 11.7001 
20.1730 10.9619 11.6955 
20.1960 11.7232 11.6908 
20.2190 12.4845 11.6862 
20.2420 13.2458 11.6816 
20.2650 14.0070 11.6769 
20.2890 14.7680 11.6723 
20.3120 15.5300 11.6676 
20.3350 16.2910 11.6630 
19.6230 17.2230 10.9826 
19.6460 17.9860 10.9780 
19.6690 18.7490 10.9733 
19.6930 19.5120 10.9687 
19.7160 20.2750 10.9640 
19.7390 21.0380 10.9594 
19.7620 21.8010 10.9547 
19.7850 22.5640 10.9501 
19.8080 23.3260 10.9454 
19.8320 24.0890 10.9408 
19.8550 24.8520 10.9361 
19.8780 25.6150 10.9315 
19.9010 26.3780 10.9268 
19.9240 27.1410 10.9222 
19.9480 27.9040 10.9175 
19.9710 28.6670 10.9129 
19.9940 29.4290 10.9082 
20.0170 30.1920 10.9036 
20.0400 30.9550 10.8989 
20.0640 31.7180 10.8943 
20.0870 32.4810 10.8896 
20.1100 33.2440 10.8850 
20.1330 34.0070 10.8803 
20.1560 34.7700 10.8757 
20.1800 35.5330 10.8710 
20.2030 36.2950 10.8664 
20.2260 37.0580 10.8617 
20.2490 37.8210 10.8571 
20.2720 38.5840 10.8524 
20.2950 39.3470 10.8478 
20.3190 40.1100 10.8431 
20.3420 40.8730 10.8385 
20.3650 41.6360 10.8338 
20.3880 42.3980 10.8292 
20.4110 43.1610 10.8245 
20.4350 43.9240 10.8199 
20.4580 44.6870 10.8152 
19.7480 45.6800 10.1345 
19.7710 46.4450 10.1299 
19.7940 47.2090 10.1252 
19.8170 47.9730 10.1205 
19.8410 48.7380 10.1159 
19.8640 49.5020 10.1112 
19.8870 50.2670 10.1066 
19.9100 51.0310 10.1019 
19.9340 51.7960 10.0972 
19.9570 52.5600 10.0926 
19.9800 53.3250 10.0879 
20.0030 54.0890 10.0833 
20.0270 54.8540 10.0786 
20.0500 55.6180 10.0739 
20.0730 56.3830 10.0693 
20.0960 57.1470 10.0646 
20.1200 57.9120 10.0600 
20.1430 58.6760 10.0553 
20.1660 59.4410 10.0507 
20.1890 60.2050 10.0460 
20.2120 60.9700 10.0413 
20.2360 61.7340 10.0367 
20.2590 62.4980 10.0320 
20.2820 63.2630 10.0274 
19.5730 64.2960 9.34636 
19.5970 65.0620 9.34170 
19.6200 65.8280 9.33703 
18.9110 66.8670 8.65601 
18.2030 67.9090 7.97497 
14.5670 70.0600 4.58837 
17.1580 -6.84670 8.51100 
18.6520 -6.32250 9.85967 
19.4110 -5.68140 10.5317 
20.1690 -5.04340 11.2037 
20.1920 -4.28210 11.1991 
20.2160 -3.52080 11.1945 
20.2390 -2.75960 11.1898 
20.2620 -1.99830 11.1852 
20.2850 -1.23700 11.1805 
20.3080 -0.475700 11.1759 
20.3310 0.285599 11.1713 
20.3540 1.04690 11.1666 
20.3780 1.80820 11.1620 
20.4010 2.56950 11.1573 
20.4240 3.33080 11.1527 
20.4470 4.09200 11.1481 
20.4700 4.85330 11.1434 
20.4930 5.61460 11.1388 
20.5160 6.37590 11.1342 
20.5400 7.13720 11.1295 
20.5630 7.89850 11.1249 
20.5860 8.65980 11.1202 
20.6090 9.42110 11.1156 
20.6320 10.1824 11.1110 
20.6550 10.9436 11.1063 
20.6780 11.7049 11.1017 
19.9670 12.6278 10.4201 
19.9900 13.3907 10.4155 
20.0140 14.1540 10.4108 
20.0370 14.9160 10.4062 
20.0600 15.6790 10.4015 
20.0830 16.4420 10.3969 
20.1060 17.2050 10.3922 
20.1300 17.9680 10.3876 
20.1530 18.7310 10.3829 
20.1760 19.4940 10.3783 
20.1990 20.2570 10.3736 
19.4890 21.1990 9.69197 
19.5120 21.9630 9.68731 
19.5350 22.7280 9.68265 
19.5580 23.4920 9.67799 
19.5810 24.2560 9.67333 
19.6050 25.0210 9.66867 
19.6280 25.7850 9.66401 
19.6510 26.5500 9.65935 
19.6740 27.3140 9.65470 
19.6980 28.0790 9.65004 
19.7210 28.8430 9.64538 
19.7440 29.6080 9.64072 
19.7670 30.3720 9.63606 
19.7910 31.1370 9.63140 
19.8140 31.9010 9.62675 
20.5700 32.4630 10.2992 
20.5930 33.2260 10.2946 
20.6160 33.9880 10.2899 
19.9070 34.9590 9.60811 
19.9300 35.7240 9.60345 
19.9530 36.4880 9.59879 
19.9770 37.2530 9.59414 
20.0000 38.0170 9.58948 
20.0230 38.7810 9.58482 
20.0460 39.5460 9.58016 
20.0690 40.3100 9.57550 
20.0930 41.0750 9.57084 
20.1160 41.8390 9.56618 
20.1390 42.6040 9.56153 
20.1620 43.3680 9.55687 
20.1860 44.1330 9.55221 
20.2090 44.8970 9.54755 
20.2320 45.6620 9.54289 
20.2550 46.4260 9.53823 
20.2790 47.1910 9.53358 
20.3020 47.9550 9.52892 
20.3250 48.7200 9.52426 
20.3480 49.4840 9.51960 
20.3720 50.2490 9.51494 
19.6630 51.2540 8.83287 
19.6860 52.0200 8.82821 
19.7090 52.7860 8.82354 
19.7330 53.5520 8.81887 
19.7560 54.3190 8.81420 
19.7790 55.0850 8.80953 
19.8030 55.8510 8.80486 
19.8260 56.6170 8.80020 
19.8490 57.3830 8.79553 
19.8720 58.1490 8.79086 
19.8960 58.9150 8.78619 
19.9190 59.6810 8.78152 
19.9420 60.4470 8.77685 
19.9660 61.2130 8.77219 
19.9890 61.9790 8.76752 
20.0120 62.7450 8.76285 
20.0350 63.5110 8.75818 
20.0590 64.2770 8.75351 
20.0820 65.0430 8.74885 
19.3740 66.0810 8.06660 
19.3980 66.8490 8.06192 
17.2280 68.4400 6.02444 
15.0590 70.0410 3.98689 
11.4290 72.2080 0.594046 
17.6670 -6.09740 7.91224 
18.4250 -5.45300 8.58547 
19.9170 -4.93680 9.93665 
19.9400 -4.17390 9.93200 
19.9640 -3.41100 9.92735 
20.7210 -2.77780 10.6007 
20.0100 -1.88520 9.91805 
20.0330 -1.12240 9.91340 
20.0560 -0.359497 9.90876 
20.0800 0.403397 9.90411 
20.1030 1.16630 9.89946 
20.1260 1.92920 9.89481 
20.1490 2.69200 9.89016 
20.1720 3.45490 9.88551 
20.1960 4.21780 9.88086 
20.2190 4.98070 9.87621 
20.2420 5.74360 9.87156 
20.2650 6.50650 9.86692 
20.2880 7.26930 9.86227 
20.3110 8.03220 9.85762 
20.3350 8.79510 9.85297 
20.3580 9.55800 9.84832 
20.3810 10.3209 9.84367 
20.4040 11.0837 9.83902 
20.4270 11.8466 9.83438 
20.4510 12.6095 9.82973 
20.4740 13.3724 9.82508 
20.4970 14.1350 9.82043 
20.5200 14.8980 9.81578 
19.8100 15.8290 9.13296 
19.8330 16.5930 9.12830 
19.8570 17.3580 9.12364 
19.8800 18.1220 9.11898 
19.9030 18.8870 9.11432 
19.9260 19.6510 9.10966 
19.9500 20.4160 9.10500 
19.9730 21.1800 9.10035 
19.9960 21.9450 9.09569 
20.0190 22.7090 9.09103 
20.0430 23.4740 9.08637 
20.0660 24.2380 9.08171 
20.0890 25.0030 9.07705 
20.1120 25.7670 9.07240 
20.1360 26.5320 9.06774 
20.1590 27.2960 9.06308 
20.1820 28.0610 9.05842 
20.2050 28.8250 9.05376 
20.2290 29.5890 9.04910 
20.2520 30.3540 9.04444 
20.2750 31.1180 9.03979 
20.2980 31.8830 9.03513 
20.3210 32.6470 9.03047 
20.3450 33.4120 9.02581 
20.3680 34.1760 9.02115 
20.3910 34.9410 9.01649 
20.4140 35.7050 9.01184 
20.4380 36.4700 9.00718 
20.4610 37.2340 9.00252 
20.4840 37.9990 8.99786 
20.5070 38.7630 8.99320 
20.5310 39.5280 8.98854 
20.5540 40.2920 8.98388 
20.5770 41.0570 8.97923 
19.8690 42.0430 8.29604 
19.8920 42.8090 8.29137 
19.9150 43.5750 8.28670 
19.9390 44.3410 8.28204 
19.9620 45.1070 8.27737 
19.9850 45.8730 8.27270 
20.0080 46.6390 8.26803 
20.0320 47.4060 8.26336 
20.0550 48.1720 8.25869 
20.0780 48.9380 8.25403 
20.1020 49.7040 8.24936 
20.1250 50.4700 8.24469 
20.1480 51.2360 8.24002 
20.1720 52.0020 8.23535 
20.1950 52.7680 8.23069 
19.4870 53.7800 7.54737 
19.5110 54.5480 7.54269 
19.5340 55.3150 7.53801 
19.5570 56.0830 7.53333 
19.5810 56.8510 7.52865 
19.6040 57.6180 7.52398 
19.6270 58.3860 7.51930 
19.6510 59.1540 7.51462 
19.6740 59.9210 7.50994 
19.6970 60.6890 7.50527 
19.7210 61.4570 7.50059 
19.7440 62.2240 7.49591 
19.7670 62.9920 7.49123 
19.7910 63.7600 7.48655 
19.8140 64.5270 7.48188 
19.8370 65.2950 7.47720 
19.8610 66.0630 7.47252 
19.1540 67.1030 6.78902 
17.7180 68.4220 5.42666 
14.8220 70.2990 2.70657 
12.6560 71.9110 0.665269 
18.1770 -5.34820 7.31348 
18.9340 -4.70540 7.98795 
19.6910 -4.06570 8.66246 
20.4470 -3.42930 9.33697 
20.4700 -2.66640 9.33232 
20.4930 -1.90350 9.32767 
20.5170 -1.14060 9.32302 
20.5400 -0.377800 9.31837 
20.5630 0.385101 9.31372 
20.5860 1.14800 9.30907 
20.6090 1.91090 9.30442 
20.6330 2.67380 9.29978 
20.6560 3.43660 9.29513 
20.6790 4.19950 9.29048 
20.7020 4.96240 9.28583 
20.7250 5.72530 9.28118 
20.7480 6.48820 9.27653 
20.7720 7.25100 9.27188 
20.7950 8.01390 9.26723 
20.8180 8.77680 9.26258 
20.8410 9.53970 9.25794 
20.1320 10.4593 8.57395 
20.1550 11.2237 8.56929 
20.1780 11.9882 8.56463 
20.2020 12.7527 8.55997 
20.2250 13.5172 8.55531 
20.2480 14.2820 8.55065 
20.2710 15.0460 8.54600 
20.2950 15.8110 8.54134 
20.3180 16.5750 8.53668 
20.3410 17.3400 8.53202 
20.3640 18.1040 8.52736 
19.6560 19.0430 7.84324 
19.6790 19.8090 7.83857 
19.7020 20.5750 7.83390 
19.7260 21.3410 7.82923 
19.7490 22.1070 7.82456 
19.7720 22.8730 7.81989 
19.7950 23.6390 7.81523 
19.8190 24.4050 7.81056 
19.8420 25.1710 7.80589 
19.8650 25.9370 7.80122 
19.8890 26.7030 7.79655 
19.9120 27.4690 7.79189 
19.9350 28.2360 7.78722 
19.9580 29.0020 7.78255 
19.9820 29.7680 7.77788 
20.0050 30.5340 7.77321 
20.0280 31.3000 7.76854 
20.0520 32.0660 7.76388 
20.0750 32.8320 7.75921 
20.0980 33.5980 7.75454 
20.1210 34.3640 7.74987 
20.1450 35.1300 7.74520 
20.1680 35.8960 7.74054 
