ply
format ascii 1.0
comment FreeCAD generated
element vertex 1894
property float x
property float y
property float z
end_header
19.2070 22.3246 38.2755 
19.2290 23.0556 38.2710 
18.4900 23.8902 37.6209 
18.5120 24.6228 37.6164 
18.5350 25.3555 37.6119 
18.5570 26.0881 37.6075 
18.5790 26.8207 37.6030 
18.6010 27.5533 37.5985 
18.6240 28.2859 37.5941 
18.6460 29.0186 37.5896 
18.6680 29.7512 37.5851 
17.9300 30.6017 36.9348 
17.9520 31.3359 36.9304 
17.9740 32.0702 36.9259 
17.9960 32.8044 36.9214 
18.0190 33.5386 36.9169 
18.0410 34.2728 36.9125 
18.0630 35.0070 36.9080 
18.0860 35.7412 36.9035 
18.1080 36.4754 36.8990 
17.3700 37.3419 36.2487 
17.3920 38.0777 36.2442 
17.4150 38.8135 36.2397 
17.4370 39.5493 36.2352 
17.4590 40.2851 36.2307 
17.4820 41.0209 36.2262 
17.5040 41.7567 36.2218 
17.5260 42.4925 36.2173 
17.5490 43.2284 36.2128 
16.8110 44.1108 35.5623 
16.8340 44.8482 35.5578 
16.8560 45.5855 35.5533 
16.8780 46.3230 35.5488 
16.9010 47.0603 35.5443 
16.9230 47.7978 35.5398 
16.9460 48.5351 35.5353 
16.9680 49.2726 35.5308 
16.9900 50.0099 35.5263 
17.0130 50.7474 35.5219 
16.2760 51.6473 34.8713 
16.2980 52.3863 34.8668 
16.3210 53.1253 34.8623 
16.3430 53.8642 34.8578 
16.3660 54.6032 34.8533 
16.3880 55.3420 34.8488 
16.4110 56.0810 34.8442 
16.4330 56.8200 34.8397 
16.4560 57.5590 34.8352 
16.4780 58.2980 34.8307 
16.5000 59.0370 34.8262 
16.5230 59.7760 34.8217 
16.5450 60.5150 34.8172 
16.5680 61.2540 34.8127 
16.5900 61.9930 34.8082 
16.6130 62.7320 34.8037 
16.6350 63.4710 34.7992 
16.6580 64.2100 34.7947 
16.6800 64.9490 34.7902 
16.7030 65.6880 34.7857 
16.7250 66.4270 34.7812 
16.7470 67.1660 34.7767 
16.7700 67.9050 34.7722 
14.4980 -22.2696 34.7497 
15.2840 -21.5354 35.3915 
16.0690 -20.8044 36.0334 
16.8550 -20.0766 36.6753 
16.8770 -19.3424 36.6709 
17.6630 -18.6194 37.3128 
17.6850 -17.8868 37.3084 
17.7070 -17.1541 37.3039 
17.7290 -16.4215 37.2994 
17.7520 -15.6889 37.2950 
17.7740 -14.9563 37.2905 
17.7960 -14.2236 37.2860 
17.8190 -13.4910 37.2816 
17.8410 -12.7584 37.2771 
17.8630 -12.0258 37.2726 
17.8850 -11.2932 37.2682 
18.6700 -10.5892 37.9102 
18.6920 -9.85820 37.9058 
18.7150 -9.12720 37.9013 
18.7370 -8.39620 37.8969 
18.7590 -7.66510 37.8924 
18.7810 -6.93410 37.8879 
18.8040 -6.20310 37.8835 
18.0630 -5.43220 37.2325 
18.0860 -4.69960 37.2280 
18.1080 -3.96700 37.2235 
18.1300 -3.23430 37.2191 
18.1530 -2.50170 37.2146 
18.1750 -1.76910 37.2101 
18.1970 -1.03650 37.2057 
18.2190 -0.303799 37.2012 
18.2420 0.428799 37.1967 
18.2640 1.16140 37.1923 
18.2860 1.89400 37.1878 
18.3080 2.62660 37.1834 
18.3310 3.35930 37.1789 
18.3530 4.09190 37.1744 
18.3750 4.82450 37.1700 
18.3970 5.55710 37.1655 
18.4200 6.28970 37.1610 
18.4420 7.02240 37.1566 
18.4640 7.75500 37.1521 
18.4870 8.48760 37.1476 
18.5090 9.22020 37.1432 
18.5310 9.95280 37.1387 
18.5530 10.6855 37.1342 
18.5760 11.4181 37.1298 
18.5980 12.1507 37.1253 
18.6200 12.8833 37.1208 
18.6420 13.6159 37.1164 
18.6650 14.3486 37.1119 
18.6870 15.0812 37.1075 
18.7090 15.8138 37.1030 
18.7320 16.5464 37.0985 
18.7540 17.2791 37.0941 
18.7760 18.0117 37.0896 
18.7980 18.7443 37.0851 
18.8210 19.4769 37.0807 
18.8430 20.2095 37.0762 
18.8650 20.9422 37.0717 
18.8870 21.6748 37.0673 
18.9100 22.4074 37.0628 
18.9320 23.1400 37.0583 
18.9540 23.8726 37.0539 
18.9770 24.6053 37.0494 
18.9990 25.3379 37.0450 
18.2610 26.1788 36.3935 
18.2830 26.9131 36.3890 
18.3050 27.6473 36.3845 
18.3280 28.3815 36.3801 
18.3500 29.1157 36.3756 
18.3720 29.8499 36.3711 
18.3950 30.5841 36.3666 
18.4170 31.3183 36.3622 
18.4390 32.0526 36.3577 
17.7020 32.9094 35.7061 
17.7240 33.6452 35.7016 
17.7470 34.3810 35.6972 
17.7690 35.1168 35.6927 
17.7910 35.8527 35.6882 
17.8140 36.5885 35.6837 
17.8360 37.3243 35.6792 
17.8590 38.0601 35.6747 
17.8810 38.7959 35.6703 
17.9030 39.5317 35.6658 
17.9260 40.2675 35.6613 
17.1890 41.1435 35.0096 
17.2110 41.8809 35.0051 
17.2340 42.6183 35.0006 
17.2560 43.3557 34.9961 
17.2780 44.0931 34.9916 
17.3010 44.8305 34.9871 
17.3230 45.5679 34.9826 
16.5870 46.4566 34.3309 
16.6090 47.1956 34.3264 
16.6320 47.9346 34.3219 
16.6540 48.6736 34.3174 
16.6770 49.4126 34.3129 
16.6990 50.1516 34.3084 
16.7220 50.8905 34.3039 
16.7440 51.6295 34.2994 
16.7660 52.3685 34.2949 
16.7890 53.1075 34.2904 
16.8110 53.8465 34.2859 
16.8340 54.5855 34.2814 
16.8560 55.3240 34.2769 
16.8790 56.0630 34.2723 
16.9010 56.8020 34.2678 
16.9240 57.5410 34.2633 
16.9460 58.2800 34.2588 
16.9690 59.0190 34.2543 
16.9910 59.7580 34.2498 
17.0140 60.4970 34.2453 
17.0360 61.2360 34.2408 
17.0580 61.9750 34.2363 
16.3230 62.9010 33.5843 
16.3460 63.6410 33.5798 
16.3680 64.3820 33.5753 
16.3910 65.1230 33.5708 
16.4130 65.8630 33.5663 
16.4360 66.6040 33.5618 
16.4580 67.3440 33.5573 
16.4810 68.0850 33.5527 
14.1810 -23.0247 33.5347 
14.9660 -22.2873 34.1778 
15.7510 -21.5531 34.8209 
16.5360 -20.8221 35.4640 
16.5580 -20.0863 35.4595 
17.3420 -19.3600 36.1027 
17.3650 -18.6258 36.0982 
18.1490 -17.9043 36.7414 
18.1710 -17.1717 36.7369 
18.1940 -16.4391 36.7325 
18.2160 -15.7065 36.7280 
18.2380 -14.9738 36.7235 
18.2600 -14.2412 36.7191 
18.2830 -13.5086 36.7146 
18.3050 -12.7760 36.7101 
18.3270 -12.0433 36.7057 
18.3500 -11.3107 36.7012 
18.3720 -10.5781 36.6967 
18.3940 -9.84550 36.6923 
18.4160 -9.11290 36.6878 
18.4390 -8.38020 36.6833 
18.4610 -7.64760 36.6789 
18.4830 -6.91500 36.6744 
18.5050 -6.18240 36.6700 
18.5280 -5.44980 36.6655 
18.5500 -4.71710 36.6610 
18.5720 -3.98450 36.6566 
18.5940 -3.25190 36.6521 
18.6170 -2.51930 36.6476 
18.6390 -1.78670 36.6432 
17.9000 -1.00470 35.9908 
17.9230 -0.270500 35.9863 
17.9450 0.463799 35.9819 
17.9670 1.19800 35.9774 
17.9900 1.93220 35.9729 
18.0120 2.66640 35.9684 
18.0340 3.40060 35.9640 
18.0570 4.13480 35.9595 
18.0790 4.86900 35.9550 
18.1010 5.60330 35.9506 
18.1230 6.33750 35.9461 
18.1460 7.07170 35.9416 
18.1680 7.80590 35.9371 
18.1900 8.54010 35.9327 
18.2130 9.27430 35.9282 
18.2350 10.0085 35.9237 
18.2570 10.7427 35.9192 
18.2800 11.4770 35.9148 
18.3020 12.2112 35.9103 
18.3240 12.9454 35.9058 
18.3470 13.6796 35.9013 
18.3690 14.4138 35.8969 
18.3910 15.1480 35.8924 
18.4140 15.8822 35.8879 
18.4360 16.6165 35.8834 
18.4580 17.3507 35.8790 
18.4810 18.0849 35.8745 
18.5030 18.8191 35.8700 
18.5250 19.5533 35.8655 
18.5470 20.2875 35.8611 
18.5700 21.0217 35.8566 
18.5920 21.7560 35.8521 
18.6140 22.4902 35.8476 
18.6370 23.2244 35.8432 
18.6590 23.9586 35.8387 
18.6810 24.6928 35.8342 
18.7040 25.4270 35.8298 
18.7260 26.1612 35.8253 
18.7480 26.8954 35.8208 
18.7710 27.6297 35.8163 
18.0340 28.4770 35.1636 
18.0560 29.2128 35.1591 
18.0790 29.9486 35.1546 
18.1010 30.6844 35.1501 
18.1230 31.4202 35.1457 
18.1460 32.1560 35.1412 
18.1680 32.8918 35.1367 
18.1910 33.6276 35.1322 
18.2130 34.3634 35.1277 
18.2350 35.0992 35.1232 
18.2580 35.8350 35.1188 
18.2800 36.5708 35.1143 
17.5440 37.4388 34.4614 
17.5660 38.1762 34.4569 
17.5890 38.9136 34.4524 
17.6110 39.6510 34.4479 
17.6340 40.3884 34.4434 
17.6560 41.1258 34.4389 
17.6780 41.8632 34.4344 
17.7010 42.6006 34.4299 
16.9650 43.4829 33.7770 
16.9880 44.2219 33.7725 
17.0100 44.9609 33.7680 
17.0330 45.6999 33.7635 
17.0550 46.4389 33.7590 
17.0770 47.1779 33.7545 
17.1000 47.9169 33.7500 
16.3650 48.8119 33.0969 
16.3870 49.5525 33.0924 
16.4100 50.2931 33.0879 
16.4320 51.0337 33.0834 
16.4550 51.7743 33.0789 
16.4770 52.5149 33.0744 
16.5000 53.2554 33.0699 
16.5220 53.9960 33.0654 
16.5450 54.7366 33.0608 
16.5670 55.4770 33.0563 
16.5900 56.2180 33.0518 
16.6120 56.9580 33.0473 
16.6350 57.6990 33.0428 
16.6570 58.4400 33.0383 
16.6800 59.1800 33.0338 
16.7020 59.9210 33.0293 
16.7250 60.6610 33.0247 
16.7470 61.4020 33.0202 
16.7700 62.1420 33.0157 
16.7920 62.8830 33.0112 
16.8150 63.6240 33.0067 
16.8370 64.3640 33.0022 
16.1030 65.2960 32.3489 
16.1260 66.0380 32.3444 
16.1480 66.7800 32.3399 
16.9270 67.3270 32.9841 
16.1940 68.2650 32.3308 
14.6280 -23.7831 32.9661 
15.4120 -23.0440 33.6104 
15.4340 -22.3051 33.6059 
16.2180 -21.5708 34.2502 
16.2400 -20.8334 34.2457 
17.0240 -20.1039 34.8901 
17.0470 -19.3681 34.8856 
17.8300 -18.6434 35.5300 
17.8520 -17.9092 35.5255 
17.8750 -17.1750 35.5210 
17.8970 -16.4408 35.5166 
17.9190 -15.7065 35.5121 
17.9420 -14.9723 35.5076 
17.9640 -14.2381 35.5032 
17.9860 -13.5039 35.4987 
18.0080 -12.7697 35.4942 
18.0310 -12.0355 35.4897 
18.0530 -11.3013 35.4853 
18.0750 -10.5670 35.4808 
18.0980 -9.83280 35.4763 
18.1200 -9.09860 35.4718 
18.1420 -8.36440 35.4674 
18.1650 -7.63020 35.4629 
18.1870 -6.89600 35.4584 
18.2090 -6.16180 35.4539 
18.2320 -5.42760 35.4495 
18.2540 -4.69330 35.4450 
18.2760 -3.95910 35.4405 
18.2990 -3.22490 35.4360 
18.3210 -2.49070 35.4316 
18.3430 -1.75650 35.4271 
18.3660 -1.02230 35.4226 
18.3880 -0.288101 35.4181 
18.4100 0.446201 35.4137 
18.4330 1.18040 35.4092 
18.4550 1.91460 35.4047 
18.4770 2.64880 35.4002 
18.4990 3.38300 35.3958 
18.5220 4.11720 35.3913 
18.5440 4.85140 35.3868 
18.5660 5.58570 35.3824 
18.5890 6.31990 35.3779 
18.6110 7.05410 35.3734 
18.6330 7.78830 35.3689 
17.8960 8.59250 34.7152 
17.9190 9.32830 34.7107 
17.9410 10.0641 34.7063 
17.9630 10.8000 34.7018 
17.9860 11.5358 34.6973 
18.0080 12.2716 34.6928 
18.0310 13.0074 34.6883 
18.0530 13.7432 34.6838 
18.0750 14.4790 34.6794 
18.0980 15.2148 34.6749 
18.1200 15.9506 34.6704 
18.1420 16.6864 34.6659 
18.1650 17.4222 34.6614 
18.1870 18.1580 34.6569 
18.2090 18.8938 34.6525 
18.2320 19.6296 34.6480 
19.0130 20.2699 35.2929 
18.2770 21.1012 34.6390 
18.2990 21.8371 34.6345 
18.3210 22.5729 34.6300 
18.3440 23.3087 34.6256 
18.3660 24.0445 34.6211 
18.3880 24.7803 34.6166 
18.4110 25.5161 34.6121 
18.4330 26.2519 34.6076 
18.4550 26.9877 34.6031 
18.4780 27.7235 34.5987 
18.5000 28.4593 34.5942 
18.5230 29.1951 34.5897 
18.5450 29.9309 34.5852 
18.5670 30.6667 34.5807 
17.8320 31.5219 33.9267 
17.8540 32.2593 33.9222 
17.8770 32.9967 33.9177 
17.8990 33.7341 33.9132 
17.9210 34.4715 33.9087 
17.9440 35.2089 33.9042 
17.9660 35.9463 33.8997 
17.9890 36.6837 33.8952 
18.0110 37.4211 33.8907 
18.0340 38.1585 33.8862 
18.0560 38.8959 33.8817 
18.0780 39.6333 33.8773 
17.3440 40.5092 33.2231 
17.3660 41.2482 33.2186 
17.3880 41.9872 33.2141 
17.4110 42.7262 33.2096 
17.4330 43.4652 33.2051 
17.4560 44.2042 33.2006 
16.7210 45.0913 32.5464 
16.7440 45.8318 32.5419 
16.7660 46.5724 32.5374 
16.7890 47.3130 32.5328 
16.8110 48.0536 32.5283 
16.8340 48.7942 32.5238 
16.8560 49.5348 32.5193 
16.8790 50.2753 32.5148 
16.9010 51.0159 32.5103 
16.9240 51.7565 32.5058 
16.1900 52.6611 31.8515 
16.2130 53.4033 31.8469 
16.2350 54.1454 31.8424 
16.2580 54.8876 31.8379 
16.2800 55.6300 31.8334 
16.3030 56.3720 31.8288 
16.3250 57.1140 31.8243 
16.3480 57.8560 31.8198 
16.3700 58.5990 31.8153 
16.3930 59.3410 31.8107 
16.4160 60.0830 31.8062 
16.4380 60.8250 31.8017 
16.4610 61.5670 31.7972 
16.4830 62.3090 31.7927 
16.5060 63.0520 31.7881 
16.5280 63.7940 31.7836 
16.5510 64.5360 31.7791 
16.5740 65.2780 31.7746 
16.5960 66.0200 31.7700 
16.6190 66.7620 31.7655 
16.6410 67.5050 31.7610 
16.6640 68.2470 31.7565 
15.8580 -23.8008 33.0430 
15.8800 -23.0618 33.0385 
16.6630 -22.3259 33.6840 
16.6850 -21.5885 33.6796 
16.7080 -20.8511 33.6751 
16.7300 -20.1137 33.6706 
17.5130 -19.3857 34.3162 
17.5350 -18.6499 34.3117 
17.5570 -17.9141 34.3072 
17.5800 -17.1783 34.3027 
17.6020 -16.4425 34.2982 
17.6250 -15.7067 34.2938 
18.4070 -14.9899 34.9394 
18.4290 -14.2557 34.9350 
18.4510 -13.5215 34.9305 
18.4740 -12.7873 34.9260 
18.4960 -12.0531 34.9215 
18.5180 -11.3189 34.9171 
18.5410 -10.5847 34.9126 
18.5630 -9.85040 34.9081 
18.5850 -9.11620 34.9036 
18.6080 -8.38200 34.8992 
18.6300 -7.64780 34.8947 
18.6520 -6.91360 34.8902 
18.6740 -6.17940 34.8857 
18.6970 -5.44520 34.8813 
18.7190 -4.71090 34.8768 
18.7420 -3.97670 34.8723 
18.0050 -3.19800 34.2175 
18.0270 -2.46220 34.2131 
18.0490 -1.72640 34.2086 
18.0720 -0.990601 34.2041 
18.0940 -0.254799 34.1996 
18.1170 0.480999 34.1951 
18.1390 1.21680 34.1906 
18.1610 1.95260 34.1861 
18.1840 2.68840 34.1817 
18.2060 3.42430 34.1772 
18.2280 4.16010 34.1727 
18.2510 4.89590 34.1682 
18.2730 5.63170 34.1637 
18.2950 6.36750 34.1593 
18.3180 7.10330 34.1548 
18.3400 7.83910 34.1503 
18.3630 8.57490 34.1458 
18.3850 9.31070 34.1413 
18.4070 10.0465 34.1368 
18.4300 10.7823 34.1323 
18.4520 11.5181 34.1279 
18.4740 12.2539 34.1234 
18.4970 12.9897 34.1189 
18.5190 13.7255 34.1144 
18.5420 14.4613 34.1099 
18.5640 15.1972 34.1054 
18.5860 15.9330 34.1010 
18.6090 16.6688 34.0965 
18.6310 17.4046 34.0920 
18.6530 18.1404 34.0875 
18.6760 18.8762 34.0830 
18.6980 19.6120 34.0785 
18.7200 20.3478 34.0741 
18.7430 21.0836 34.0696 
18.7650 21.8194 34.0651 
18.7880 22.5552 34.0606 
18.0530 23.3929 33.4054 
18.0750 24.1303 33.4010 
18.0970 24.8677 33.3965 
18.1200 25.6051 33.3920 
18.1420 26.3425 33.3875 
18.1650 27.0799 33.3830 
18.1870 27.8173 33.3785 
18.2090 28.5547 33.3740 
18.2320 29.2921 33.3695 
18.2540 30.0295 33.3650 
18.2770 30.7669 33.3605 
18.2990 31.5043 33.3560 
18.3210 32.2417 33.3515 
18.3440 32.9791 33.3470 
18.3660 33.7165 33.3425 
18.3890 34.4539 33.3380 
18.4110 35.1913 33.3336 
18.4340 35.9286 33.3291 
17.7000 36.7966 32.6737 
17.7220 37.5356 32.6692 
17.7440 38.2745 32.6647 
17.7670 39.0135 32.6602 
17.7890 39.7525 32.6557 
17.8120 40.4915 32.6512 
17.8340 41.2305 32.6467 
17.8570 41.9695 32.6422 
17.1230 42.8517 31.9868 
17.1460 43.5923 31.9823 
17.1680 44.3329 31.9778 
17.1910 45.0735 31.9732 
17.2130 45.8141 31.9687 
16.4800 46.7059 31.3133 
16.5020 47.4481 31.3087 
16.5250 48.1902 31.3042 
16.5480 48.9324 31.2997 
16.5700 49.6746 31.2952 
16.5930 50.4168 31.2907 
16.6150 51.1589 31.2861 
16.6380 51.9011 31.2816 
16.6600 52.6433 31.2771 
16.6830 53.3855 31.2726 
16.7050 54.1277 31.2680 
16.7280 54.8698 31.2635 
16.7510 55.6120 31.2590 
16.7730 56.3540 31.2545 
16.7960 57.0960 31.2500 
16.8180 57.8390 31.2454 
16.8410 58.5810 31.2409 
16.8630 59.3230 31.2364 
16.8860 60.0650 31.2319 
16.9080 60.8070 31.2273 
16.9310 61.5490 31.2228 
16.9540 62.2920 31.2183 
16.2210 63.2200 30.5626 
16.2440 63.9640 30.5581 
16.2670 64.7080 30.5535 
16.2890 65.4510 30.5490 
16.3120 66.1950 30.5445 
16.3340 66.9390 30.5399 
16.3570 67.6830 30.5354 
16.3800 68.4260 30.5309 
15.5660 -23.8186 31.8198 
16.3480 -23.0795 32.4666 
16.3710 -22.3405 32.4621 
16.3930 -21.6015 32.4576 
17.1750 -20.8687 33.1044 
17.1970 -20.1314 33.0999 
17.2200 -19.3940 33.0954 
17.2420 -18.6566 33.0909 
18.0240 -17.9318 33.7378 
18.0460 -17.1960 33.7333 
18.0680 -16.4602 33.7288 
18.0910 -15.7244 33.7243 
18.1130 -14.9885 33.7198 
18.1350 -14.2527 33.7154 
18.1580 -13.5169 33.7109 
18.1800 -12.7811 33.7064 
18.2030 -12.0453 33.7019 
18.2250 -11.3095 33.6974 
18.2470 -10.5737 33.6929 
18.2700 -9.83790 33.6885 
18.2920 -9.10210 33.6840 
18.3140 -8.36630 33.6795 
18.3370 -7.63050 33.6750 
18.3590 -6.89470 33.6705 
18.3820 -6.15890 33.6660 
18.4040 -5.42310 33.6616 
18.4260 -4.68730 33.6571 
18.4490 -3.95150 33.6526 
18.4710 -3.21560 33.6481 
18.4930 -2.47980 33.6436 
18.5160 -1.74400 33.6391 
18.5380 -1.00820 33.6347 
18.5600 -0.272400 33.6302 
18.5830 0.463402 33.6257 
18.6050 1.19920 33.6212 
18.6280 1.93500 33.6167 
17.8920 2.72800 32.9606 
17.9150 3.46540 32.9561 
17.9370 4.20280 32.9516 
17.9590 4.94020 32.9471 
17.9820 5.67760 32.9426 
18.0040 6.41500 32.9381 
18.0270 7.15240 32.9336 
18.0490 7.88980 32.9291 
18.0710 8.62720 32.9247 
18.0940 9.36460 32.9202 
18.1160 10.1020 32.9157 
18.1390 10.8394 32.9112 
18.1610 11.5768 32.9067 
18.1840 12.3142 32.9022 
18.2060 13.0516 32.8977 
18.2280 13.7890 32.8932 
18.2510 14.5264 32.8887 
18.2730 15.2638 32.8842 
18.2960 16.0012 32.8797 
18.3180 16.7386 32.8752 
18.3400 17.4760 32.8707 
18.3630 18.2134 32.8662 
18.3850 18.9508 32.8617 
18.4080 19.6882 32.8573 
18.4300 20.4256 32.8528 
18.4530 21.1630 32.8483 
18.4750 21.9004 32.8438 
18.4970 22.6378 32.8393 
18.5200 23.3752 32.8348 
18.5420 24.1126 32.8303 
18.5650 24.8500 32.8258 
17.8310 25.6940 32.1694 
17.8530 26.4330 32.1649 
17.8760 27.1720 32.1604 
17.8980 27.9109 32.1559 
17.9210 28.6499 32.1514 
17.9430 29.3889 32.1469 
17.9660 30.1279 32.1424 
17.9880 30.8669 32.1379 
18.0100 31.6059 32.1334 
18.0330 32.3449 32.1289 
18.0550 33.0839 32.1244 
18.0780 33.8229 32.1199 
18.1000 34.5619 32.1154 
18.1230 35.3009 32.1108 
18.1450 36.0399 32.1063 
18.1680 36.7788 32.1018 
18.1900 37.5178 32.0973 
18.2130 38.2568 32.0928 
18.2350 38.9958 32.0883 
17.5020 39.8717 31.4317 
17.5250 40.6122 31.4272 
17.5470 41.3528 31.4227 
17.5700 42.0934 31.4182 
17.5920 42.8340 31.4137 
17.6150 43.5746 31.4091 
16.8820 44.4616 30.7525 
16.9050 45.2037 30.7480 
16.9270 45.9459 30.7434 
16.9500 46.6881 30.7389 
16.9730 47.4303 30.7344 
16.9950 48.1724 30.7299 
17.0180 48.9146 30.7253 
17.0400 49.6568 30.7208 
17.0630 50.3990 30.7163 
17.0850 51.1412 30.7118 
16.3540 52.0457 30.0550 
16.3760 52.7894 30.0505 
16.3990 53.5332 30.0459 
16.4210 54.2770 30.0414 
16.4440 55.0210 30.0369 
16.4670 55.7640 30.0323 
16.4890 56.5080 30.0278 
16.5120 57.2520 30.0233 
16.5340 57.9960 30.0187 
16.5570 58.7400 30.0142 
16.5800 59.4830 30.0097 
16.6020 60.2270 30.0051 
16.6250 60.9710 30.0006 
16.6470 61.7150 29.9961 
16.6700 62.4580 29.9915 
16.6930 63.2020 29.9870 
15.9610 64.1340 29.3300 
15.9840 64.8790 29.3255 
16.0070 65.6250 29.3210 
16.0290 66.3700 29.3164 
16.0520 67.1150 29.3119 
16.0750 67.8610 29.3073 
16.0970 68.6060 29.3028 
16.1200 69.3510 29.2983 
16.0360 -23.8363 31.2467 
16.8170 -23.0972 31.8947 
16.8390 -22.3582 31.8902 
16.8620 -21.6192 31.8857 
16.8840 -20.8802 31.8812 
17.6650 -20.1490 32.5292 
17.6870 -19.4116 32.5247 
17.7090 -18.6742 32.5202 
17.7320 -17.9368 32.5158 
17.7540 -17.1994 32.5113 
17.7770 -16.4620 32.5068 
17.7990 -15.7246 32.5023 
17.8220 -14.9872 32.4978 
17.8440 -14.2498 32.4933 
17.8660 -13.5124 32.4888 
18.6460 -12.7988 33.1370 
18.6690 -12.0630 33.1325 
18.6910 -11.3272 33.1280 
18.7140 -10.5914 33.1235 
18.7360 -9.85550 33.1190 
18.7580 -9.11970 33.1145 
18.7810 -8.38390 33.1101 
18.8030 -7.64810 33.1056 
18.8250 -6.91230 33.1011 
18.8480 -6.17650 33.0966 
18.8700 -5.44070 33.0921 
18.8920 -4.70490 33.0876 
18.1580 -3.92630 32.4304 
18.1800 -3.18890 32.4259 
18.2030 -2.45150 32.4214 
18.2250 -1.71410 32.4169 
18.2470 -0.976700 32.4124 
18.2700 -0.239300 32.4079 
18.2920 0.498100 32.4034 
18.3150 1.23550 32.3989 
18.3370 1.97290 32.3944 
18.3590 2.71030 32.3899 
18.3820 3.44770 32.3854 
18.4040 4.18510 32.3810 
18.4270 4.92250 32.3765 
18.4490 5.65990 32.3720 
18.4710 6.39730 32.3675 
18.4940 7.13470 32.3630 
18.5160 7.87210 32.3585 
18.5390 8.60950 32.3540 
17.8050 9.41840 31.6966 
17.8270 10.1574 31.6921 
17.8500 10.8964 31.6876 
17.8720 11.6354 31.6831 
17.8950 12.3744 31.6786 
17.9170 13.1134 31.6740 
17.9400 13.8524 31.6695 
17.9620 14.5914 31.6650 
17.9850 15.3304 31.6605 
18.0070 16.0694 31.6560 
18.0300 16.8083 31.6515 
18.0520 17.5473 31.6470 
18.0740 18.2863 31.6425 
18.0970 19.0253 31.6380 
18.1190 19.7643 31.6335 
18.1420 20.5033 31.6290 
18.1640 21.2423 31.6245 
18.1870 21.9813 31.6200 
18.2090 22.7203 31.6155 
18.2320 23.4593 31.6110 
18.2540 24.1983 31.6065 
18.2770 24.9373 31.6020 
18.2990 25.6763 31.5975 
18.3220 26.4152 31.5930 
18.3440 27.1542 31.5885 
18.3660 27.8932 31.5840 
18.3890 28.6322 31.5795 
18.4110 29.3712 31.5750 
18.4340 30.1102 31.5705 
18.4560 30.8492 31.5660 
17.7240 31.7075 30.9082 
17.7460 32.4481 30.9037 
17.7690 33.1886 30.8992 
17.7920 33.9292 30.8947 
17.8140 34.6698 30.8902 
17.8370 35.4104 30.8857 
17.8590 36.1510 30.8811 
17.8820 36.8916 30.8766 
17.9040 37.6321 30.8721 
17.9270 38.3727 30.8676 
17.9490 39.1133 30.8631 
17.9720 39.8539 30.8586 
17.9940 40.5945 30.8541 
18.0170 41.3351 30.8496 
17.2850 42.2172 30.1917 
17.3080 42.9594 30.1872 
17.3300 43.7016 30.1826 
17.3530 44.4438 30.1781 
17.3750 45.1860 30.1736 
17.3980 45.9281 30.1691 
16.6670 46.8214 29.5111 
16.6890 47.5652 29.5066 
16.7120 48.3090 29.5021 
16.7340 49.0527 29.4975 
16.7570 49.7965 29.4930 
16.7800 50.5403 29.4885 
16.8020 51.2841 29.4839 
16.8250 52.0278 29.4794 
16.8470 52.7716 29.4749 
16.8700 53.5154 29.4703 
16.8930 54.2591 29.4658 
16.9150 55.0030 29.4613 
16.9380 55.7470 29.4567 
16.2070 56.6620 28.7986 
16.2300 57.4080 28.7941 
16.2530 58.1530 28.7896 
16.2750 58.8980 28.7850 
16.2980 59.6440 28.7805 
16.3200 60.3890 28.7759 
16.3430 61.1340 28.7714 
16.3660 61.8800 28.7668 
16.3880 62.6250 28.7623 
16.4110 63.3710 28.7578 
15.6810 64.3040 28.0996 
15.7040 65.0510 28.0950 
15.7270 65.7980 28.0905 
15.7490 66.5450 28.0859 
15.7720 67.2920 28.0814 
15.7950 68.0380 28.0768 
15.8170 68.7850 28.0723 
15.8400 69.5320 28.0677 
17.2850 -23.1149 31.3228 
17.3070 -22.3759 31.3183 
17.3300 -21.6369 31.3138 
17.3520 -20.8979 31.3093 
17.3750 -20.1589 31.3048 
18.1540 -19.4293 31.9541 
18.1770 -18.6919 31.9496 
18.1990 -17.9545 31.9451 
18.2210 -17.2171 31.9406 
18.2440 -16.4797 31.9361 
18.2660 -15.7423 31.9316 
18.2890 -15.0049 31.9271 
18.3110 -14.2675 31.9226 
18.3340 -13.5301 31.9181 
18.3560 -12.7927 31.9136 
18.3780 -12.0553 31.9091 
18.4010 -11.3179 31.9046 
18.4230 -10.5805 31.9002 
18.4460 -9.84310 31.8957 
18.4680 -9.10570 31.8912 
18.4900 -8.36830 31.8867 
18.5130 -7.63090 31.8822 
18.5350 -6.89350 31.8777 
18.5580 -6.15610 31.8732 
18.5800 -5.41870 31.8687 
18.6030 -4.68130 31.8642 
18.6250 -3.94390 31.8597 
18.6470 -3.20650 31.8552 
18.6700 -2.46910 31.8507 
18.6920 -1.73170 31.8462 
18.7150 -0.994301 31.8417 
18.7370 -0.256901 31.8372 
18.7590 0.480499 31.8328 
18.7820 1.21790 31.8283 
18.8040 1.95530 31.8238 
18.8270 2.69270 31.8193 
18.0930 3.48880 31.1607 
18.1160 4.22780 31.1562 
18.1380 4.96680 31.1517 
18.1610 5.70580 31.1472 
18.1830 6.44480 31.1427 
18.2060 7.18370 31.1382 
18.2280 7.92270 31.1337 
18.2510 8.66170 31.1292 
18.2730 9.40070 31.1247 
18.2960 10.1397 31.1202 
18.3180 10.8787 31.1157 
18.3410 11.6177 31.1112 
18.3630 12.3567 31.1067 
18.3850 13.0957 31.1021 
18.4080 13.8347 31.0976 
17.6750 14.6563 30.4389 
17.6980 15.3969 30.4344 
17.7200 16.1374 30.4299 
17.7430 16.8780 30.4254 
17.7660 17.6186 30.4208 
17.7880 18.3592 30.4163 
17.8110 19.0998 30.4118 
17.8330 19.8404 30.4073 
17.8560 20.5810 30.4028 
17.8780 21.3215 30.3983 
17.9010 22.0621 30.3938 
17.9230 22.8027 30.3892 
17.9460 23.5433 30.3847 
17.9680 24.2839 30.3802 
17.9910 25.0245 30.3757 
18.0130 25.7650 30.3712 
18.0360 26.5056 30.3667 
18.0580 27.2462 30.3622 
18.0810 27.9868 30.3577 
18.1030 28.7274 30.3531 
18.1260 29.4680 30.3486 
18.1480 30.2085 30.3441 
18.1710 30.9491 30.3396 
18.1930 31.6897 30.3351 
18.2160 32.4303 30.3306 
18.2380 33.1709 30.3261 
18.2610 33.9115 30.3216 
18.2830 34.6521 30.3170 
18.3060 35.3926 30.3125 
18.3280 36.1332 30.3080 
18.3510 36.8738 30.3035 
18.3730 37.6144 30.2990 
17.6420 38.4886 29.6399 
17.6650 39.2307 29.6354 
17.6880 39.9729 29.6309 
17.7100 40.7151 29.6264 
17.7330 41.4573 29.6218 
17.7550 42.1994 29.6173 
17.7780 42.9416 29.6128 
17.0470 43.8285 28.9537 
17.0700 44.5723 28.9491 
17.0930 45.3161 28.9446 
17.1150 46.0598 28.9401 
17.1380 46.8036 28.9355 
17.1600 47.5474 28.9310 
17.1830 48.2911 28.9265 
16.4530 49.1908 28.2672 
16.4760 49.9362 28.2627 
16.4980 50.6815 28.2581 
16.5210 51.4269 28.2536 
16.5440 52.1723 28.2491 
16.5660 52.9176 28.2445 
16.5890 53.6630 28.2400 
16.6120 54.4083 28.2354 
16.6340 55.1540 28.2309 
16.6570 55.8990 28.2264 
16.6800 56.6440 28.2218 
16.7020 57.3900 28.2173 
16.7250 58.1350 28.2127 
16.7470 58.8810 28.2082 
16.0180 59.8040 27.5488 
16.0410 60.5510 27.5443 
16.0640 61.2980 27.5397 
16.0860 62.0450 27.5352 
16.1090 62.7920 27.5306 
16.1320 63.5390 27.5261 
16.1540 64.2860 27.5215 
16.1770 65.0330 27.5170 
16.2000 65.7800 27.5124 
16.2230 66.5270 27.5079 
15.4940 67.4680 26.8484 
15.5160 68.2160 26.8438 
15.5390 68.9650 26.8393 
15.5620 69.7130 26.8347 
17.7760 -22.3936 30.7464 
17.7980 -21.6546 30.7419 
17.8200 -20.9157 30.7374 
17.8430 -20.1767 30.7329 
17.8650 -19.4377 30.7284 
17.8880 -18.6987 30.7239 
17.9100 -17.9597 30.7194 
17.9330 -17.2207 30.7149 
17.9550 -16.4817 30.7104 
17.9780 -15.7427 30.7059 
18.0000 -15.0037 30.7014 
18.0230 -14.2647 30.6969 
18.0450 -13.5257 30.6924 
18.0680 -12.7867 30.6879 
18.0900 -12.0478 30.6834 
18.1120 -11.3088 30.6789 
18.1350 -10.5698 30.6744 
18.1570 -9.83080 30.6698 
18.1800 -9.09180 30.6653 
18.2020 -8.35280 30.6608 
18.2250 -7.61380 30.6563 
18.2470 -6.87480 30.6518 
18.2700 -6.13580 30.6473 
18.2920 -5.39680 30.6428 
18.3150 -4.65780 30.6383 
18.3370 -3.91880 30.6338 
18.3600 -3.17990 30.6293 
18.3820 -2.44090 30.6248 
18.4040 -1.70190 30.6203 
18.4270 -0.962898 30.6158 
18.4490 -0.223900 30.6113 
18.4720 0.515099 30.6068 
18.4940 1.25410 30.6023 
18.5170 1.99310 30.5978 
18.5390 2.73210 30.5933 
18.5620 3.47110 30.5888 
18.5840 4.21010 30.5843 
18.6070 4.94910 30.5798 
18.6290 5.68800 30.5753 
18.6520 6.42700 30.5708 
18.6740 7.16600 30.5663 
18.6960 7.90500 30.5618 
18.7190 8.64400 30.5573 
17.9870 9.45440 29.8973 
18.0100 10.1950 29.8928 
18.0320 10.9356 29.8883 
18.0550 11.6762 29.8838 
18.0770 12.4168 29.8793 
18.1000 13.1574 29.8748 
18.1220 13.8979 29.8703 
18.1450 14.6385 29.8658 
18.1670 15.3791 29.8612 
18.1900 16.1197 29.8567 
18.2120 16.8603 29.8522 
18.2350 17.6009 29.8477 
18.2570 18.3414 29.8432 
18.2800 19.0820 29.8387 
18.3020 19.8226 29.8342 
18.3250 20.5632 29.8297 
18.3470 21.3038 29.8251 
18.3700 22.0444 29.8206 
18.3920 22.7850 29.8161 
18.4150 23.5255 29.8116 
17.6840 24.3694 29.1515 
17.7070 25.1116 29.1470 
17.7290 25.8538 29.1425 
17.7520 26.5959 29.1379 
17.7740 27.3381 29.1334 
17.7970 28.0803 29.1289 
17.8200 28.8225 29.1244 
17.8420 29.5646 29.1198 
17.8650 30.3068 29.1153 
17.8870 31.0490 29.1108 
17.9100 31.7912 29.1063 
17.9320 32.5333 29.1017 
17.9550 33.2755 29.0972 
17.9770 34.0177 29.0927 
18.0000 34.7599 29.0882 
18.0230 35.5021 29.0837 
18.0450 36.2442 29.0791 
18.0680 36.9864 29.0746 
18.0900 37.7286 29.0701 
18.1130 38.4708 29.0656 
18.1350 39.2129 29.0610 
18.1580 39.9551 29.0565 
18.1800 40.6973 29.0520 
17.4510 41.5794 28.3917 
17.4730 42.3232 28.3871 
17.4960 43.0669 28.3826 
17.5190 43.8107 28.3781 
17.5410 44.5545 28.3735 
16.8120 45.4461 27.7131 
16.8350 46.1915 27.7086 
16.8570 46.9368 27.7040 
16.8800 47.6822 27.6995 
16.9030 48.4276 27.6949 
16.9250 49.1729 27.6904 
16.9480 49.9183 27.6859 
16.9710 50.6636 27.6813 
16.9930 51.4090 27.6768 
17.0160 52.1544 27.6722 
16.2870 53.0635 27.0117 
16.3100 53.8105 27.0072 
16.3330 54.5574 27.0026 
16.3550 55.3040 26.9981 
16.3780 56.0510 26.9935 
16.4010 56.7980 26.9890 
16.4230 57.5450 26.9844 
16.4460 58.2920 26.9799 
16.4690 59.0390 26.9753 
16.4910 59.7860 26.9708 
16.5140 60.5330 26.9662 
16.5370 61.2800 26.9617 
16.5600 62.0270 26.9571 
16.5820 62.7740 26.9526 
16.6050 63.5210 26.9480 
15.8770 64.4560 26.2873 
15.9000 65.2040 26.2828 
15.9220 65.9530 26.2782 
15.9450 66.7010 26.2736 
15.9680 67.4500 26.2691 
15.9910 68.1980 26.2645 
16.0130 68.9470 26.2600 
18.2660 -21.6724 30.1700 
18.2890 -20.9334 30.1655 
18.3110 -20.1944 30.1610 
18.3340 -19.4554 30.1565 
18.3560 -18.7164 30.1520 
18.3790 -17.9774 30.1475 
18.4010 -17.2384 30.1430 
18.4230 -16.4994 30.1385 
18.4460 -15.7604 30.1340 
17.7140 -15.0026 29.4731 
18.4910 -14.2824 30.1250 
17.7590 -13.5214 29.4641 
17.7810 -12.7808 29.4596 
17.8040 -12.0403 29.4551 
18.5810 -11.3265 30.1070 
18.6030 -10.5875 30.1025 
18.6260 -9.84850 30.0980 
18.6480 -9.10950 30.0935 
18.6710 -8.37050 30.0889 
18.6930 -7.63150 30.0844 
18.7150 -6.89250 30.0799 
18.7380 -6.15350 30.0754 
18.7600 -5.41450 30.0709 
18.7830 -4.67560 30.0664 
18.8050 -3.93660 30.0619 
18.8280 -3.19760 30.0574 
18.8500 -2.45860 30.0529 
18.8730 -1.71960 30.0484 
18.8950 -0.980598 30.0439 
18.9180 -0.241600 30.0394 
18.9400 0.497398 30.0349 
18.9630 1.23640 30.0304 
18.9850 1.97540 30.0259 
19.0070 2.71440 30.0214 
19.0300 3.45340 30.0169 
19.0520 4.19230 30.0124 
19.0750 4.93130 30.0079 
18.3440 5.73380 29.3468 
18.3660 6.47430 29.3423 
18.3890 7.21490 29.3378 
18.4110 7.95550 29.3332 
18.4340 8.69610 29.3287 
18.4560 9.43670 29.3242 
18.4790 10.1773 29.3197 
18.5010 10.9178 29.3152 
18.5240 11.6584 29.3107 
18.5460 12.3990 29.3062 
18.5690 13.1396 29.3017 
17.8390 13.9611 28.6405 
17.8610 14.7033 28.6359 
17.8840 15.4455 28.6314 
17.9060 16.1877 28.6269 
17.9290 16.9298 28.6224 
17.9510 17.6720 28.6178 
17.9740 18.4142 28.6133 
17.9960 19.1564 28.6088 
18.0190 19.8986 28.6043 
18.0420 20.6407 28.5997 
18.0640 21.3829 28.5952 
18.0870 22.1251 28.5907 
18.1090 22.8673 28.5862 
18.1320 23.6094 28.5817 
18.1540 24.3516 28.5771 
18.1770 25.0938 28.5726 
18.2000 25.8360 28.5681 
18.2220 26.5781 28.5636 
18.2450 27.3203 28.5590 
18.2670 28.0625 28.5545 
18.2900 28.8047 28.5500 
18.3120 29.5469 28.5455 
18.3350 30.2890 28.5410 
18.3570 31.0312 28.5364 
18.3800 31.7734 28.5319 
18.4030 32.5156 28.5274 
18.4250 33.2577 28.5229 
18.4480 33.9999 28.5183 
18.4700 34.7421 28.5138 
18.4930 35.4843 28.5093 
18.5150 36.2264 28.5048 
18.5380 36.9686 28.5002 
17.8090 37.8427 27.8387 
17.8320 38.5865 27.8342 
17.8540 39.3302 27.8297 
17.8770 40.0740 27.8251 
17.8990 40.8178 27.8206 
17.9220 41.5616 27.8161 
17.9450 42.3053 27.8115 
17.2160 43.1922 27.1499 
17.2390 43.9375 27.1454 
17.2620 44.6829 27.1408 
17.2840 45.4282 27.1363 
17.3070 46.1736 27.1317 
17.3300 46.9190 27.1272 
16.6020 47.8169 26.4655 
16.6240 48.5639 26.4610 
16.6470 49.3109 26.4564 
16.6700 50.0578 26.4519 
16.6920 50.8048 26.4473 
16.7150 51.5517 26.4428 
16.7380 52.2987 26.4382 
16.7600 53.0456 26.4337 
16.7830 53.7926 26.4291 
16.8060 54.5395 26.4246 
16.8280 55.2860 26.4200 
16.8510 56.0330 26.4155 
16.8740 56.7800 26.4109 
16.8970 57.5270 26.4064 
16.9190 58.2740 26.4018 
16.9420 59.0210 26.3973 
16.9650 59.7680 26.3927 
16.9870 60.5150 26.3882 
16.2600 61.4430 25.7263 
16.2830 62.1920 25.7217 
16.3060 62.9410 25.7172 
16.3290 63.6890 25.7126 
16.3510 64.4380 25.7080 
16.3740 65.1860 25.7035 
16.3970 65.9350 25.6989 
15.6700 66.8760 25.0370 
15.6930 67.6260 25.0324 
15.7160 68.3760 25.0278 
18.0030 -20.9450 28.9361 
18.0250 -20.2044 28.9316 
18.0480 -19.4639 28.9271 
18.0700 -18.7233 28.9226 
18.0930 -17.9827 28.9181 
18.1150 -17.2421 28.9136 
18.1380 -16.5015 28.9090 
18.1600 -15.7609 28.9045 
18.1830 -15.0204 28.9000 
18.2050 -14.2798 28.8955 
18.2280 -13.5392 28.8910 
18.2500 -12.7986 28.8865 
18.2730 -12.0580 28.8820 
18.2950 -11.3174 28.8775 
18.3180 -10.5769 28.8729 
18.3400 -9.83630 28.8684 
18.3630 -9.09570 28.8639 
18.3850 -8.35510 28.8594 
18.4080 -7.61450 28.8549 
18.4300 -6.87390 28.8504 
18.4530 -6.13330 28.8459 
18.4750 -5.39280 28.8413 
18.4980 -4.65220 28.8368 
18.5210 -3.91160 28.8323 
18.5430 -3.17100 28.8278 
18.5650 -2.43040 28.8233 
18.5880 -1.68980 28.8188 
18.6110 -0.949299 28.8143 
18.6330 -0.208698 28.8098 
18.6560 0.531898 28.8052 
18.6780 1.27250 28.8007 
18.7010 2.01310 28.7962 
18.7230 2.75370 28.7917 
18.7460 3.49430 28.7872 
18.7680 4.23480 28.7827 
18.7910 4.97540 28.7782 
18.8130 5.71600 28.7737 
18.8360 6.45660 28.7691 
18.8580 7.19720 28.7646 
18.8810 7.93780 28.7601 
18.9030 8.67830 28.7556 
18.1730 9.49030 28.0932 
18.1960 10.2325 28.0887 
18.2190 10.9746 28.0842 
18.2410 11.7168 28.0797 
18.2640 12.4590 28.0751 
18.2860 13.2012 28.0706 
18.3090 13.9433 28.0661 
18.3310 14.6855 28.0616 
18.3540 15.4277 28.0570 
18.3770 16.1699 28.0525 
18.3990 16.9120 28.0480 
18.4220 17.6542 28.0435 
18.4440 18.3964 28.0390 
18.4670 19.1386 28.0344 
18.4890 19.8808 28.0299 
18.5120 20.6229 28.0254 
18.5340 21.3651 28.0209 
18.5570 22.1073 28.0163 
18.5800 22.8495 28.0118 
18.6020 23.5916 28.0073 
17.8730 24.4370 27.3447 
17.8960 25.1808 27.3402 
17.9190 25.9246 27.3356 
17.9410 26.6683 27.3311 
17.9640 27.4121 27.3266 
17.9860 28.1559 27.3221 
18.0090 28.8996 27.3175 
18.0320 29.6434 27.3130 
18.0540 30.3872 27.3085 
18.0770 31.1310 27.3039 
18.0990 31.8747 27.2994 
18.1220 32.6185 27.2949 
18.1450 33.3623 27.2903 
18.1670 34.1060 27.2858 
18.1900 34.8498 27.2813 
18.2130 35.5936 27.2767 
18.2350 36.3373 27.2722 
18.2580 37.0811 27.2677 
18.2800 37.8249 27.2631 
18.3030 38.5686 27.2586 
18.3260 39.3124 27.2541 
17.5980 40.1928 26.5913 
17.6210 40.9382 26.5867 
17.6430 41.6836 26.5822 
17.6660 42.4289 26.5776 
17.6890 43.1743 26.5731 
17.7110 43.9196 26.5685 
16.9840 44.8112 25.9057 
17.0070 45.5582 25.9011 
17.0290 46.3051 25.8966 
17.0520 47.0521 25.8920 
17.0750 47.7990 25.8875 
17.0970 48.5460 25.8829 
17.1200 49.2930 25.8784 
17.1430 50.0399 25.8738 
17.1660 50.7869 25.8693 
17.1880 51.5338 25.8647 
17.2110 52.2808 25.8602 
16.4840 53.1915 25.1972 
17.2560 53.7747 25.8511 
16.5300 54.6886 25.1880 
16.5530 55.4370 25.1835 
16.5750 56.1860 25.1789 
16.5980 56.9340 25.1744 
16.6210 57.6830 25.1698 
16.6440 58.4310 25.1652 
16.6660 59.1800 25.1607 
16.6890 59.9280 25.1561 
16.7120 60.6770 25.1516 
16.7350 61.4250 25.1470 
16.7570 62.1740 25.1424 
16.7800 62.9230 25.1379 
16.8030 63.6710 25.1333 
16.8260 64.4200 25.1287 
16.1000 65.3570 24.4656 
16.1220 66.1080 24.4610 
16.1450 66.8580 24.4565 
16.1680 67.6080 24.4519 
16.1910 68.3580 24.4473 
18.4950 -20.2222 28.3585 
18.5170 -19.4816 28.3540 
18.5390 -18.7410 28.3494 
18.5620 -18.0005 28.3449 
18.5850 -17.2599 28.3404 
18.6070 -16.5193 28.3359 
18.6300 -15.7787 28.3314 
18.6520 -15.0381 28.3269 
17.9220 -14.2772 27.6636 
17.9440 -13.5350 27.6591 
17.9670 -12.7928 27.6545 
17.9900 -12.0506 27.6500 
18.0120 -11.3085 27.6455 
18.0350 -10.5663 27.6410 
18.0570 -9.82410 27.6364 
18.0800 -9.08190 27.6319 
18.1020 -8.33980 27.6274 
18.1250 -7.59760 27.6229 
18.1470 -6.85540 27.6184 
18.9220 -6.15110 28.2727 
18.9450 -5.41050 28.2682 
18.9670 -4.66990 28.2637 
18.9900 -3.92930 28.2592 
19.0120 -3.18880 28.2547 
19.0350 -2.44820 28.2502 
19.0570 -1.70760 28.2457 
19.0800 -0.966999 28.2411 
19.1020 -0.226398 28.2366 
19.1250 0.514198 28.2321 
19.1470 1.25470 28.2276 
19.1700 1.99530 28.2231 
19.1920 2.73590 28.2186 
19.2150 3.47650 28.2141 
19.2370 4.21710 28.2095 
18.5080 5.01940 27.5460 
18.5310 5.76160 27.5415 
18.5540 6.50380 27.5370 
18.5760 7.24600 27.5324 
18.5990 7.98810 27.5279 
18.6210 8.73030 27.5234 
18.6440 9.47250 27.5189 
18.6660 10.2147 27.5143 
18.6890 10.9568 27.5098 
18.7110 11.6990 27.5053 
18.7340 12.4412 27.5008 
18.7570 13.1834 27.4962 
18.7790 13.9255 27.4917 
18.8020 14.6677 27.4872 
18.0730 15.4940 26.8235 
18.0960 16.2377 26.8190 
18.1190 16.9815 26.8144 
18.1410 17.7253 26.8099 
18.1640 18.4690 26.8054 
18.1860 19.2128 26.8008 
18.2090 19.9566 26.7963 
18.2320 20.7003 26.7918 
18.2540 21.4441 26.7872 
18.2770 22.1879 26.7827 
18.2990 22.9317 26.7782 
18.3220 23.6754 26.7737 
18.3450 24.4192 26.7691 
18.3670 25.1630 26.7646 
18.3900 25.9067 26.7601 
18.4120 26.6505 26.7555 
18.4350 27.3943 26.7510 
18.4580 28.1380 26.7465 
18.4800 28.8818 26.7419 
18.5030 29.6256 26.7374 
18.5260 30.3694 26.7329 
18.5480 31.1131 26.7283 
18.5710 31.8569 26.7238 
17.8440 32.7214 26.0598 
17.8660 33.4667 26.0553 
17.8890 34.2121 26.0508 
17.9120 34.9574 26.0462 
17.9340 35.7028 26.0417 
17.9570 36.4482 26.0371 
17.9800 37.1935 26.0326 
18.0020 37.9389 26.0281 
18.0250 38.6842 26.0235 
18.0480 39.4296 26.0190 
18.0700 40.1750 26.0144 
18.0930 40.9203 26.0099 
17.3660 41.8055 25.3458 
17.3890 42.5525 25.3413 
17.4120 43.2994 25.3367 
17.4350 44.0464 25.3322 
17.4570 44.7933 25.3276 
17.4800 45.5403 25.3231 
17.5030 46.2872 25.3185 
16.7770 47.1851 24.6544 
16.7990 47.9337 24.6498 
16.8220 48.6822 24.6452 
16.8450 49.4308 24.6407 
16.8680 50.1793 24.6361 
16.8900 50.9279 24.6316 
16.9130 51.6764 24.6270 
16.9360 52.4250 24.6224 
16.9590 53.1735 24.6179 
16.9810 53.9221 24.6133 
17.0040 54.6706 24.6088 
17.0270 55.4190 24.6042 
17.0500 56.1680 24.5996 
17.0720 56.9160 24.5951 
17.0950 57.6650 24.5905 
17.1180 58.4130 24.5859 
17.1410 59.1620 24.5814 
17.1630 59.9100 24.5768 
17.1860 60.6590 24.5723 
17.2090 61.4080 24.5677 
17.2320 62.1560 24.5631 
16.5070 63.0890 23.8988 
16.5290 63.8390 23.8942 
16.5520 64.5890 23.8896 
16.5750 65.3390 23.8851 
15.8500 66.2800 23.2207 
15.8730 67.0320 23.2161 
18.9640 -20.2400 27.7853 
18.9860 -19.4994 27.7808 
19.0090 -18.7588 27.7763 
19.0310 -18.0182 27.7718 
18.3020 -17.2637 27.1073 
18.3240 -16.5215 27.1028 
18.3470 -15.7793 27.0983 
18.3700 -15.0371 27.0937 
18.3920 -14.2950 27.0892 
18.4150 -13.5528 27.0847 
18.4370 -12.8106 27.0802 
18.4600 -12.0684 27.0757 
18.4820 -11.3263 27.0711 
18.5050 -10.5841 27.0666 
18.5270 -9.84190 27.0621 
18.5500 -9.09970 27.0576 
18.5730 -8.35760 27.0530 
18.5950 -7.61540 27.0485 
18.6180 -6.87320 27.0440 
18.6400 -6.13100 27.0395 
18.6630 -5.38880 27.0350 
18.6850 -4.64670 27.0304 
18.7080 -3.90450 27.0259 
18.7300 -3.16230 27.0214 
18.7530 -2.42010 27.0169 
18.7760 -1.67800 27.0123 
18.7980 -0.935799 27.0078 
18.8210 -0.193600 27.0033 
18.8430 0.548599 26.9988 
18.8660 1.29070 26.9942 
18.8880 2.03290 26.9897 
18.9110 2.77510 26.9852 
18.9340 3.51730 26.9807 
18.9560 4.25940 26.9762 
18.9790 5.00160 26.9716 
19.0010 5.74380 26.9671 
19.0240 6.48600 26.9626 
19.0460 7.22820 26.9581 
19.0690 7.97030 26.9535 
19.0910 8.71250 26.9490 
19.1140 9.45470 26.9445 
18.3860 10.2697 26.2796 
18.4090 11.0135 26.2751 
18.4320 11.7573 26.2706 
18.4540 12.5010 26.2660 
18.4770 13.2448 26.2615 
18.4990 13.9886 26.2570 
18.5220 14.7324 26.2524 
18.5450 15.4761 26.2479 
18.5670 16.2199 26.2434 
18.5900 16.9637 26.2388 
18.6120 17.7074 26.2343 
18.6350 18.4512 26.2298 
18.6580 19.1950 26.2253 
18.6800 19.9387 26.2207 
18.7030 20.6825 26.2162 
17.9760 21.5230 25.5511 
17.9990 22.2684 25.5466 
18.0210 23.0138 25.5421 
18.0440 23.7591 25.5375 
18.0670 24.5045 25.5330 
18.0890 25.2499 25.5284 
18.1120 25.9952 25.5239 
18.1350 26.7406 25.5194 
18.1570 27.4859 25.5148 
18.1800 28.2313 25.5103 
18.2030 28.9767 25.5057 
18.2250 29.7220 25.5012 
18.2480 30.4674 25.4966 
18.2710 31.2128 25.4921 
18.2930 31.9581 25.4876 
18.3160 32.7035 25.4830 
18.3390 33.4488 25.4785 
18.3610 34.1942 25.4739 
18.3840 34.9396 25.4694 
18.4070 35.6849 25.4648 
18.4290 36.4303 25.4603 
17.7030 37.3059 24.7951 
17.7260 38.0528 24.7905 
17.7490 38.7998 24.7860 
17.7720 39.5467 24.7814 
17.7940 40.2937 24.7769 
17.8170 41.0406 24.7723 
17.8400 41.7876 24.7678 
17.8620 42.5345 24.7632 
17.1370 43.4245 24.0979 
17.1600 44.1730 24.0933 
17.1830 44.9215 24.0888 
17.2050 45.6701 24.0842 
17.2280 46.4186 24.0796 
17.2510 47.1672 24.0751 
17.2740 47.9157 24.0705 
17.2960 48.6643 24.0659 
17.3190 49.4128 24.0614 
17.3420 50.1614 24.0568 
17.3650 50.9099 24.0523 
17.3870 51.6585 24.0477 
17.4100 52.4070 24.0431 
17.4330 53.1556 24.0386 
17.4560 53.9041 24.0340 
17.4780 54.6527 24.0295 
17.5010 55.4010 24.0249 
17.5240 56.1500 24.0203 
17.5470 56.8980 24.0158 
18.7040 -19.5080 26.5465 
19.4780 -18.7765 27.2032 
18.7500 -18.0236 26.5375 
18.7720 -17.2815 26.5329 
18.7950 -16.5393 26.5284 
18.0660 -15.7800 25.8627 
18.0890 -15.0363 25.8581 
17.3610 -14.2722 25.1923 
17.3840 -13.5269 25.1878 
17.4060 -12.7815 25.1833 
17.4290 -12.0361 25.1787 
17.4520 -11.2908 25.1742 
18.2250 -10.5736 25.8309 
18.2470 -9.82990 25.8264 
18.2700 -9.08610 25.8219 
18.2930 -8.34230 25.8174 
19.0650 -7.63320 26.4742 
18.3380 -6.85480 25.8083 
18.3600 -6.11100 25.8038 
19.1330 -5.40660 26.4606 
19.1560 -4.66450 26.4561 
19.1780 -3.92230 26.4515 
19.2010 -3.18010 26.4470 
19.2230 -2.43790 26.4425 
19.2460 -1.69580 26.4380 
19.2680 -0.953602 26.4335 
19.2910 -0.211399 26.4289 
19.3140 0.530800 26.4244 
19.3360 1.27290 26.4199 
19.3590 2.01510 26.4154 
19.3810 2.75730 26.4108 
19.4040 3.49950 26.4063 
18.6770 4.30180 25.7403 
18.6990 5.04550 25.7358 
18.7220 5.78930 25.7312 
18.7450 6.53310 25.7267 
18.7670 7.27680 25.7222 
18.7900 8.02060 25.7176 
18.8120 8.76440 25.7131 
18.8350 9.50810 25.7086 
18.8580 10.2519 25.7040 
18.8800 10.9957 25.6995 
18.9030 11.7394 25.6950 
18.9260 12.4832 25.6904 
18.9480 13.2270 25.6859 
18.2220 14.0516 25.0197 
18.2440 14.7969 25.0152 
18.2670 15.5423 25.0107 
18.2900 16.2876 25.0061 
18.3120 17.0330 25.0016 
18.3350 17.7784 24.9970 
18.3580 18.5237 24.9925 
18.3800 19.2691 24.9879 
18.4030 20.0145 24.9834 
18.4260 20.7598 24.9789 
18.4480 21.5052 24.9743 
18.4710 22.2505 24.9698 
18.4940 22.9959 24.9652 
18.5160 23.7413 24.9607 
18.5390 24.4866 24.9562 
18.5620 25.2320 24.9516 
18.5840 25.9774 24.9471 
18.6070 26.7227 24.9425 
18.6300 27.4681 24.9380 
18.6520 28.2134 24.9334 
18.6750 28.9588 24.9289 
17.9500 29.8184 24.2625 
17.9720 30.5654 24.2580 
17.9950 31.3123 24.2534 
18.0180 32.0593 24.2489 
18.0410 32.8062 24.2443 
18.0630 33.5532 24.2398 
18.0860 34.3001 24.2352 
18.1090 35.0471 24.2307 
18.1310 35.7940 24.2261 
18.1540 36.5410 24.2216 
18.1770 37.2879 24.2170 
18.1990 38.0349 24.2125 
18.2220 38.7819 24.2079 
17.4980 39.6638 23.5414 
17.5200 40.4123 23.5368 
17.5430 41.1609 23.5323 
17.5660 41.9094 23.5277 
17.5890 42.6580 23.5231 
17.6110 43.4065 23.5186 
17.6340 44.1550 23.5140 
17.6570 44.9036 23.5095 
16.9330 45.7998 22.8429 
16.9560 46.5500 22.8383 
16.9780 47.3001 22.8337 
17.0010 48.0502 22.8292 
17.0240 48.8004 22.8246 
17.0470 49.5505 22.8200 
17.0700 50.3007 22.8154 
17.0920 51.0508 22.8109 
17.1150 51.8009 22.8063 
17.1380 52.5511 22.8017 
17.1610 53.3012 22.7972 
17.1840 54.0514 22.7926 
17.2060 54.8015 22.7880 
17.2290 55.5520 22.7835 
17.2520 56.3020 22.7789 
19.1750 -19.5258 25.9722 
19.1970 -18.7836 25.9676 
18.4700 -18.0292 25.3007 
17.7430 -17.2715 24.6337 
17.7650 -16.5262 24.6291 
16.2880 -15.7467 23.2997 
16.3110 -14.9982 23.2951 
16.3340 -14.2496 23.2905 
16.3570 -13.5011 23.2860 
16.3790 -12.7525 23.2814 
16.4020 -12.0040 23.2768 
16.4250 -11.2554 23.2723 
17.1970 -10.5351 23.9303 
17.9690 -9.81790 24.5883 
17.9920 -9.07250 24.5837 
18.7640 -8.36020 25.2418 
18.7860 -7.61640 25.2372 
18.8090 -6.87260 25.2327 
18.8320 -6.12890 25.2282 
18.8540 -5.38510 25.2236 
18.8770 -4.64130 25.2191 
18.8990 -3.89750 25.2146 
18.9220 -3.15380 25.2100 
18.9450 -2.41000 25.2055 
18.9670 -1.66620 25.2010 
18.9900 -0.922501 25.1964 
19.0120 -0.178699 25.1919 
19.0350 0.565102 25.1874 
19.0580 1.30880 25.1828 
19.0800 2.05260 25.1783 
19.1030 2.79640 25.1738 
19.1250 3.54010 25.1692 
19.1480 4.28390 25.1647 
19.1710 5.02770 25.1602 
19.1930 5.77150 25.1556 
19.2160 6.51520 25.1511 
19.2390 7.25900 25.1466 
18.5130 8.07080 24.4793 
18.5360 8.81610 24.4747 
18.5580 9.56150 24.4702 
18.5810 10.3069 24.4656 
18.6030 11.0522 24.4611 
18.6260 11.7976 24.4565 
18.6490 12.5430 24.4520 
18.6720 13.2883 24.4475 
18.6940 14.0337 24.4429 
18.7170 14.7790 24.4384 
18.7390 15.5244 24.4338 
18.7620 16.2698 24.4293 
18.7850 17.0151 24.4247 
18.0600 17.8492 23.7573 
18.0820 18.5962 23.7528 
18.1050 19.3431 23.7482 
18.1280 20.0901 23.7436 
18.1510 20.8370 23.7391 
18.1730 21.5840 23.7345 
18.1960 22.3309 23.7300 
18.2190 23.0779 23.7254 
18.2410 23.8249 23.7209 
18.2640 24.5718 23.7163 
18.2870 25.3188 23.7118 
18.3100 26.0657 23.7072 
18.3320 26.8127 23.7027 
18.3550 27.5596 23.6981 
18.3780 28.3066 23.6936 
18.4000 29.0535 23.6890 
18.4230 29.8005 23.6845 
18.4460 30.5474 23.6799 
18.4680 31.2944 23.6754 
18.4910 32.0414 23.6708 
18.5140 32.7883 23.6663 
18.5370 33.5353 23.6617 
18.5590 34.2822 23.6572 
17.8350 35.1545 22.9895 
17.8580 35.9031 22.9849 
17.8810 36.6516 22.9803 
17.9040 37.4002 22.9758 
17.9260 38.1487 22.9712 
17.9490 38.8973 22.9667 
17.9720 39.6458 22.9621 
17.9950 40.3944 22.9575 
18.0170 41.1429 22.9530 
17.2940 42.0311 22.2852 
17.3170 42.7813 22.2806 
17.3400 43.5314 22.2761 
17.3620 44.2816 22.2715 
17.3850 45.0317 22.2669 
17.4080 45.7818 22.2624 
17.4310 46.5320 22.2578 
17.4540 47.2821 22.2532 
17.4770 48.0323 22.2486 
17.4990 48.7824 22.2441 
17.5220 49.5325 22.2395 
17.5450 50.2827 22.2349 
17.5680 51.0328 22.2304 
17.5910 51.7830 22.2258 
16.8680 52.6951 21.5578 
16.8910 53.4468 21.5533 
16.9140 54.1986 21.5487 
17.6820 54.7835 22.2075 
17.7050 55.5340 22.2029 
17.7270 56.2840 22.1984 
19.6680 -18.8014 25.3933 
15.2420 -16.4824 21.3975 
14.5160 -15.7136 20.7292 
14.5390 -14.9603 20.7247 
14.5620 -14.2070 20.7201 
14.5850 -13.4536 20.7155 
14.6080 -12.7003 20.7109 
15.3790 -11.9720 21.3700 
16.1510 -11.2468 22.0292 
16.9220 -10.5248 22.6884 
17.6930 -9.80600 23.3477 
18.4640 -9.09040 24.0069 
18.4870 -8.34510 24.0023 
18.5090 -7.59970 23.9978 
18.5320 -6.85430 23.9933 
18.5550 -6.10900 23.9887 
18.5770 -5.36360 23.9842 
18.6000 -4.61820 23.9796 
18.6230 -3.87290 23.9751 
18.6450 -3.12750 23.9706 
18.6680 -2.38220 23.9660 
18.6910 -1.63680 23.9615 
18.7130 -0.891399 23.9569 
18.7360 -0.146099 23.9524 
18.7590 0.599300 23.9478 
18.7810 1.34470 23.9433 
18.8040 2.09000 23.9388 
18.8270 2.83540 23.9342 
18.8490 3.58070 23.9297 
18.8720 4.32610 23.9251 
18.8950 5.07150 23.9206 
18.9170 5.81680 23.9160 
18.9400 6.56220 23.9115 
18.9620 7.30750 23.9070 
18.9850 8.05290 23.9024 
19.0080 8.79830 23.8979 
19.0300 9.54360 23.8933 
19.0530 10.2890 23.8888 
18.3290 11.1087 23.2202 
18.3510 11.8557 23.2157 
18.3740 12.6026 23.2111 
18.3970 13.3496 23.2066 
18.4200 14.0965 23.2020 
18.4420 14.8435 23.1975 
18.4650 15.5904 23.1929 
18.4880 16.3374 23.1883 
18.5100 17.0844 23.1838 
18.5330 17.8313 23.1792 
18.5560 18.5783 23.1747 
18.5780 19.3252 23.1701 
18.6010 20.0722 23.1656 
18.6240 20.8191 23.1610 
18.6470 21.5661 23.1565 
18.6690 22.3130 23.1519 
18.6920 23.0600 23.1474 
17.9680 23.9084 22.4786 
17.9910 24.6569 22.4740 
18.0140 25.4055 22.4695 
18.0370 26.1540 22.4649 
18.0590 26.9026 22.4604 
18.0820 27.6511 22.4558 
18.1050 28.3997 22.4512 
18.1280 29.1482 22.4467 
18.1500 29.8968 22.4421 
18.1730 30.6453 22.4375 
18.1960 31.3939 22.4330 
18.2190 32.1424 22.4284 
18.2410 32.8909 22.4239 
18.2640 33.6395 22.4193 
18.2870 34.3880 22.4147 
18.3100 35.1366 22.4102 
18.3320 35.8851 22.4056 
18.3550 36.6337 22.4011 
17.6330 37.5123 21.7321 
17.6550 38.2625 21.7275 
17.6780 39.0126 21.7230 
17.7010 39.7627 21.7184 
17.7240 40.5129 21.7138 
17.7470 41.2630 21.7093 
17.7690 42.0132 21.7047 
17.7920 42.7633 21.7001 
17.8150 43.5134 21.6955 
17.0930 44.4080 21.0265 
17.1160 45.1597 21.0219 
17.1390 45.9115 21.0173 
17.1610 46.6632 21.0127 
17.1840 47.4149 21.0082 
17.2070 48.1667 21.0036 
17.2300 48.9184 20.9990 
17.2530 49.6701 20.9944 
17.2760 50.4219 20.9898 
17.2990 51.1736 20.9852 
17.3210 51.9253 20.9807 
17.3440 52.6771 20.9761 
17.3670 53.4288 20.9715 
17.3900 54.1805 20.9669 
17.4130 54.9323 20.9623 
17.4360 55.6840 20.9578 
15.9010 -10.4865 20.7791 
17.4190 -9.79420 22.1046 
18.1890 -9.07700 22.7650 
18.2120 -8.33000 22.7605 
18.2340 -7.58310 22.7559 
19.0040 -6.87220 23.4164 
18.2800 -6.08920 22.7468 
19.0500 -5.38150 23.4074 
19.0720 -4.63610 23.4028 
19.0950 -3.89080 23.3983 
19.1180 -3.14540 23.3937 
19.1400 -2.40000 23.3892 
19.1630 -1.65470 23.3846 
19.1860 -0.909302 23.3801 
19.2080 -0.163898 23.3756 
19.2310 0.581402 23.3710 
19.2540 1.32680 23.3665 
19.2760 2.07210 23.3619 
19.2990 2.81750 23.3574 
18.5750 3.62130 22.6877 
18.5980 4.36820 22.6831 
18.6200 5.11520 22.6786 
18.6430 5.86210 22.6740 
18.6660 6.60910 22.6695 
18.6880 7.35600 22.6649 
18.7110 8.10300 22.6604 
18.7340 8.84990 22.6558 
18.7570 9.59690 22.6513 
18.7790 10.3438 22.6467 
18.8020 11.0908 22.6421 
18.8250 11.8378 22.6376 
18.8470 12.5847 22.6330 
18.8700 13.3317 22.6285 
18.8930 14.0786 22.6239 
18.1700 14.9079 21.9540 
18.1920 15.6564 21.9495 
18.2150 16.4049 21.9449 
18.2380 17.1535 21.9404 
18.2610 17.9020 21.9358 
18.2830 18.6506 21.9312 
18.3060 19.3991 21.9267 
18.3290 20.1477 21.9221 
18.3520 20.8962 21.9175 
18.3740 21.6448 21.9130 
18.3970 22.3933 21.9084 
18.4200 23.1419 21.9039 
18.4430 23.8904 21.8993 
18.4660 24.6390 21.8947 
18.4880 25.3875 21.8902 
18.5110 26.1361 21.8856 
18.5340 26.8846 21.8811 
18.5570 27.6332 21.8765 
18.5790 28.3817 21.8719 
18.6020 29.1303 21.8674 
18.6250 29.8788 21.8628 
18.6480 30.6274 21.8583 
18.6700 31.3759 21.8537 
18.6930 32.1244 21.8491 
18.7160 32.8730 21.8446 
17.9940 33.7436 21.1744 
18.0170 34.4938 21.1699 
18.0400 35.2439 21.1653 
18.0620 35.9940 21.1607 
18.0850 36.7442 21.1562 
18.1080 37.4943 21.1516 
18.1310 38.2445 21.1470 
18.1540 38.9946 21.1424 
17.4320 39.8796 20.4722 
17.4550 40.6313 20.4676 
17.4780 41.3830 20.4630 
17.5010 42.1348 20.4585 
