ply
format ascii 1.0
comment FreeCAD generated
element vertex 1914
property float x
property float y
property float z
end_header
18.7810 36.3632 46.5623 
18.8030 37.0863 46.5579 
18.0540 37.9053 45.9189 
18.0760 38.6300 45.9145 
18.0980 39.3546 45.9100 
18.1200 40.0793 45.9056 
18.1420 40.8040 45.9012 
18.1640 41.5286 45.8968 
18.1860 42.2533 45.8924 
18.2080 42.9779 45.8880 
18.2300 43.7026 45.8835 
18.2520 44.4272 45.8791 
17.5040 45.2638 45.2400 
17.5260 45.9901 45.2356 
17.5480 46.7163 45.2312 
17.5700 47.4426 45.2267 
17.5920 48.1688 45.2223 
17.6150 48.8951 45.2179 
17.6370 49.6213 45.2135 
17.6590 50.3476 45.2090 
17.6810 51.0738 45.2046 
16.9330 51.9263 44.5654 
16.9550 52.6541 44.5610 
16.9770 53.3820 44.5565 
16.9990 54.1098 44.5521 
17.0220 54.8377 44.5477 
16.2740 55.6997 43.9084 
16.2960 56.4291 43.9039 
16.3190 57.1586 43.8995 
16.3410 57.8880 43.8951 
16.3630 58.6174 43.8906 
16.3850 59.3469 43.8862 
16.4070 60.0763 43.8817 
16.4290 60.8058 43.8773 
16.4520 61.5352 43.8728 
15.7050 62.4132 43.2335 
15.7270 63.1442 43.2290 
15.7490 63.8752 43.2246 
15.7710 64.6062 43.2201 
15.7940 65.3373 43.2157 
15.0470 66.2248 42.5762 
14.3000 67.1155 41.9368 
13.5540 68.0094 41.2973 
12.8080 68.9065 40.6578 
12.0620 69.8067 40.0183 
11.3150 70.7102 39.3788 
10.5690 71.6168 38.7393 
9.05499 72.6943 37.4647 
8.30902 73.6090 36.8251 
7.56403 74.5270 36.1855 
7.58600 75.2750 36.1809 
7.60901 76.0240 36.1764 
7.63202 76.7720 36.1718 
6.98901 14.5815 36.6066 
6.23999 15.3734 35.9665 
6.26300 16.1220 35.9620 
6.28601 16.8705 35.9574 
7.08002 17.5693 36.5884 
7.10303 18.3163 36.5839 
7.12500 19.0632 36.5793 
7.14801 19.8102 36.5748 
7.94098 20.5010 37.2058 
8.73499 21.1887 37.8369 
9.52802 21.8731 38.4679 
11.8850 23.1700 40.3658 
15.0120 24.3822 42.8994 
15.8050 25.0459 43.5306 
17.3680 25.6376 44.7975 
17.3900 26.3639 44.7930 
17.4120 27.0901 44.7886 
18.2050 27.7427 45.4199 
18.2270 28.4674 45.4155 
18.2490 29.1921 45.4111 
19.0410 29.8383 46.0424 
19.0630 30.5614 46.0380 
19.0850 31.2844 46.0336 
19.1070 32.0075 46.0291 
19.1290 32.7306 46.0247 
18.3810 33.5400 45.3846 
18.4030 34.2647 45.3801 
18.4250 34.9893 45.3757 
18.4470 35.7140 45.3713 
18.4690 36.4386 45.3669 
18.4910 37.1633 45.3625 
18.5130 37.8880 45.3581 
18.5350 38.6126 45.3537 
18.5570 39.3373 45.3492 
18.5790 40.0619 45.3448 
18.6010 40.7866 45.3404 
17.8540 41.6151 44.7001 
17.8760 42.3414 44.6957 
17.8980 43.0676 44.6912 
17.9200 43.7939 44.6868 
17.9420 44.5201 44.6824 
17.9640 45.2464 44.6780 
17.9860 45.9726 44.6735 
18.0080 46.6989 44.6691 
18.0310 47.4252 44.6647 
18.0530 48.1514 44.6603 
17.3060 48.9975 44.0199 
17.3280 49.7253 44.0154 
17.3500 50.4532 44.0110 
17.3720 51.1810 44.0066 
17.3940 51.9088 44.0021 
17.4160 52.6367 43.9977 
16.6700 53.4939 43.3572 
16.6920 54.2233 43.3528 
16.7140 54.9528 43.3483 
16.7360 55.6822 43.3439 
16.7590 56.4117 43.3394 
16.7810 57.1411 43.3350 
16.0350 58.0095 42.6945 
16.0570 58.7405 42.6900 
16.0790 59.4715 42.6856 
16.1010 60.2025 42.6811 
16.1230 60.9336 42.6766 
16.1460 61.6646 42.6722 
16.1680 62.3956 42.6677 
16.1900 63.1267 42.6633 
15.4440 64.0094 42.0227 
15.4670 64.7420 42.0182 
15.4890 65.4746 42.0137 
15.5110 66.2072 42.0093 
14.7660 67.0979 41.3686 
14.0200 67.9917 40.7279 
13.2750 68.8888 40.0872 
12.5300 69.7890 39.4464 
11.7850 70.6924 38.8057 
11.0400 71.5990 38.1649 
10.2950 72.5088 37.5241 
9.54999 73.4220 36.8833 
8.80499 74.3380 36.2425 
8.82800 75.0850 36.2379 
8.85101 75.8320 36.2334 
8.87299 76.5790 36.2288 
7.44000 13.8166 36.0331 
7.46198 14.5636 36.0286 
7.48499 15.3106 36.0240 
7.50800 16.0575 36.0195 
7.53003 16.8045 36.0149 
7.55298 17.5514 36.0104 
7.57599 18.2984 36.0058 
8.36798 18.9924 36.6381 
8.39099 19.7378 36.6335 
8.41400 20.4832 36.6290 
9.97601 21.1132 37.8981 
10.7680 21.7961 38.5304 
11.5610 22.4758 39.1628 
12.3530 23.1524 39.7951 
13.9140 23.7617 41.0644 
15.4760 24.3646 42.3336 
16.2670 25.0284 42.9661 
17.0590 25.6890 43.5985 
17.8510 26.3465 44.2310 
17.8730 27.0727 44.2266 
17.8950 27.7990 44.2221 
18.6860 28.4500 44.8547 
18.7080 29.1747 44.8503 
18.7300 29.8993 44.8458 
18.7520 30.6240 44.8414 
18.7740 31.3487 44.8370 
18.7960 32.0733 44.8326 
18.8180 32.7980 44.8282 
18.8400 33.5226 44.8238 
18.8620 34.2473 44.8193 
18.8840 34.9720 44.8149 
18.9060 35.6966 44.8105 
18.9280 36.4213 44.8061 
18.1820 37.2402 44.1646 
18.2040 37.9665 44.1602 
18.2260 38.6927 44.1558 
18.2480 39.4190 44.1513 
18.2700 40.1452 44.1469 
18.2920 40.8715 44.1425 
18.3140 41.5977 44.1381 
18.3360 42.3240 44.1336 
18.3580 43.0502 44.1292 
18.3800 43.7765 44.1248 
18.4020 44.5027 44.1204 
18.4240 45.2290 44.1159 
17.6780 46.0686 43.4743 
17.7010 46.7965 43.4699 
17.7230 47.5243 43.4655 
17.7450 48.2522 43.4610 
17.7670 48.9800 43.4566 
17.7890 49.7079 43.4522 
17.8110 50.4357 43.4477 
17.0660 51.2881 42.8060 
17.0880 52.0175 42.8016 
17.1100 52.7470 42.7972 
17.1320 53.4764 42.7927 
17.1540 54.2059 42.7883 
16.4090 55.0678 42.1465 
16.4310 55.7988 42.1421 
16.4530 56.5299 42.1376 
16.4760 57.2609 42.1332 
16.4980 57.9919 42.1287 
16.5200 58.7230 42.1243 
16.5420 59.4540 42.1198 
16.5640 60.1850 42.1154 
16.5870 60.9160 42.1109 
15.8420 61.7939 41.4691 
15.8640 62.5266 41.4646 
15.8860 63.2592 41.4602 
15.9090 63.9918 41.4557 
15.9310 64.7244 41.4512 
15.1860 65.6119 40.8093 
15.2090 66.3461 40.8049 
14.4640 67.2383 40.1629 
13.7200 68.1337 39.5210 
13.7420 68.8711 39.5165 
12.9980 69.7713 38.8745 
12.2540 70.6747 38.2326 
11.5100 71.5812 37.5906 
10.7660 72.4910 36.9485 
10.7890 73.2350 36.9440 
10.0450 74.1490 36.3019 
10.0680 74.8950 36.2974 
10.0900 75.6400 36.2929 
10.1130 76.3850 36.2883 
7.91302 13.7987 35.4551 
7.93597 14.5457 35.4505 
8.72699 15.2478 36.0839 
7.98102 16.0396 35.4414 
8.77301 16.7385 36.0749 
8.79498 17.4838 36.0703 
8.81799 18.2292 36.0658 
8.84100 18.9746 36.0612 
9.63202 19.6655 36.6947 
9.65503 20.4092 36.6902 
10.4460 21.0954 37.3237 
11.2380 21.7783 37.9573 
12.0290 22.4581 38.5909 
13.5890 23.0723 39.8625 
14.3790 23.7441 40.4962 
15.9390 24.3471 41.7679 
16.7300 25.0109 42.4016 
16.7520 25.7404 42.3971 
17.5420 26.3994 43.0308 
18.3330 27.0553 43.6645 
18.3550 27.7816 43.6601 
18.3770 28.5078 43.6557 
18.3990 29.2341 43.6513 
18.4210 29.9603 43.6468 
18.4430 30.6866 43.6424 
18.4650 31.4128 43.6380 
18.4870 32.1391 43.6336 
18.5090 32.8653 43.6291 
18.5310 33.5916 43.6247 
18.5540 34.3178 43.6203 
18.5760 35.0441 43.6159 
18.5980 35.7703 43.6114 
18.6200 36.4966 43.6070 
18.6420 37.2228 43.6026 
18.6640 37.9491 43.5982 
18.6860 38.6753 43.5937 
18.7080 39.4016 43.5893 
18.7300 40.1278 43.5849 
18.7520 40.8541 43.5805 
18.7740 41.5803 43.5760 
18.7960 42.3066 43.5716 
18.0510 43.1398 42.9288 
18.0730 43.8677 42.9244 
18.0950 44.5955 42.9199 
18.1170 45.3233 42.9155 
18.1400 46.0512 42.9111 
18.1620 46.7790 42.9066 
18.1840 47.5069 42.9022 
17.4390 48.3529 42.2593 
17.4610 49.0823 42.2549 
17.4830 49.8118 42.2504 
17.5060 50.5412 42.2460 
17.5280 51.2706 42.2415 
17.5500 52.0001 42.2371 
16.8050 52.8572 41.5942 
16.8280 53.5882 41.5897 
16.8500 54.3193 41.5853 
16.8720 55.0503 41.5808 
16.8940 55.7813 41.5764 
16.9170 56.5123 41.5719 
16.9390 57.2434 41.5674 
16.1950 58.1133 40.9244 
16.2170 58.8459 40.9200 
16.2390 59.5785 40.9155 
16.2610 60.3111 40.9110 
16.2840 61.0437 40.9066 
16.3060 61.7764 40.9021 
16.3280 62.5090 40.8977 
15.5850 63.3916 40.2546 
15.6070 64.1258 40.2501 
15.6290 64.8600 40.2456 
15.6510 65.5943 40.2411 
14.9080 66.4848 39.5980 
14.9300 67.2206 39.5935 
14.1870 68.1160 38.9503 
13.4440 69.0146 38.3072 
13.4660 69.7536 38.3027 
12.7230 70.6569 37.6594 
11.9800 71.5634 37.0162 
12.0030 72.3056 37.0117 
11.2600 73.2170 36.3684 
11.2830 73.9610 36.3639 
11.3050 74.7040 36.3593 
10.5620 75.6220 35.7160 
11.3500 76.1920 36.3503 
11.3730 76.9360 36.3457 
8.40900 14.5278 34.8725 
9.20001 15.2299 35.5071 
9.22198 15.9752 35.5026 
9.24500 16.7206 35.4980 
10.0360 17.4163 36.1327 
10.0580 18.1601 36.1282 
10.0810 18.9039 36.1237 
10.8710 19.5932 36.7584 
10.8940 20.3354 36.7539 
11.6840 21.0200 37.3887 
12.4740 21.7014 38.0235 
13.2650 22.3796 38.6583 
14.0550 23.0546 39.2931 
14.8450 23.7265 39.9280 
16.4020 24.3296 41.2022 
17.1920 24.9935 41.8371 
17.2140 25.7229 41.8326 
18.0030 26.3820 42.4676 
18.0260 27.1098 42.4631 
18.0480 27.8377 42.4587 
18.0700 28.5655 42.4543 
18.8590 29.2167 43.0892 
18.8810 29.9429 43.0848 
18.9030 30.6692 43.0804 
18.9250 31.3954 43.0759 
18.9480 32.1217 43.0715 
18.9700 32.8479 43.0671 
18.9920 33.5742 43.0627 
19.0140 34.3004 43.0582 
19.0360 35.0267 43.0538 
19.0580 35.7529 43.0494 
19.0800 36.4792 43.0450 
19.1020 37.2054 43.0405 
19.1240 37.9317 43.0361 
18.3800 38.7553 42.3922 
18.4020 39.4832 42.3877 
18.4240 40.2110 42.3833 
18.4460 40.9388 42.3789 
18.4680 41.6667 42.3744 
18.4900 42.3945 42.3700 
18.5120 43.1224 42.3655 
18.5340 43.8502 42.3611 
18.5570 44.5781 42.3567 
17.8130 45.4177 41.7126 
17.8350 46.1471 41.7082 
17.8570 46.8765 41.7037 
17.8790 47.6060 41.6993 
17.9010 48.3354 41.6948 
17.9230 49.0648 41.6904 
17.1800 49.9156 41.0463 
17.2020 50.6466 41.0418 
17.2240 51.3776 41.0373 
17.2460 52.1087 41.0329 
17.2690 52.8397 41.0284 
17.2910 53.5707 41.0240 
17.3130 54.3017 41.0195 
16.5700 55.1652 40.3753 
16.5920 55.8978 40.3709 
16.6140 56.6304 40.3664 
16.6370 57.3631 40.3619 
16.6590 58.0957 40.3575 
16.6810 58.8283 40.3530 
16.7030 59.5609 40.3485 
15.9610 60.4372 39.7042 
15.9830 61.1714 39.6998 
16.0050 61.9056 39.6953 
16.0270 62.6398 39.6908 
16.0500 63.3740 39.6864 
16.0720 64.1082 39.6819 
15.3300 64.9956 39.0375 
15.3520 65.7314 39.0330 
15.3740 66.4672 39.0286 
14.6320 67.3609 38.3842 
14.6540 68.0983 38.3797 
13.9120 68.9969 37.7353 
13.9350 69.7358 37.7308 
13.1920 70.6391 37.0863 
13.2150 71.3797 37.0818 
12.4730 72.2878 36.4373 
12.4960 73.0300 36.4328 
11.7540 73.9430 35.7883 
12.5410 74.5140 36.4237 
11.7990 75.4300 35.7792 
11.8220 76.1740 35.7747 
11.8440 76.9180 35.7702 
11.8670 77.6620 35.7656 
9.62701 13.7213 34.9394 
9.64899 14.4666 34.9348 
9.67200 15.2120 34.9303 
9.69501 15.9574 34.9257 
10.4840 16.6547 35.5617 
10.5070 17.3985 35.5571 
11.2970 18.0911 36.1931 
11.3190 18.8333 36.1886 
11.3420 19.5754 36.1841 
12.1310 20.2617 36.8200 
12.9200 20.9447 37.4561 
13.7100 21.6245 38.0921 
14.4990 22.3012 38.7282 
15.2880 22.9747 39.3642 
16.0760 23.6449 40.0003 
16.8650 24.3120 40.6364 
16.8870 25.0431 40.6320 
17.6760 25.7054 41.2681 
17.6980 26.4348 41.2637 
17.7200 27.1643 41.2592 
18.5090 27.8202 41.8954 
18.5310 28.5481 41.8910 
18.5530 29.2759 41.8866 
18.5750 30.0037 41.8821 
18.5970 30.7316 41.8777 
18.6200 31.4594 41.8732 
18.6420 32.1873 41.8688 
18.6640 32.9151 41.8644 
18.6860 33.6430 41.8599 
18.7080 34.3708 41.8555 
18.7300 35.0987 41.8511 
18.7520 35.8265 41.8466 
18.7740 36.5543 41.8422 
18.7970 37.2822 41.8378 
18.8190 38.0100 41.8333 
18.8410 38.7379 41.8289 
18.8630 39.4657 41.8245 
18.8850 40.1936 41.8200 
18.1420 41.0235 41.1748 
18.1640 41.7530 41.1703 
18.1860 42.4824 41.1659 
18.2080 43.2119 41.1614 
18.2300 43.9413 41.1570 
18.2530 44.6707 41.1525 
18.2750 45.4002 41.1481 
18.2970 46.1296 41.1437 
17.5540 46.9739 40.4983 
17.5760 47.7050 40.4939 
17.5990 48.4360 40.4894 
17.6210 49.1670 40.4850 
17.6430 49.8980 40.4805 
17.6650 50.6291 40.4761 
17.6870 51.3601 40.4716 
17.7100 52.0911 40.4672 
17.7320 52.8222 40.4627 
16.9900 53.6824 39.8173 
17.0120 54.4150 39.8128 
17.0340 55.1477 39.8084 
17.0560 55.8803 39.8039 
17.0790 56.6129 39.7994 
16.3360 57.4827 39.1539 
16.3590 58.2169 39.1495 
16.3810 58.9511 39.1450 
16.4030 59.6853 39.1405 
16.4260 60.4196 39.1360 
16.4480 61.1538 39.1316 
16.4700 61.8880 39.1271 
15.7290 62.7705 38.4816 
15.7510 63.5063 38.4771 
15.7730 64.2421 38.4726 
15.7960 64.9779 38.4681 
15.0540 65.8685 37.8225 
15.0770 66.6059 37.8180 
15.0990 67.3433 37.8135 
15.1220 68.0807 37.8090 
14.3800 68.9791 37.1634 
14.4030 69.7181 37.1589 
13.6620 70.6214 36.5132 
13.6840 71.3620 36.5086 
13.7070 72.1026 36.5041 
12.9660 73.0120 35.8584 
12.9880 73.7540 35.8539 
13.0110 74.4970 35.8494 
13.0340 75.2390 35.8449 
12.2930 76.1560 35.1991 
12.3160 76.9000 35.1946 
12.3380 77.6440 35.1900 
10.0990 13.7034 34.3625 
10.8880 14.4056 34.9997 
10.9100 15.1494 34.9952 
11.6990 15.8468 35.6323 
11.7220 16.5889 35.6278 
11.7440 17.3311 35.6233 
11.7670 18.0733 35.6187 
12.5550 18.7627 36.2559 
12.5780 19.5033 36.2514 
13.3660 20.1880 36.8887 
14.1540 20.8694 37.5259 
14.1770 21.6068 37.5214 
14.9650 22.2835 38.1587 
15.7530 22.9571 38.7960 
15.7750 23.6913 38.7916 
16.5630 24.3600 39.4289 
17.3510 25.0256 40.0662 
17.3730 25.7566 40.0618 
18.1600 26.4173 40.6992 
18.1830 27.1468 40.6947 
18.2050 27.8762 40.6903 
18.2270 28.6057 40.6858 
18.2490 29.3351 40.6814 
18.2710 30.0645 40.6769 
18.2940 30.7940 40.6725 
18.3160 31.5234 40.6681 
18.3380 32.2528 40.6636 
18.3600 32.9823 40.6592 
18.3820 33.7117 40.6547 
18.4040 34.4411 40.6503 
18.4270 35.1706 40.6458 
18.4490 35.9000 40.6414 
18.4710 36.6294 40.6369 
18.4930 37.3589 40.6325 
18.5150 38.0883 40.6280 
18.5370 38.8178 40.6236 
18.5600 39.5472 40.6192 
18.5820 40.2766 40.6147 
18.6040 41.0061 40.6103 
18.6260 41.7355 40.6058 
18.6480 42.4649 40.6014 
17.9060 43.3013 39.9549 
17.9280 44.0323 39.9504 
17.9510 44.7633 39.9460 
17.9730 45.4943 39.9415 
17.9950 46.2254 39.9371 
18.0170 46.9564 39.9326 
18.0390 47.6874 39.9282 
18.0620 48.4185 39.9237 
18.0840 49.1495 39.9192 
17.3420 50.0017 39.2726 
17.3650 50.7344 39.2682 
17.3870 51.4670 39.2637 
17.4090 52.1996 39.2593 
17.4310 52.9322 39.2548 
17.4540 53.6648 39.2503 
17.4760 54.3975 39.2459 
16.7350 55.2625 38.5992 
16.7570 55.9967 38.5947 
16.7790 56.7309 38.5902 
16.8020 57.4651 38.5857 
16.8240 58.1993 38.5813 
16.8460 58.9335 38.5768 
16.8690 59.6677 38.5723 
16.1280 60.5455 37.9256 
16.1500 61.2813 37.9211 
16.1720 62.0171 37.9166 
16.1950 62.7529 37.9121 
16.2170 63.4887 37.9076 
15.4770 64.3760 37.2608 
15.4990 65.1134 37.2563 
15.5220 65.8508 37.2518 
15.5440 66.5882 37.2473 
15.5660 67.3256 37.2428 
14.8260 68.2224 36.5960 
14.8490 68.9614 36.5915 
14.8710 69.7004 36.5870 
14.8930 70.4394 36.5825 
14.1540 71.3442 35.9355 
14.1760 72.0848 35.9310 
14.1980 72.8254 35.9265 
13.4590 73.7370 35.2795 
13.4810 74.4790 35.2750 
13.5040 75.2210 35.2705 
13.5260 75.9630 35.2660 
13.5490 76.7050 35.2614 
12.8090 77.6260 34.6144 
12.8320 78.3700 34.6099 
12.8550 79.1140 34.6054 
12.1150 80.0410 33.9583 
9.78302 12.9801 33.1474 
11.3360 13.6440 34.4286 
11.3590 14.3878 34.4241 
12.1470 15.0868 35.0625 
12.1690 15.8290 35.0579 
12.1920 16.5711 35.0534 
12.9790 17.2638 35.6918 
13.0020 18.0044 35.6873 
13.7890 18.6923 36.3258 
13.8120 19.4313 36.3213 
13.8340 20.1703 36.3168 
14.6220 20.8518 36.9553 
15.4090 21.5301 37.5938 
15.4310 22.2659 37.5893 
16.2180 22.9395 38.2278 
16.2400 23.6737 38.2234 
17.0270 24.3424 38.8619 
17.0490 25.0751 38.8575 
17.8360 25.7391 39.4961 
17.8580 26.4701 39.4916 
17.8810 27.2011 39.4871 
17.9030 27.9321 39.4827 
17.9250 28.6632 39.4782 
17.9470 29.3942 39.4738 
18.7340 30.0470 40.1124 
18.7560 30.7765 40.1080 
18.7780 31.5059 40.1035 
18.8000 32.2353 40.0991 
18.8220 32.9648 40.0947 
18.8440 33.6942 40.0902 
18.8670 34.4237 40.0858 
18.8890 35.1531 40.0813 
18.9110 35.8825 40.0769 
18.9330 36.6120 40.0724 
18.9550 37.3414 40.0680 
18.2140 38.1665 39.4203 
18.2360 38.8976 39.4159 
18.2580 39.6286 39.4114 
18.2800 40.3596 39.4070 
18.3030 41.0906 39.4025 
18.3250 41.8217 39.3981 
18.3470 42.5527 39.3936 
18.3690 43.2837 39.3891 
18.3920 44.0148 39.3847 
18.4140 44.7458 39.3802 
18.4360 45.4768 39.3758 
18.4580 46.2078 39.3713 
17.7170 47.0537 38.7235 
17.7400 47.7863 38.7191 
17.7620 48.5189 38.7146 
17.7840 49.2515 38.7101 
17.8070 49.9842 38.7057 
17.8290 50.7168 38.7012 
17.8510 51.4494 38.6968 
17.1110 52.3080 38.0489 
17.1330 53.0422 38.0444 
17.1550 53.7764 38.0399 
17.1780 54.5106 38.0354 
17.2000 55.2449 38.0310 
17.2220 55.9791 38.0265 
17.2450 56.7133 38.0220 
16.5050 57.5846 37.3741 
16.5270 58.3204 37.3696 
16.5490 59.0562 37.3651 
16.5720 59.7920 37.3606 
16.5940 60.5278 37.3561 
16.6160 61.2636 37.3517 
16.6390 61.9994 37.3472 
15.8990 62.8835 36.6991 
15.9220 63.6209 36.6946 
15.9440 64.3583 36.6901 
15.9660 65.0957 36.6856 
15.9890 65.8331 36.6812 
16.0110 66.5705 36.6767 
16.0340 67.3079 36.6722 
15.2940 68.2047 36.0241 
15.3170 68.9437 36.0196 
15.3390 69.6827 36.0151 
15.3620 70.4217 36.0106 
14.6230 71.3265 35.3624 
14.6450 72.0670 35.3579 
14.6680 72.8076 35.3534 
14.6900 73.5480 35.3489 
13.9520 74.4610 34.7006 
13.9740 75.2030 34.6961 
13.9970 75.9450 34.6916 
14.0190 76.6870 34.6871 
13.2810 77.6080 34.0388 
13.3030 78.3520 34.0343 
12.5650 79.2770 33.3860 
12.5880 80.0230 33.3815 
11.0880 81.1380 32.0894 
10.3500 82.0730 31.4410 
8.85199 83.1990 30.1489 
7.35303 84.3320 28.8567 
8.70502 12.2919 31.2856 
10.2570 12.9622 32.5693 
12.6170 15.0690 34.4881 
13.4040 15.7649 35.1277 
13.4260 16.5055 35.1232 
13.4490 17.2461 35.1187 
14.2350 17.9356 35.7584 
14.2580 18.6746 35.7539 
15.0440 19.3593 36.3936 
15.0660 20.0967 36.3891 
15.0890 20.8341 36.3846 
15.8750 21.5125 37.0243 
15.8970 22.2483 37.0199 
16.6830 22.9218 37.6596 
16.7060 23.6561 37.6552 
17.4910 24.3249 38.2950 
17.5140 25.0575 38.2905 
17.5360 25.7901 38.2860 
18.3210 26.4526 38.9259 
18.3440 27.1836 38.9214 
18.3660 27.9146 38.9170 
18.3880 28.6456 38.9125 
18.4100 29.3767 38.9081 
18.4330 30.1077 38.9036 
18.4550 30.8387 38.8991 
18.4770 31.5697 38.8947 
18.4990 32.3008 38.8902 
18.5220 33.0318 38.8858 
18.5440 33.7628 38.8813 
18.5660 34.4939 38.8769 
18.5880 35.2249 38.8724 
18.6100 35.9559 38.8680 
18.6330 36.6870 38.8635 
18.6550 37.4180 38.8590 
18.6770 38.1490 38.8546 
18.6990 38.8800 38.8501 
18.7210 39.6111 38.8457 
18.7440 40.3421 38.8412 
18.7660 41.0731 38.8368 
18.0260 41.9078 38.1878 
18.0480 42.6404 38.1834 
18.0700 43.3730 38.1789 
18.0930 44.1056 38.1744 
18.1150 44.8383 38.1700 
18.1370 45.5709 38.1655 
18.1590 46.3035 38.1610 
18.1820 47.0361 38.1566 
18.2040 47.7687 38.1521 
17.4640 48.6193 37.5030 
17.4870 49.3535 37.4986 
17.5090 50.0878 37.4941 
17.5310 50.8220 37.4896 
17.5540 51.5562 37.4851 
17.5760 52.2904 37.4807 
17.5980 53.0246 37.4762 
17.6210 53.7588 37.4717 
16.8810 54.6237 36.8226 
16.9040 55.3595 36.8181 
16.9260 56.0954 36.8136 
16.9480 56.8312 36.8091 
16.9710 57.5670 36.8046 
16.9930 58.3028 36.8002 
17.0160 59.0386 36.7957 
17.0380 59.7744 36.7912 
16.2990 60.6536 36.1419 
16.3220 61.3910 36.1375 
16.3440 62.1284 36.1330 
16.3660 62.8658 36.1285 
16.3890 63.6032 36.1240 
16.4110 64.3406 36.1195 
16.4340 65.0780 36.1150 
16.4560 65.8154 36.1105 
15.7180 66.7090 35.4612 
15.7400 67.4480 35.4567 
15.7630 68.1870 35.4522 
15.7850 68.9260 35.4477 
15.8080 69.6650 35.4432 
15.8300 70.4040 35.4387 
15.8520 71.1430 35.4342 
15.1150 72.0493 34.7847 
15.1370 72.7899 34.7802 
15.1600 73.5300 34.7757 
14.4220 74.4430 34.1263 
14.4440 75.1850 34.1218 
14.4670 75.9280 34.1172 
14.4890 76.6700 34.1127 
13.7520 77.5900 33.4632 
13.7750 78.3340 33.4587 
13.0370 79.2600 32.8092 
12.3000 80.1880 32.1597 
11.5630 81.1200 31.5101 
10.0660 82.2410 30.2155 
8.56897 83.3690 28.9209 
7.07300 84.5030 27.6262 
6.33600 85.4530 26.9765 
9.18103 12.2740 30.7051 
10.7300 12.9443 31.9913 
12.2790 13.6083 33.2774 
13.0650 14.3090 33.9183 
13.8500 15.0065 34.5591 
13.8730 15.7471 34.5546 
14.6590 16.4399 35.1955 
14.6810 17.1789 35.1910 
15.4660 17.8668 35.8319 
15.4890 18.6042 35.8274 
15.5110 19.3416 35.8229 
15.5340 20.0790 35.8184 
16.3190 20.7590 36.4594 
16.3410 21.4948 36.4549 
17.1260 22.1700 37.0959 
17.1480 22.9042 37.0914 
17.1710 23.6385 37.0870 
17.1930 24.3727 37.0825 
17.9780 25.0399 37.7235 
18.0000 25.7725 37.7191 
18.0220 26.5052 37.7146 
18.0450 27.2378 37.7101 
18.0670 27.9704 37.7057 
18.0890 28.7030 37.7012 
18.1110 29.4357 37.6967 
18.1340 30.1683 37.6923 
18.1560 30.9009 37.6878 
18.1780 31.6335 37.6834 
18.2010 32.3661 37.6789 
18.2230 33.0988 37.6744 
18.2450 33.8314 37.6700 
18.2670 34.5640 37.6655 
18.2900 35.2966 37.6610 
18.3120 36.0292 37.6566 
18.3340 36.7619 37.6521 
18.3560 37.4945 37.6476 
18.3790 38.2271 37.6432 
18.4010 38.9597 37.6387 
18.4230 39.6923 37.6342 
18.4450 40.4250 37.6298 
18.4680 41.1576 37.6253 
18.4900 41.8902 37.6209 
18.5120 42.6228 37.6164 
18.5350 43.3555 37.6119 
17.7960 44.1964 36.9617 
17.8180 44.9307 36.9572 
17.8400 45.6649 36.9527 
17.8630 46.3991 36.9483 
17.8850 47.1333 36.9438 
17.9070 47.8675 36.9393 
17.9300 48.6017 36.9348 
17.9520 49.3359 36.9304 
17.9740 50.0702 36.9259 
17.9960 50.8044 36.9214 
17.2580 51.6629 36.2711 
17.2800 52.3987 36.2666 
17.3030 53.1345 36.2621 
17.3250 53.8703 36.2576 
17.3480 54.6061 36.2531 
17.3700 55.3419 36.2487 
17.3920 56.0777 36.2442 
17.4150 56.8135 36.2397 
16.6770 57.6864 35.5893 
16.6990 58.4238 35.5848 
16.7210 59.1612 35.5803 
16.7440 59.8986 35.5758 
16.7660 60.6360 35.5713 
16.7890 61.3734 35.5668 
16.8110 62.1108 35.5623 
16.8340 62.8482 35.5578 
16.0960 63.7353 34.9073 
16.1190 64.4743 34.9028 
16.1410 65.2133 34.8983 
16.1630 65.9523 34.8938 
16.1860 66.6913 34.8893 
16.2080 67.4303 34.8848 
16.2310 68.1693 34.8803 
16.2530 68.9083 34.8758 
16.2760 69.6473 34.8713 
15.5390 70.5504 34.2206 
15.5610 71.2909 34.2161 
15.5840 72.0315 34.2116 
15.6060 72.7721 34.2071 
15.6290 73.5130 34.2026 
14.8920 74.4250 33.5519 
14.9150 75.1680 33.5474 
14.9370 75.9100 33.5429 
14.2010 76.8290 32.8922 
14.2230 77.5730 32.8876 
13.4870 78.4960 32.2369 
12.7510 79.4230 31.5861 
12.0140 80.3530 30.9354 
11.2780 81.2870 30.2846 
9.78302 82.4100 28.9875 
8.28900 83.5390 27.6904 
6.79401 84.6750 26.3933 
6.05902 85.6260 25.7424 
4.56500 86.7730 24.4452 
3.82898 87.7310 23.7942 
1.17700 9.60610 23.0310 
3.48798 10.2734 24.9659 
5.79797 10.9310 26.9010 
9.65601 12.2560 30.1246 
11.2030 12.9264 31.4132 
12.7500 13.5905 32.7018 
14.2970 14.2482 33.9905 
14.3200 14.9888 33.9860 
15.1040 15.6832 34.6281 
15.8890 16.3743 35.2702 
15.9110 17.1117 35.2657 
15.9340 17.8491 35.2612 
16.7180 18.5339 35.9034 
16.7400 19.2698 35.8989 
16.7630 20.0056 35.8945 
16.7850 20.7414 35.8900 
16.8070 21.4772 35.8855 
17.5910 22.1524 36.5277 
17.6140 22.8866 36.5232 
17.6360 23.6209 36.5188 
17.6580 24.3551 36.5143 
17.6810 25.0893 36.5098 
17.7030 25.8235 36.5053 
17.7250 26.5577 36.5009 
18.5090 27.2202 37.1432 
18.5310 27.9528 37.1387 
18.5530 28.6855 37.1342 
18.5760 29.4181 37.1298 
18.5980 30.1507 37.1253 
18.6200 30.8833 37.1208 
18.6420 31.6159 37.1164 
18.6650 32.3486 37.1119 
18.6870 33.0812 37.1075 
18.7090 33.8138 37.1030 
18.7320 34.5464 37.0985 
18.7540 35.2791 37.0941 
18.7760 36.0117 37.0896 
18.0380 36.8367 36.4382 
18.0600 37.5709 36.4337 
18.0820 38.3051 36.4293 
18.1050 39.0393 36.4248 
18.1270 39.7736 36.4203 
18.1490 40.5078 36.4158 
18.1720 41.2420 36.4114 
18.1940 41.9762 36.4069 
18.2160 42.7104 36.4024 
18.2390 43.4446 36.3980 
18.2610 44.1788 36.3935 
18.2830 44.9131 36.3890 
18.3050 45.6473 36.3845 
18.3280 46.3815 36.3801 
18.3500 47.1157 36.3756 
17.6120 47.9662 35.7241 
17.6350 48.7020 35.7196 
17.6570 49.4378 35.7151 
17.6800 50.1736 35.7106 
17.7020 50.9094 35.7061 
17.7240 51.6452 35.7016 
17.7470 52.3810 35.6972 
17.7690 53.1168 35.6927 
17.7910 53.8527 35.6882 
17.0540 54.7191 35.0366 
17.0770 55.4565 35.0321 
17.0990 56.1939 35.0276 
17.1220 56.9313 35.0231 
17.1440 57.6687 35.0186 
17.1660 58.4061 35.0141 
17.1890 59.1435 35.0096 
17.2110 59.8809 35.0051 
17.2340 60.6183 35.0006 
16.4970 61.5006 34.3489 
16.5190 62.2396 34.3444 
16.5420 62.9786 34.3399 
16.5640 63.7176 34.3354 
16.5870 64.4566 34.3309 
16.6090 65.1956 34.3264 
16.6320 65.9346 34.3219 
16.6540 66.6736 34.3174 
15.9180 67.5703 33.6656 
15.9400 68.3109 33.6610 
15.9630 69.0514 33.6565 
15.9850 69.7920 33.6520 
16.0080 70.5326 33.6475 
16.0310 71.2732 33.6430 
16.0530 72.0138 33.6385 
16.0760 72.7544 33.6340 
15.3400 73.6650 32.9821 
15.3620 74.4080 32.9776 
15.3850 75.1500 32.9730 
15.4070 75.8920 32.9685 
14.6720 76.8110 32.3166 
13.9360 77.7330 31.6646 
13.9590 78.4780 31.6601 
13.2240 79.4050 31.0081 
12.4890 80.3360 30.3561 
10.9960 81.4540 29.0566 
9.50299 82.5780 27.7570 
8.01001 83.7090 26.4575 
6.51801 84.8460 25.1578 
5.78302 85.7990 24.5057 
5.04901 86.7540 23.8535 
3.55701 87.9070 22.5538 
2.82300 88.8710 21.9016 
-8.33197 6.84820 14.0351 
1.66400 9.58770 22.4369 
3.97101 10.2551 24.3755 
5.51703 10.9479 25.6665 
7.82397 11.5977 27.6052 
11.6760 12.9085 30.8351 
13.2220 13.5727 32.1262 
14.7660 14.2304 33.4174 
15.5500 14.9264 34.0607 
15.5730 15.6654 34.0562 
17.1170 16.3089 35.3474 
16.3780 17.0941 34.6951 
17.1620 17.7805 35.3385 
17.1840 18.5163 35.3340 
17.2060 19.2521 35.3295 
17.2290 19.9879 35.3250 
17.2510 20.7237 35.3205 
18.0340 21.4006 35.9640 
18.0570 22.1348 35.9595 
18.0790 22.8690 35.9550 
18.1010 23.6033 35.9506 
18.1230 24.3375 35.9461 
18.1460 25.0717 35.9416 
18.1680 25.8059 35.9371 
18.1900 26.5401 35.9327 
18.2130 27.2743 35.9282 
18.2350 28.0085 35.9237 
18.2570 28.7427 35.9192 
18.2800 29.4770 35.9148 
18.3020 30.2112 35.9103 
18.3240 30.9454 35.9058 
18.3470 31.6796 35.9013 
18.3690 32.4138 35.8969 
18.3910 33.1480 35.8924 
18.4140 33.8822 35.8879 
18.4360 34.6165 35.8834 
18.4580 35.3507 35.8790 
18.4810 36.0849 35.8745 
18.5030 36.8191 35.8700 
18.5250 37.5533 35.8655 
18.5470 38.2875 35.8611 
18.5700 39.0217 35.8566 
18.5920 39.7560 35.8521 
18.6140 40.4902 35.8476 
18.6370 41.2244 35.8432 
17.9000 42.0621 35.1905 
17.9220 42.7979 35.1860 
17.9450 43.5337 35.1815 
17.9670 44.2695 35.1771 
17.9890 45.0053 35.1726 
18.0120 45.7411 35.1681 
18.0340 46.4770 35.1636 
18.0560 47.2128 35.1591 
18.0790 47.9486 35.1546 
18.1010 48.6844 35.1501 
18.1230 49.4202 35.1457 
18.1460 50.1560 35.1412 
18.1680 50.8918 35.1367 
17.4320 51.7518 34.4839 
17.4540 52.4892 34.4794 
17.4770 53.2266 34.4749 
17.4990 53.9640 34.4704 
17.5220 54.7014 34.4659 
17.5440 55.4388 34.4614 
17.5660 56.1762 34.4569 
17.5890 56.9136 34.4524 
17.6110 57.6510 34.4479 
17.6340 58.3884 34.4434 
16.8980 59.2659 33.7905 
16.9200 60.0049 33.7860 
16.9430 60.7439 33.7815 
16.9650 61.4829 33.7770 
16.9880 62.2219 33.7725 
17.0100 62.9609 33.7680 
17.0330 63.6999 33.7635 
16.2970 64.5902 33.1105 
16.3200 65.3308 33.1060 
16.3420 66.0714 33.1015 
16.3650 66.8119 33.0969 
16.3870 67.5525 33.0924 
16.4100 68.2931 33.0879 
16.4320 69.0337 33.0834 
16.4550 69.7743 33.0789 
15.7200 70.6789 32.4258 
15.7420 71.4211 32.4213 
15.7650 72.1632 32.4168 
15.7870 72.9054 32.4122 
15.8100 73.6480 32.4077 
15.8330 74.3900 32.4032 
15.8550 75.1320 32.3987 
15.1210 76.0490 31.7455 
15.1430 76.7930 31.7410 
14.4090 77.7150 31.0878 
13.6740 78.6410 30.4346 
12.9400 79.5690 29.7813 
12.2060 80.5010 29.1281 
10.7150 81.6200 27.8261 
9.22400 82.7460 26.5241 
8.49103 83.6910 25.8708 
7.00000 84.8280 24.5687 
5.51001 85.9710 23.2666 
4.77698 86.9290 22.6132 
4.04401 87.8890 21.9597 
3.31000 88.8530 21.3063 
0.606018 8.86210 20.5495 
2.15002 9.56930 21.8428 
3.69397 10.2702 23.1361 
5.99902 10.9297 25.0785 
8.30298 11.5796 27.0210 
9.84601 12.2582 28.3145 
12.1500 12.8906 30.2571 
14.4530 13.5135 32.1997 
15.9960 14.1697 33.4933 
16.0180 14.9087 33.4888 
16.8010 15.6016 34.1334 
17.5830 16.2912 34.7780 
17.6060 17.0271 34.7735 
17.6280 17.7629 34.7690 
17.6500 18.4987 34.7645 
17.6730 19.2345 34.7601 
17.6950 19.9703 34.7556 
18.4770 20.6488 35.4002 
18.4990 21.3830 35.3958 
18.5220 22.1172 35.3913 
18.5440 22.8514 35.3868 
18.5660 23.5857 35.3824 
18.5890 24.3199 35.3779 
18.6110 25.0541 35.3734 
18.6330 25.7883 35.3689 
18.6560 26.5225 35.3645 
18.6780 27.2567 35.3600 
18.7000 27.9909 35.3555 
18.7230 28.7251 35.3510 
18.7450 29.4594 35.3466 
18.0080 30.2716 34.6928 
18.0310 31.0074 34.6883 
18.0530 31.7432 34.6838 
18.0750 32.4790 34.6794 
18.0980 33.2148 34.6749 
18.1200 33.9506 34.6704 
18.1420 34.6864 34.6659 
18.1650 35.4222 34.6614 
18.1870 36.1580 34.6569 
18.2090 36.8938 34.6525 
18.2320 37.6296 34.6480 
18.2540 38.3654 34.6435 
18.2770 39.1012 34.6390 
18.2990 39.8371 34.6345 
18.3210 40.5729 34.6300 
18.3440 41.3087 34.6256 
18.3660 42.0445 34.6211 
18.3880 42.7803 34.6166 
18.4110 43.5161 34.6121 
18.4330 44.2519 34.6076 
18.4550 44.9877 34.6031 
18.4780 45.7235 34.5987 
18.5000 46.4593 34.5942 
18.5230 47.1951 34.5897 
17.7870 48.0471 33.9357 
17.8090 48.7845 33.9312 
17.8320 49.5219 33.9267 
17.8540 50.2593 33.9222 
17.8770 50.9967 33.9177 
17.8990 51.7341 33.9132 
17.9210 52.4715 33.9087 
17.9440 53.2089 33.9042 
17.9660 53.9463 33.8997 
17.9890 54.6837 33.8952 
18.0110 55.4211 33.8907 
17.2760 56.2923 33.2366 
17.2990 57.0313 33.2321 
17.3210 57.7702 33.2276 
17.3440 58.5092 33.2231 
17.3660 59.2482 33.2186 
17.3880 59.9872 33.2141 
17.4110 60.7262 33.2096 
16.6760 61.6101 32.5554 
16.6990 62.3507 32.5509 
16.7210 63.0913 32.5464 
16.7440 63.8318 32.5419 
16.7660 64.5724 32.5374 
16.7890 65.3130 32.5328 
16.8110 66.0536 32.5283 
16.8340 66.7942 32.5238 
16.1000 67.6924 31.8695 
16.1220 68.4346 31.8650 
16.1450 69.1767 31.8605 
16.1670 69.9189 31.8560 
16.1900 70.6611 31.8515 
16.2130 71.4033 31.8469 
16.2350 72.1454 31.8424 
16.2580 72.8876 31.8379 
15.5240 73.8000 31.1835 
15.5470 74.5440 31.1790 
15.5690 75.2880 31.1745 
15.5920 76.0310 31.1699 
14.8580 76.9520 30.5155 
14.8810 77.6970 30.5110 
14.1480 78.6230 29.8565 
12.6590 79.7330 28.5521 
11.9250 80.6660 27.8976 
11.1920 81.6020 27.2431 
8.94800 82.9150 25.2887 
8.21503 83.8600 24.6341 
6.72699 84.9990 23.3296 
5.23901 86.1440 22.0250 
4.50702 87.1030 21.3703 
3.77399 88.0650 20.7157 
3.04199 89.0300 20.0610 
1.07098 8.07280 19.9576 
1.85400 8.81340 20.6032 
2.63599 9.55090 21.2487 
4.17902 10.2519 22.5445 
6.47998 10.9115 24.4906 
14.9230 13.4957 31.6253 
16.4640 14.1520 32.9214 
17.2460 14.8465 33.5672 
17.2680 15.5839 33.5627 
18.0490 16.2736 34.2086 
18.0720 17.0094 34.2041 
18.0940 17.7452 34.1996 
18.1170 18.4810 34.1951 
18.1390 19.2168 34.1906 
18.1610 19.9526 34.1861 
18.1840 20.6884 34.1817 
18.2060 21.4243 34.1772 
18.2280 22.1601 34.1727 
18.2510 22.8959 34.1682 
18.2730 23.6317 34.1637 
18.2950 24.3675 34.1593 
18.3180 25.1033 34.1548 
18.3400 25.8391 34.1503 
18.3630 26.5749 34.1458 
18.3850 27.3107 34.1413 
18.4070 28.0465 34.1368 
18.4300 28.7823 34.1323 
18.4520 29.5181 34.1279 
18.4740 30.2539 34.1234 
18.4970 30.9897 34.1189 
18.5190 31.7255 34.1144 
18.5420 32.4613 34.1099 
18.5640 33.1972 34.1054 
18.5860 33.9330 34.1010 
18.6090 34.6688 34.0965 
17.8730 35.4937 33.4414 
17.8960 36.2311 33.4369 
17.9180 36.9685 33.4324 
17.9400 37.7059 33.4279 
17.9630 38.4433 33.4234 
17.9850 39.1807 33.4189 
18.0080 39.9181 33.4144 
18.0300 40.6555 33.4099 
18.0530 41.3929 33.4054 
18.0750 42.1303 33.4010 
18.0970 42.8677 33.3965 
18.1200 43.6051 33.3920 
18.1420 44.3425 33.3875 
18.1650 45.0799 33.3830 
18.1870 45.8173 33.3785 
18.2090 46.5547 33.3740 
18.2320 47.2921 33.3695 
18.2540 48.0295 33.3650 
18.2770 48.7669 33.3605 
18.2990 49.5043 33.3560 
18.3210 50.2417 33.3515 
18.3440 50.9791 33.3470 
18.3660 51.7165 33.3425 
18.3890 52.4539 33.3380 
17.6550 53.3186 32.6827 
17.6770 54.0576 32.6782 
17.7000 54.7966 32.6737 
17.7220 55.5356 32.6692 
17.7440 56.2745 32.6647 
17.7670 57.0135 32.6602 
17.7890 57.7525 32.6557 
17.0560 58.6300 32.0003 
17.0780 59.3706 31.9958 
17.1010 60.1112 31.9913 
17.1230 60.8517 31.9868 
17.1460 61.5923 31.9823 
17.1680 62.3329 31.9778 
17.1910 63.0735 31.9732 
16.4570 63.9637 31.3178 
16.4800 64.7059 31.3133 
16.5020 65.4481 31.3087 
16.5250 66.1902 31.3042 
16.5480 66.9324 31.2997 
16.5700 67.6746 31.2952 
16.5930 68.4168 31.2907 
16.6150 69.1589 31.2861 
16.6380 69.9011 31.2816 
15.9050 70.8073 30.6261 
15.9270 71.5510 30.6215 
15.9500 72.2948 30.6170 
15.9730 73.0390 30.6125 
15.9950 73.7820 30.6079 
16.0180 74.5260 30.6034 
16.0410 75.2700 30.5989 
15.3080 76.1890 29.9432 
15.3310 76.9340 29.9387 
14.5980 77.8580 29.2830 
13.8660 78.7850 28.6273 
13.1340 79.7150 27.9716 
11.6470 80.8310 26.6647 
10.9150 81.7690 26.0090 
9.42798 82.8960 24.7020 
7.94202 84.0300 23.3950 
6.45599 85.1700 22.0880 
4.96997 86.3170 20.7809 
4.23798 87.2770 20.1250 
4.26202 88.0460 20.1204 
3.53101 89.0110 19.4644 
1.51202 6.51260 19.3705 
1.53601 7.28340 19.3658 
2.31799 8.02570 20.0126 
2.34100 8.79500 20.0079 
3.12299 9.53250 20.6546 
4.66302 10.2335 21.9529 
6.96100 10.8932 23.9027 
10.7990 12.2221 27.1510 
15.3940 13.4779 31.0510 
16.9320 14.1343 32.3495 
17.7130 14.8288 32.9966 
17.7350 15.5662 32.9921 
18.5160 16.2560 33.6391 
18.5380 16.9918 33.6347 
18.5600 17.7276 33.6302 
18.5830 18.4634 33.6257 
18.6050 19.1992 33.6212 
18.6280 19.9350 33.6167 
18.6500 20.6708 33.6122 
18.6720 21.4066 33.6077 
18.6950 22.1424 33.6033 
18.7170 22.8782 33.5988 
18.7390 23.6140 33.5943 
18.7620 24.3498 33.5898 
18.7840 25.0856 33.5853 
18.8060 25.8214 33.5808 
18.8290 26.5573 33.5764 
18.8510 27.2931 33.5719 
18.8740 28.0289 33.5674 
18.1390 28.8394 32.9112 
18.1610 29.5768 32.9067 
18.1840 30.3142 32.9022 
18.2060 31.0516 32.8977 
18.2280 31.7890 32.8932 
18.2510 32.5264 32.8887 
18.2730 33.2638 32.8842 
18.2960 34.0012 32.8797 
18.3180 34.7386 32.8752 
18.3400 35.4760 32.8707 
18.3630 36.2134 32.8662 
18.3850 36.9508 32.8617 
18.4080 37.6882 32.8573 
18.4300 38.4256 32.8528 
18.4530 39.1630 32.8483 
18.4750 39.9004 32.8438 
18.4970 40.6378 32.8393 
18.5200 41.3752 32.8348 
18.5420 42.1126 32.8303 
18.5650 42.8500 32.8258 
18.5870 43.5874 32.8213 
18.6090 44.3248 32.8168 
18.6320 45.0622 32.8123 
18.6540 45.7996 32.8078 
18.6770 46.5370 32.8033 
18.6990 47.2744 32.7988 
18.7210 48.0118 32.7943 
18.7440 48.7492 32.7898 
18.7660 49.4866 32.7854 
18.0330 50.3449 32.1289 
18.0550 51.0839 32.1244 
18.0780 51.8229 32.1199 
18.1000 52.5619 32.1154 
18.1230 53.3009 32.1108 
18.1450 54.0399 32.1063 
18.1680 54.7788 32.1018 
18.1900 55.5178 32.0973 
17.4570 56.3905 31.4407 
17.4800 57.1311 31.4362 
17.5020 57.8717 31.4317 
17.5250 58.6122 31.4272 
17.5470 59.3528 31.4227 
17.5700 60.0934 31.4182 
16.8370 60.9772 30.7615 
16.8600 61.7194 30.7570 
16.8820 62.4616 30.7525 
16.9050 63.2037 30.7480 
16.9270 63.9459 30.7434 
16.9500 64.6881 30.7389 
16.9730 65.4303 30.7344 
16.2400 66.3268 30.0777 
16.2630 67.0706 30.0731 
16.2860 67.8144 30.0686 
16.3080 68.5581 30.0641 
16.3310 69.3019 30.0595 
16.3540 70.0457 30.0550 
16.3760 70.7894 30.0505 
16.3990 71.5332 30.0459 
16.4210 72.2770 30.0414 
15.6900 73.1890 29.3846 
15.7120 73.9350 29.3800 
15.7350 74.6800 29.3755 
15.7580 75.4260 29.3709 
15.7800 76.1710 29.3664 
15.0490 77.0930 28.7095 
15.0720 77.8400 28.7049 
13.5860 78.9470 27.3957 
12.8550 79.8780 26.7387 
12.1240 80.8130 26.0817 
10.6400 81.9350 24.7723 
9.15503 83.0640 23.4629 
7.67102 84.2000 22.1534 
6.18597 85.3410 20.8439 
5.45599 86.2980 20.1868 
4.72601 87.2590 19.5297 
3.99597 88.2220 18.8726 
4.01898 88.9930 18.8679 
2.75800 6.46880 19.4266 
2.78198 7.23800 19.4219 
2.80499 8.00730 19.4172 
3.58600 8.74640 20.0652 
3.60901 9.51410 20.0606 
5.14697 10.2152 21.3613 
7.44299 10.8750 23.3148 
11.2750 12.2041 26.5692 
15.8640 13.4601 30.4766 
17.4010 14.1166 31.7776 
18.1800 14.8111 32.4259 
18.9600 15.5025 33.0742 
18.9820 16.2383 33.0697 
19.0040 16.9741 33.0652 
19.0270 17.7099 33.0607 
19.0490 18.4457 33.0563 
19.0710 19.1815 33.0518 
19.0940 19.9174 33.0473 
19.1160 20.6532 33.0428 
19.1380 21.3890 33.0383 
19.1610 22.1248 33.0338 
19.1830 22.8606 33.0294 
19.2060 23.5964 33.0249 
19.2280 24.3322 33.0204 
19.2500 25.0680 33.0159 
18.5160 25.8721 32.3585 
18.5390 26.6095 32.3540 
18.5610 27.3469 32.3495 
18.5840 28.0843 32.3450 
18.6060 28.8217 32.3405 
18.6280 29.5591 32.3360 
18.6510 30.2965 32.3315 
18.6730 31.0339 32.3270 
18.6960 31.7713 32.3225 
18.7180 32.5087 32.3180 
17.9850 33.3304 31.6605 
18.0070 34.0694 31.6560 
18.0300 34.8083 31.6515 
18.0520 35.5473 31.6470 
18.0740 36.2863 31.6425 
18.0970 37.0253 31.6380 
18.1190 37.7643 31.6335 
18.1420 38.5033 31.6290 
18.1640 39.2423 31.6245 
18.1870 39.9813 31.6200 
18.2090 40.7203 31.6155 
18.2320 41.4593 31.6110 
18.2540 42.1983 31.6065 
18.2770 42.9373 31.6020 
18.2990 43.6763 31.5975 
18.3220 44.4152 31.5930 
18.3440 45.1542 31.5885 
18.3660 45.8932 31.5840 
18.3890 46.6322 31.5795 
18.4110 47.3712 31.5750 
18.4340 48.1102 31.5705 
18.4560 48.8492 31.5660 
18.4790 49.5882 31.5615 
18.5010 50.3272 31.5570 
18.5240 51.0662 31.5525 
18.5460 51.8052 31.5480 
18.5690 52.5442 31.5435 
17.8370 53.4104 30.8857 
17.8590 54.1510 30.8811 
17.8820 54.8916 30.8766 
17.9040 55.6321 30.8721 
17.9270 56.3727 30.8676 
17.9490 57.1133 30.8631 
17.2170 57.9907 30.2052 
17.2400 58.7329 30.2007 
17.2620 59.4751 30.1962 
17.2850 60.2172 30.1917 
17.3080 60.9594 30.1872 
17.3300 61.7016 30.1826 
16.5990 62.5901 29.5247 
16.6210 63.3339 29.5202 
16.6440 64.0777 29.5157 
16.6670 64.8214 29.5111 
16.6890 65.5652 29.5066 
16.7120 66.3090 29.5021 
16.7340 67.0527 29.4975 
16.7570 67.7965 29.4930 
16.0260 68.6994 28.8350 
16.0490 69.4448 28.8304 
16.0710 70.1901 28.8259 
16.0940 70.9355 28.8214 
16.1170 71.6808 28.8168 
16.1390 72.4262 28.8123 
16.1620 73.1720 28.8077 
16.1850 73.9170 28.8032 
16.2070 74.6620 28.7986 
15.4770 75.5810 28.1405 
15.4990 76.3280 28.1360 
15.5220 77.0750 28.1314 
14.7920 78.0000 27.4733 
14.0620 78.9290 26.8151 
12.5790 80.0410 25.5033 
11.0960 81.1610 24.1915 
10.3660 82.1020 23.5333 
8.88397 83.2320 22.2214 
8.15399 84.1810 21.5631 
6.67200 85.3230 20.2511 
5.19000 86.4710 18.9391 
5.21301 87.2400 18.9344 
4.48401 88.2040 18.2760 
4.50800 88.9740 18.2713 
4.53101 89.7450 18.2666 
4.00201 6.42510 19.4852 
4.02600 7.19270 19.4805 
4.04901 7.96040 19.4758 
4.07202 8.72800 19.4711 
4.85199 9.46400 20.1204 
5.63202 10.1969 20.7697 
7.92401 10.8568 22.7269 
12.5080 12.1481 26.6414 
17.0900 13.4011 30.5562 
18.6250 14.0561 31.8597 
18.6470 14.7935 31.8552 
19.4260 15.4849 32.5048 
19.4480 16.2207 32.5003 
19.4710 16.9565 32.4958 
19.4930 17.6923 32.4913 
19.5150 18.4281 32.4868 
19.5380 19.1639 32.4823 
19.5600 19.8997 32.4779 
19.5820 20.6355 32.4734 
18.8490 21.4301 31.8148 
18.8720 22.1675 31.8103 
18.8940 22.9049 31.8058 
18.9160 23.6423 31.8013 
18.9390 24.3797 31.7968 
18.9610 25.1171 31.7923 
18.9840 25.8545 31.7878 
19.0060 26.5919 31.7833 
19.0280 27.3293 31.7788 
19.0510 28.0667 31.7743 
18.3180 28.8787 31.1157 
18.3410 29.6177 31.1112 
18.3630 30.3567 31.1067 
18.3850 31.0957 31.1021 
18.4080 31.8347 31.0976 
18.4300 32.5737 31.0931 
18.4530 33.3127 31.0886 
18.4750 34.0516 31.0841 
18.4980 34.7906 31.0796 
18.5200 35.5296 31.0751 
18.5430 36.2686 31.0706 
18.5650 37.0076 31.0661 
18.5880 37.7466 31.0616 
18.6100 38.4856 31.0571 
18.6330 39.2246 31.0526 
18.6550 39.9636 31.0481 
18.6770 40.7026 31.0436 
18.7000 41.4416 31.0391 
18.7220 42.1805 31.0346 
18.7450 42.9195 31.0301 
18.7670 43.6585 31.0256 
18.7900 44.3975 31.0211 
18.8120 45.1365 31.0166 
18.8350 45.8755 31.0121 
18.8570 46.6145 31.0076 
18.8800 47.3535 31.0031 
18.9020 48.0925 30.9986 
18.9250 48.8315 30.9941 
18.9470 49.5705 30.9896 
18.2160 50.4303 30.3306 
18.2380 51.1709 30.3261 
18.2610 51.9115 30.3216 
18.2830 52.6521 30.3170 
18.3060 53.3926 30.3125 
18.3280 54.1332 30.3080 
18.3510 54.8738 30.3035 
17.6200 55.7464 29.6445 
17.6420 56.4886 29.6399 
17.6650 57.2307 29.6354 
17.6880 57.9729 29.6309 
17.7100 58.7151 29.6264 
17.7330 59.4573 29.6218 
17.0020 60.3410 28.9627 
17.0250 61.0848 28.9582 
17.0470 61.8285 28.9537 
17.0700 62.5723 28.9491 
17.0930 63.3161 28.9446 
17.1150 64.0598 28.9401 
16.3850 64.9547 28.2809 
16.4080 65.7001 28.2763 
16.4300 66.4454 28.2718 
16.4530 67.1908 28.2672 
16.4760 67.9362 28.2627 
16.4980 68.6815 28.2581 
16.5210 69.4269 28.2536 
16.5440 70.1723 28.2491 
16.5660 70.9176 28.2445 
15.8360 71.8284 27.5852 
15.8590 72.5754 27.5807 
15.8820 73.3220 27.5761 
15.9050 74.0690 27.5716 
15.9270 74.8160 27.5670 
15.9500 75.5630 27.5625 
15.9730 76.3100 27.5579 
15.2430 77.2340 26.8986 
14.5140 78.1600 26.2392 
13.7850 79.0900 25.5798 
12.3040 80.2050 24.2655 
11.5750 81.1430 23.6060 
10.8460 82.0840 22.9466 
9.36603 83.2140 21.6322 
8.63702 84.1630 20.9727 
7.15698 85.3050 19.6582 
6.42902 86.2620 18.9987 
5.70099 87.2220 18.3391 
5.72400 87.9910 18.3344 
4.99597 88.9560 17.6748 
5.01898 89.7270 17.6701 
5.24402 6.38140 19.5462 
5.26801 7.14750 19.5415 
5.29102 7.91350 19.5369 
5.31403 8.67960 19.5322 
6.09302 9.41410 20.1827 
6.87097 10.1453 20.8332 
17.5590 13.3833 29.9831 
19.0920 14.0384 31.2890 
19.1150 14.7758 31.2846 
19.8920 15.4672 31.9353 
19.1590 16.2506 31.2756 
19.1820 16.9880 31.2711 
19.2040 17.7254 31.2666 
19.2270 18.4628 31.2621 
19.2490 19.2002 31.2576 
19.2710 19.9376 31.2531 
19.2940 20.6750 31.2486 
19.3160 21.4124 31.2441 
19.3390 22.1498 31.2396 
19.3610 22.8872 31.2351 
19.3840 23.6246 31.2306 
19.4060 24.3620 31.2261 
19.4280 25.0994 31.2216 
18.6960 25.9050 30.5618 
18.7190 26.6440 30.5573 
18.7410 27.3830 30.5528 
18.7640 28.1220 30.5483 
18.7860 28.8610 30.5438 
18.8090 29.6000 30.5393 
18.8310 30.3390 30.5348 
18.8540 31.0780 30.5303 
18.1220 31.8979 29.8703 
18.1450 32.6385 29.8658 
18.1670 33.3791 29.8612 
18.1900 34.1197 29.8567 
18.2120 34.8603 29.8522 
18.2350 35.6009 29.8477 
18.2570 36.3414 29.8432 
18.2800 37.0820 29.8387 
18.3020 37.8226 29.8342 
18.3250 38.5632 29.8297 
18.3470 39.3038 29.8251 
18.3700 40.0444 29.8206 
18.3920 40.7850 29.8161 
18.4150 41.5255 29.8116 
18.4370 42.2661 29.8071 
18.4600 43.0067 29.8026 
18.4820 43.7473 29.7981 
18.5050 44.4879 29.7936 
18.5270 45.2285 29.7890 
18.5500 45.9690 29.7845 
18.5720 46.7096 29.7800 
18.5950 47.4502 29.7755 
18.6170 48.1908 29.7710 
18.6400 48.9314 29.7665 
18.6620 49.6720 29.7620 
18.6850 50.4125 29.7575 
18.7070 51.1531 29.7529 
18.7300 51.8937 29.7484 
18.0000 52.7599 29.0882 
18.0230 53.5021 29.0837 
18.0450 54.2442 29.0791 
18.0680 54.9864 29.0746 
18.0900 55.7286 29.0701 
18.1130 56.4708 29.0656 
18.1350 57.2129 29.0610 
17.4060 58.0918 28.4007 
17.4280 58.8356 28.3962 
17.4510 59.5794 28.3917 
17.4730 60.3232 28.3871 
17.4960 61.0669 28.3826 
16.7670 61.9554 27.7222 
16.7890 62.7008 27.7177 
16.8120 63.4461 27.7131 
16.8350 64.1915 27.7086 
16.8570 64.9368 27.7040 
16.8800 65.6822 27.6995 
16.1510 66.5818 27.0390 
16.1740 67.3288 27.0345 
16.1960 68.0757 27.0299 
16.2190 68.8227 27.0254 
16.2420 69.5696 27.0208 
16.2640 70.3166 27.0163 
16.2870 71.0635 27.0117 
16.3100 71.8105 27.0072 
16.3330 72.5574 27.0026 
16.3550 73.3040 26.9981 
15.6270 74.2220 26.3375 
15.6490 74.9700 26.3329 
15.6720 75.7190 26.3284 
15.6950 76.4670 26.3238 
14.9670 77.3920 25.6632 
14.2390 78.3210 25.0026 
13.5100 79.2520 24.3419 
12.7820 80.1870 23.6813 
12.0550 81.1250 23.0206 
10.5760 82.2500 21.7038 
9.84802 83.1960 21.0431 
9.12097 84.1450 20.3823 
7.64301 85.2860 19.0654 
6.91498 86.2430 18.4046 
6.18799 87.2030 17.7438 
6.21198 87.9730 17.7391 
6.23499 88.7420 17.7344 
6.25800 89.5110 17.7297 
5.72998 6.36300 18.9534 
5.75299 7.12910 18.9487 
5.77600 7.89520 18.9440 
6.55402 8.63130 19.5958 
7.33197 9.36420 20.2475 
8.10901 10.0939 20.8993 
13.4580 12.1121 25.4804 
15.7440 12.7436 27.4451 
17.2750 13.4067 28.7535 
18.8050 14.0634 30.0619 
19.5820 14.7581 30.7139 
19.6040 15.4955 30.7094 
19.6270 16.2329 30.7049 
19.6490 16.9703 30.7004 
19.6710 17.7077 30.6959 
19.6940 18.4451 30.6914 
19.7160 19.1825 30.6869 
19.7390 19.9199 30.6824 
19.7610 20.6573 30.6779 
19.7840 21.3947 30.6734 
19.8060 22.1321 30.6690 
19.0750 22.9313 30.0079 
19.0970 23.6703 30.0034 
19.1200 24.4093 29.9989 
19.1420 25.1483 29.9944 
19.1650 25.8873 29.9899 
19.1870 26.6263 29.9854 
19.2100 27.3653 29.9809 
18.4790 28.1773 29.3197 
18.5010 28.9178 29.3152 
18.5240 29.6584 29.3107 
18.5460 30.3990 29.3062 
18.5690 31.1396 29.3017 
18.5910 31.8802 29.2971 
18.6140 32.6208 29.2926 
18.6360 33.3614 29.2881 
18.6590 34.1019 29.2836 
17.9290 34.9298 28.6224 
17.9510 35.6720 28.6178 
17.9740 36.4142 28.6133 
17.9960 37.1564 28.6088 
18.0190 37.8986 28.6043 
18.0420 38.6407 28.5997 
18.0640 39.3829 28.5952 
18.0870 40.1251 28.5907 
18.1090 40.8673 28.5862 
18.1320 41.6094 28.5817 
18.1540 42.3516 28.5771 
18.1770 43.0938 28.5726 
18.9520 43.7295 29.2249 
18.9740 44.4701 29.2204 
18.9970 45.2107 29.2159 
19.0190 45.9513 29.2114 
19.0420 46.6919 29.2069 
19.0640 47.4325 29.2024 
18.3350 48.2890 28.5410 
18.3570 49.0312 28.5364 
18.3800 49.7734 28.5319 
18.4030 50.5156 28.5274 
18.4250 51.2577 28.5229 
18.4480 51.9999 28.5183 
18.4700 52.7421 28.5138 
18.4930 53.4843 28.5093 
18.5150 54.2264 28.5048 
17.7860 55.0989 27.8433 
17.8090 55.8427 27.8387 
17.8320 56.5865 27.8342 
17.8540 57.3302 27.8297 
17.8770 58.0740 27.8251 
17.1480 58.9561 27.1635 
17.1710 59.7014 27.1590 
17.1940 60.4468 27.1545 
17.2160 61.1922 27.1499 
17.2390 61.9375 27.1454 
17.2620 62.6829 27.1408 
16.5330 63.5761 26.4792 
16.5560 64.3230 26.4746 
16.5790 65.0700 26.4701 
16.6020 65.8169 26.4655 
16.6240 66.5639 26.4610 
16.6470 67.3109 26.4564 
15.9190 68.2152 25.7947 
15.9420 68.9638 25.7901 
15.9640 69.7123 25.7856 
15.9870 70.4609 25.7810 
16.0100 71.2094 25.7765 
16.0330 71.9580 25.7719 
16.0550 72.7065 25.7673 
16.0780 73.4550 25.7628 
16.1010 74.2040 25.7582 
15.3740 75.1240 25.0964 
15.3960 75.8740 25.0918 
15.4190 76.6240 25.0873 
15.4420 77.3740 25.0827 
14.7150 78.3030 24.4208 
13.9880 79.2340 23.7590 
12.5110 80.3500 22.4397 
11.7840 81.2890 21.7778 
11.0570 82.2320 21.1159 
10.3310 83.1780 20.4539 
9.60400 84.1270 19.7919 
8.87799 85.0790 19.1299 
7.40198 86.2250 17.8105 
7.42499 86.9920 17.8058 
7.44800 87.7600 17.8012 
7.47198 88.5280 17.7965 
7.49500 89.2950 17.7918 
6.96899 6.31950 19.0181 
6.99200 7.08400 19.0135 
7.01501 7.84850 19.0088 
7.79199 8.58300 19.6617 
8.56799 9.31430 20.3147 
9.34497 10.0425 20.9677 
10.8750 10.7327 22.2784 
12.4040 11.4166 23.5891 
17.7450 13.3889 28.1792 
18.5210 14.0884 28.8323 
19.2960 14.7847 29.4855 
19.3180 15.5237 29.4810 
19.3410 16.2627 29.4765 
19.3630 17.0017 29.4720 
19.3860 17.7407 29.4675 
19.4080 18.4797 29.4630 
19.4310 19.2187 29.4585 
19.4530 19.9576 29.4540 
19.4760 20.6966 29.4495 
19.4980 21.4356 29.4450 
19.5210 22.1746 29.4405 
19.5430 22.9136 29.4360 
19.5660 23.6526 29.4315 
19.5880 24.3916 29.4270 
18.8580 25.1972 28.7646 
18.8810 25.9378 28.7601 
18.9030 26.6783 28.7556 
18.9260 27.4189 28.7511 
18.9480 28.1595 28.7466 
18.9710 28.9001 28.7421 
18.9930 29.6407 28.7375 
18.2640 30.4590 28.0751 
18.2860 31.2012 28.0706 
18.3090 31.9433 28.0661 
18.3310 32.6855 28.0616 
18.3540 33.4277 28.0570 
18.3770 34.1699 28.0525 
18.3990 34.9120 28.0480 
18.4220 35.6542 28.0435 
18.4440 36.3964 28.0390 
18.4670 37.1386 28.0344 
18.4890 37.8808 28.0299 
18.5120 38.6229 28.0254 
18.5340 39.3651 28.0209 
18.5570 40.1073 28.0163 
18.5800 40.8495 28.0118 
18.6020 41.5916 28.0073 
18.6250 42.3338 28.0028 
18.6470 43.0760 27.9982 
18.6700 43.8182 27.9937 
18.6920 44.5603 27.9892 
18.7150 45.3025 27.9847 
18.7370 46.0447 27.9802 
18.7600 46.7869 27.9756 
18.7830 47.5291 27.9711 
18.8050 48.2712 27.9666 
18.8280 49.0134 27.9621 
18.8500 49.7556 27.9575 
18.8730 50.4978 27.9530 
18.8950 51.2399 27.9485 
18.1670 52.1060 27.2858 
18.1900 52.8498 27.2813 
18.2130 53.5936 27.2767 
18.2350 54.3373 27.2722 
18.2580 55.0811 27.2677 
18.2800 55.8249 27.2631 
17.5530 56.7021 26.6003 
17.5750 57.4475 26.5958 
17.5980 58.1928 26.5913 
17.6210 58.9382 26.5867 
17.6430 59.6836 26.5822 
16.9160 60.5704 25.9193 
16.9390 61.3173 25.9148 
16.9610 62.0643 25.9102 
16.9840 62.8112 25.9057 
17.0070 63.5582 25.9011 
17.0290 64.3051 25.8966 
16.3020 65.2031 25.2337 
16.3250 65.9516 25.2291 
16.3480 66.7002 25.2245 
16.3700 67.4487 25.2200 
16.3930 68.1973 25.2154 
16.4160 68.9458 25.2109 
16.4390 69.6944 25.2063 
15.7120 70.6050 24.5433 
15.7350 71.3552 24.5387 
15.7580 72.1053 24.5342 
15.7800 72.8555 24.5296 
15.8030 73.6060 24.5250 
15.8260 74.3560 24.5205 
15.8490 75.1060 24.5159 
15.8720 75.8560 24.5113 
15.1450 76.7810 23.8482 
15.1680 77.5330 23.8436 
14.4420 78.4630 23.1806 
13.7160 79.3960 22.5174 
12.9900 80.3320 21.8543 
12.2640 81.2710 21.1911 
11.5390 82.2140 20.5279 
10.8130 83.1590 19.8647 
10.0880 84.1080 19.2015 
9.36200 85.0600 18.5383 
8.63702 86.0160 17.8750 
8.65997 86.7820 17.8703 
7.93500 87.7420 17.2071 
8.70697 88.3140 17.8610 
7.98199 89.2770 17.1977 
8.00500 90.0450 17.1930 
8.18298 5.51320 19.0900 
