ply
format ascii 1.0
comment Created by CloudCompare v2.11 alpha (Anoia)
comment Created 17/05/2019 19:43
obj_info Generated by CloudCompare!
element vertex 1619
property float x
property float y
property float z
end_header
0.020093 0.003408 0.0210265 
0.020116 0.0041597 0.0210219 
0.020139 0.0049115 0.0210173 
0.020161 0.0056632 0.0210127 
0.020184 0.0064149 0.0210082 
0.020207 0.0071667 0.0210036 
0.02023 0.0079184 0.020999 
0.020253 0.0086701 0.0209944 
0.020276 0.0094219 0.0209898 
0.020299 0.0101736 0.0209852 
0.020321 0.0109253 0.0209807 
0.0196 0.011839 0.0203115 
0.019623 0.0125923 0.0203069 
0.019646 0.0133457 0.0203023 
0.019669 0.014099 0.0202977 
0.019691 0.014852 0.0202931 
0.019714 0.015606 0.0202886 
0.019737 0.016359 0.020284 
0.01976 0.017112 0.0202794 
0.019783 0.017866 0.0202748 
0.019806 0.018619 0.0202702 
0.019829 0.019372 0.0202656 
0.019852 0.020126 0.020261 
0.019875 0.020879 0.0202564 
0.019897 0.021632 0.0202518 
0.01992 0.022386 0.0202472 
0.019943 0.023139 0.0202426 
0.019966 0.023892 0.0202381 
0.019989 0.024646 0.0202335 
0.020012 0.025399 0.0202289 
0.020035 0.026152 0.0202243 
0.020058 0.026906 0.0202197 
0.020081 0.027659 0.0202151 
0.020104 0.028412 0.0202105 
0.020126 0.029166 0.0202059 
0.020149 0.029919 0.0202013 
0.020172 0.030672 0.0201967 
0.020195 0.031425 0.0201922 
0.020218 0.032179 0.0201876 
0.020241 0.032932 0.020183 
0.020264 0.033685 0.0201784 
0.020287 0.034439 0.0201738 
0.02031 0.035192 0.0201692 
0.020333 0.035945 0.0201646 
0.020355 0.036699 0.02016 
0.020378 0.037452 0.0201554 
0.020401 0.038205 0.0201508 
0.020424 0.038959 0.0201462 
0.020447 0.039712 0.0201417 
0.02047 0.040465 0.0201371 
0.020493 0.041219 0.0201325 
0.020516 0.041972 0.0201279 
0.020539 0.042725 0.0201233 
0.020562 0.043479 0.0201187 
0.019842 0.044462 0.0194491 
0.019865 0.045217 0.0194445 
0.019888 0.045972 0.0194399 
0.019911 0.046727 0.0194353 
0.019934 0.047482 0.0194307 
0.019957 0.048237 0.0194261 
0.01998 0.048992 0.0194215 
0.020003 0.049747 0.0194169 
0.020026 0.050502 0.0194123 
0.020049 0.051257 0.0194077 
0.020072 0.052012 0.0194031 
0.019353 0.053014 0.0187334 
0.019376 0.053771 0.0187288 
0.019399 0.054527 0.0187242 
0.019422 0.055284 0.0187196 
0.019445 0.056041 0.0187149 
0.019468 0.056797 0.0187103 
0.019491 0.057554 0.0187057 
0.019514 0.05831 0.0187011 
0.019537 0.059067 0.0186965 
0.01956 0.059823 0.0186919 
0.018841 0.060843 0.0180221 
0.018123 0.061867 0.0173522 
0.018146 0.062627 0.0173476 
0.017428 0.063655 0.0166778 
0.01671 0.064687 0.0160079 
0.015992 0.065721 0.015338 
0.020067 -0.0131481 0.0205455 
0.020089 -0.0123964 0.0205409 
0.020112 -0.0116447 0.0205363 
0.020135 -0.0108929 0.0205318 
0.020158 -0.0101412 0.0205272 
0.020181 -0.0093895 0.0205226 
0.020204 -0.0086377 0.020518 
0.020227 -0.007886 0.0205134 
0.019505 -0.0070122 0.0198433 
0.019528 -0.0062589 0.0198387 
0.019551 -0.0055055 0.0198341 
0.020318 -0.0048791 0.0204951 
0.020341 -0.0041273 0.0204905 
0.020364 -0.0033756 0.0204859 
0.020386 -0.0026239 0.0204814 
0.019665 -0.0017389 0.0198111 
0.019688 -0.000985603 0.0198066 
0.019711 -0.0002323 0.019802 
0.019734 0.000521103 0.0197974 
0.019757 0.0012744 0.0197928 
0.01978 0.0020277 0.0197882 
0.019802 0.0027811 0.0197836 
0.019825 0.0035344 0.019779 
0.019848 0.0042877 0.0197744 
0.019871 0.005041 0.0197698 
0.019894 0.0057943 0.0197652 
0.019917 0.0065477 0.0197606 
0.01994 0.007301 0.0197561 
0.019963 0.0080543 0.0197515 
0.019986 0.0088077 0.0197469 
0.020008 0.009561 0.0197423 
0.020031 0.0103143 0.0197377 
0.020054 0.0110676 0.0197331 
0.020077 0.011821 0.0197285 
0.0201 0.0125743 0.0197239 
0.020123 0.0133276 0.0197193 
0.020146 0.014081 0.0197147 
0.020169 0.014834 0.0197102 
0.020192 0.015588 0.0197056 
0.020215 0.016341 0.019701 
0.020237 0.017094 0.0196964 
0.02026 0.017848 0.0196918 
0.020283 0.018601 0.0196872 
0.020306 0.019354 0.0196826 
0.020329 0.020108 0.019678 
0.019609 0.021042 0.0190075 
0.019632 0.021797 0.0190029 
0.019655 0.022552 0.0189983 
0.020421 0.023121 0.0196597 
0.019701 0.024062 0.0189891 
0.019724 0.024816 0.0189845 
0.019747 0.025571 0.0189799 
0.01977 0.026326 0.0189753 
0.019793 0.027081 0.0189707 
0.019816 0.027836 0.0189661 
0.019839 0.028591 0.0189615 
0.019862 0.029346 0.0189569 
0.019884 0.030101 0.0189523 
0.019907 0.030856 0.0189477 
0.01993 0.031611 0.0189431 
0.019953 0.032366 0.0189385 
0.019976 0.033121 0.0189339 
0.019999 0.033875 0.0189293 
0.020022 0.03463 0.0189247 
0.020045 0.035385 0.0189201 
0.020068 0.03614 0.0189155 
0.020091 0.036895 0.0189109 
0.020114 0.03765 0.0189063 
0.020137 0.038405 0.0189017 
0.02016 0.03916 0.0188971 
0.020183 0.039915 0.0188925 
0.020206 0.04067 0.0188879 
0.020229 0.041425 0.0188833 
0.020252 0.04218 0.0188787 
0.020275 0.042935 0.0188741 
0.020297 0.043689 0.0188695 
0.02032 0.044444 0.0188649 
0.020343 0.045199 0.0188603 
0.020366 0.045954 0.0188557 
0.019648 0.046944 0.0181848 
0.019671 0.047701 0.0181802 
0.019694 0.048457 0.0181756 
0.019717 0.049214 0.018171 
0.01974 0.04997 0.0181664 
0.019763 0.050727 0.0181618 
0.019786 0.051483 0.0181572 
0.019809 0.05224 0.0181525 
0.019832 0.052996 0.0181479 
0.019855 0.053753 0.0181433 
0.019878 0.054509 0.0181387 
0.019901 0.055266 0.0181341 
0.019924 0.056022 0.0181295 
0.019947 0.056779 0.0181249 
0.01997 0.057535 0.0181203 
0.019253 0.058551 0.0174493 
0.019276 0.059309 0.0174446 
0.019299 0.060067 0.01744 
0.019322 0.060825 0.0174354 
0.018605 0.061849 0.0167643 
0.017887 0.062876 0.0160932 
0.01717 0.063905 0.0154221 
0.017194 0.064668 0.0154175 
0.015737 0.065975 0.0140798 
0.01206 0.068108 0.0107427 
0.020566 -0.0124144 0.0199592 
0.020589 -0.0116627 0.0199546 
0.020611 -0.010911 0.01995 
0.020634 -0.0101592 0.0199454 
0.019913 -0.0092902 0.0192741 
0.019936 -0.0085369 0.0192695 
0.019959 -0.0077836 0.0192649 
0.019982 -0.0070302 0.0192603 
0.020005 -0.0062769 0.0192557 
0.020028 -0.0055236 0.0192511 
0.020051 -0.0047703 0.0192465 
0.020074 -0.0040169 0.0192419 
0.020097 -0.0032636 0.0192373 
0.020119 -0.0025103 0.0192327 
0.020142 -0.001757 0.0192282 
0.020165 -0.0010036 0.0192236 
0.020188 -0.000250298 0.019219 
0.020211 0.000502998 0.0192144 
0.020234 0.0012563 0.0192098 
0.020257 0.0020097 0.0192052 
0.02028 0.002763 0.0192006 
0.020303 0.0035163 0.019196 
0.020326 0.0042696 0.0191914 
0.020348 0.005023 0.0191868 
0.020371 0.0057763 0.0191822 
0.020394 0.0065296 0.0191777 
0.019674 0.0074352 0.0185061 
0.019697 0.0081902 0.0185015 
0.01972 0.0089451 0.0184969 
0.019743 0.0097 0.0184923 
0.019766 0.0104549 0.0184877 
0.019789 0.0112098 0.0184831 
0.019812 0.0119648 0.0184785 
0.019835 0.0127197 0.0184739 
0.019858 0.0134746 0.0184693 
0.019881 0.01423 0.0184647 
0.019904 0.014984 0.0184601 
0.019927 0.015739 0.0184555 
0.01995 0.016494 0.0184509 
0.019973 0.017249 0.0184463 
0.019996 0.018004 0.0184417 
0.020019 0.018759 0.0184371 
0.020042 0.019514 0.0184325 
0.020064 0.020269 0.0184279 
0.020087 0.021024 0.0184233 
0.02011 0.021779 0.0184187 
0.020133 0.022534 0.0184141 
0.020156 0.023289 0.0184095 
0.020179 0.024043 0.0184049 
0.020202 0.024798 0.0184003 
0.020225 0.025553 0.0183957 
0.020248 0.026308 0.0183911 
0.020271 0.027063 0.0183865 
0.019553 0.028013 0.0177146 
0.019576 0.02877 0.01771 
0.019599 0.029526 0.0177054 
0.019622 0.030283 0.0177008 
0.019645 0.031039 0.0176962 
0.019668 0.031796 0.0176916 
0.019691 0.032552 0.0176869 
0.019714 0.033309 0.0176823 
0.019737 0.034065 0.0176777 
0.01976 0.034822 0.0176731 
0.019783 0.035578 0.0176685 
0.019806 0.036335 0.0176639 
0.019828 0.037091 0.0176593 
0.019852 0.037848 0.0176547 
0.019875 0.038605 0.0176501 
0.019898 0.039361 0.0176455 
0.019921 0.040118 0.0176408 
0.019943 0.040874 0.0176362 
0.019966 0.041631 0.0176316 
0.01999 0.042387 0.017627 
0.020013 0.043144 0.0176224 
0.020035 0.0439 0.0176178 
0.020058 0.044657 0.0176132 
0.020081 0.045413 0.0176086 
0.020104 0.04617 0.017604 
0.020128 0.046926 0.0175994 
0.02015 0.047683 0.0175947 
0.020173 0.048439 0.0175901 
0.020196 0.049196 0.0175855 
0.020219 0.049952 0.0175809 
0.020242 0.050709 0.0175763 
0.019526 0.05171 0.0169042 
0.019549 0.052468 0.0168995 
0.019572 0.053226 0.0168949 
0.019595 0.053984 0.0168903 
0.019618 0.054742 0.0168857 
0.019641 0.0555 0.0168811 
0.019664 0.056258 0.0168764 
0.019687 0.057017 0.0168718 
0.01971 0.057775 0.0168672 
0.019733 0.058533 0.0168626 
0.019756 0.059291 0.016858 
0.019779 0.060049 0.0168533 
0.019802 0.060807 0.0168487 
0.019086 0.061831 0.0161764 
0.01837 0.062857 0.0155041 
0.017654 0.063887 0.0148317 
0.017677 0.06465 0.0148271 
0.014744 0.0665 0.0121516 
0.011811 0.068363 0.00947593 
0.020322 -0.0115683 0.0187048 
0.020345 -0.0108149 0.0187003 
0.020368 -0.0100616 0.0186957 
0.020391 -0.0093083 0.0186911 
0.020414 -0.008555 0.0186865 
0.019694 -0.0076812 0.0180138 
0.019717 -0.0069263 0.0180092 
0.01974 -0.0061714 0.0180046 
0.019763 -0.0054165 0.018 
0.019786 -0.0046615 0.0179954 
0.019809 -0.0039066 0.0179908 
0.019831 -0.0031517 0.0179862 
0.019854 -0.0023968 0.0179816 
0.019877 -0.0016419 0.017977 
0.0199 -0.000886902 0.0179724 
0.019923 -0.000132004 0.0179678 
0.019946 0.000622902 0.0179632 
0.019969 0.0013778 0.0179586 
0.019992 0.0021327 0.017954 
0.020015 0.0028876 0.0179494 
0.020038 0.0036426 0.0179448 
0.020061 0.0043975 0.0179402 
0.020084 0.0051524 0.0179356 
0.020107 0.0059073 0.017931 
0.02013 0.0066622 0.0179264 
0.020153 0.0074172 0.0179218 
0.020176 0.0081721 0.0179172 
0.020199 0.008927 0.0179126 
0.020222 0.0096819 0.017908 
0.019503 0.0105955 0.0172352 
0.019526 0.011352 0.0172306 
0.019549 0.0121085 0.017226 
0.019572 0.012865 0.0172213 
0.019595 0.0136215 0.0172167 
0.019618 0.014378 0.0172121 
0.019641 0.015135 0.0172075 
0.019664 0.015891 0.0172029 
0.019687 0.016648 0.0171983 
0.01971 0.017404 0.0171937 
0.019733 0.018161 0.0171891 
0.019756 0.018917 0.0171845 
0.019779 0.019674 0.0171799 
0.019802 0.02043 0.0171753 
0.019825 0.021187 0.0171706 
0.019848 0.021943 0.017166 
0.019871 0.0227 0.0171614 
0.019894 0.023456 0.0171568 
0.019917 0.024213 0.0171522 
0.01994 0.024969 0.0171476 
0.019963 0.025726 0.017143 
0.019986 0.026482 0.0171384 
0.020009 0.027239 0.0171338 
0.020032 0.027995 0.0171292 
0.020055 0.028752 0.0171245 
0.020078 0.029508 0.0171199 
0.020101 0.030265 0.0171153 
0.020124 0.031021 0.0171107 
0.020147 0.031778 0.0171061 
0.02017 0.032534 0.0171015 
0.020193 0.033291 0.0170969 
0.020216 0.034047 0.0170923 
0.020239 0.034804 0.0170877 
0.020262 0.03556 0.0170831 
0.020285 0.036317 0.0170784 
0.020308 0.037073 0.0170738 
0.020331 0.03783 0.0170692 
0.020354 0.038586 0.0170646 
0.020377 0.039343 0.01706 
0.0204 0.040099 0.0170554 
0.020423 0.040856 0.0170508 
0.020446 0.041612 0.0170462 
0.020469 0.042369 0.0170416 
0.020492 0.043125 0.017037 
0.019776 0.044111 0.0163637 
0.019799 0.044869 0.016359 
0.019822 0.045627 0.0163544 
0.019845 0.046385 0.0163498 
0.019868 0.047143 0.0163452 
0.019891 0.047901 0.0163406 
0.019914 0.048659 0.0163359 
0.019937 0.049417 0.0163313 
0.01996 0.050175 0.0163267 
0.019983 0.050934 0.0163221 
0.020006 0.051692 0.0163175 
0.020029 0.05245 0.0163128 
0.020052 0.053208 0.0163082 
0.020075 0.053966 0.0163036 
0.020098 0.054724 0.016299 
0.020121 0.055482 0.0162944 
0.020144 0.05624 0.0162897 
0.020167 0.056998 0.0162851 
0.019452 0.058014 0.0156116 
0.019475 0.058774 0.015607 
0.019498 0.059533 0.0156024 
0.019521 0.060293 0.0155977 
0.019544 0.061053 0.0155931 
0.018829 0.062078 0.0149196 
0.018114 0.063106 0.014246 
0.018137 0.063869 0.0142413 
0.017422 0.064902 0.0135678 
0.015969 0.06621 0.0122252 
0.013779 0.067797 0.0102136 
0.010851 0.06967 0.00753301 
0.02008 -0.010719 0.017448 
0.020103 -0.0099641 0.0174434 
0.020126 -0.0092091 0.0174388 
0.020149 -0.0084542 0.0174342 
0.020172 -0.0076993 0.0174296 
0.019454 -0.0068224 0.0167558 
0.019477 -0.0060659 0.0167511 
0.0195 -0.0053094 0.0167465 
0.019523 -0.0045529 0.0167419 
0.019546 -0.0037964 0.0167373 
0.019568 -0.0030399 0.0167327 
0.019591 -0.0022833 0.0167281 
0.019615 -0.0015268 0.0167235 
0.019637 -0.000770302 0.0167189 
0.01966 -1.38016e-05 0.0167143 
0.019683 0.000742699 0.0167097 
0.019706 0.0014992 0.016705 
0.019729 0.0022557 0.0167004 
0.019752 0.0030122 0.0166958 
0.019775 0.0037687 0.0166912 
0.019798 0.0045252 0.0166866 
0.019821 0.0052818 0.016682 
0.019844 0.0060383 0.0166774 
0.019867 0.0067948 0.0166728 
0.01989 0.0075513 0.0166682 
0.019913 0.0083078 0.0166636 
0.019936 0.0090643 0.0166589 
0.019959 0.0098208 0.0166543 
0.019982 0.0105773 0.0166497 
0.020005 0.0113338 0.0166451 
0.020028 0.0120904 0.0166405 
0.020051 0.0128469 0.0166359 
0.020074 0.0136034 0.0166313 
0.020097 0.01436 0.0166267 
0.02012 0.015116 0.0166221 
0.020143 0.015873 0.0166175 
0.020166 0.016629 0.0166128 
0.020189 0.017386 0.0166082 
0.019472 0.018317 0.015934 
0.019495 0.019075 0.0159294 
0.019518 0.019833 0.0159248 
0.019542 0.020591 0.0159202 
0.019565 0.021349 0.0159156 
0.019588 0.022107 0.0159109 
0.019611 0.022866 0.0159063 
0.019634 0.023624 0.0159017 
0.019657 0.024382 0.0158971 
0.01968 0.02514 0.0158925 
0.019703 0.025898 0.0158878 
0.019726 0.026656 0.0158832 
0.019749 0.027414 0.0158786 
0.019772 0.028172 0.015874 
0.019795 0.02893 0.0158694 
0.019818 0.029689 0.0158647 
0.019841 0.030447 0.0158601 
0.019864 0.031205 0.0158555 
0.019887 0.031963 0.0158509 
0.01991 0.032721 0.0158463 
0.019933 0.033479 0.0158416 
0.019956 0.034237 0.015837 
0.019979 0.034995 0.0158324 
0.020002 0.035753 0.0158278 
0.020025 0.036511 0.0158232 
0.020048 0.03727 0.0158185 
0.020072 0.038028 0.0158139 
0.020095 0.038786 0.0158093 
0.020118 0.039544 0.0158047 
0.020141 0.040302 0.0158001 
0.020164 0.04106 0.0157954 
0.020187 0.041818 0.0157908 
0.02021 0.042576 0.0157862 
0.020233 0.043334 0.0157816 
0.020256 0.044092 0.015777 
0.020279 0.044851 0.0157724 
0.020302 0.045609 0.0157677 
0.020325 0.046367 0.0157631 
0.020348 0.047125 0.0157585 
0.020371 0.047883 0.0157539 
0.020394 0.048641 0.0157493 
0.020417 0.049399 0.0157446 
0.019702 0.050399 0.01507 
0.019725 0.051158 0.0150654 
0.019748 0.051918 0.0150607 
0.019772 0.052678 0.0150561 
0.019795 0.053438 0.0150515 
0.019818 0.054197 0.0150469 
0.019841 0.054957 0.0150422 
0.019864 0.055717 0.0150376 
0.019887 0.056476 0.015033 
0.01991 0.057236 0.0150283 
0.019933 0.057996 0.0150237 
0.019956 0.058755 0.0150191 
0.019979 0.059515 0.0150144 
0.020002 0.060275 0.0150098 
0.019288 0.061298 0.0143351 
0.019311 0.06206 0.0143304 
0.018597 0.063088 0.0136556 
0.017883 0.064119 0.0129808 
0.017907 0.064884 0.0129761 
0.017193 0.06592 0.0123013 
0.015005 0.067506 0.010286 
0.012081 0.069376 0.0076005 
0.020559 -0.0107371 0.0168638 
0.020582 -0.0099822 0.0168592 
0.019864 -0.0091101 0.0161841 
0.019887 -0.0083536 0.0161795 
0.01991 -0.0075971 0.0161749 
0.019933 -0.0068405 0.0161703 
0.019956 -0.006084 0.0161657 
0.019979 -0.0053275 0.0161611 
0.020002 -0.004571 0.0161565 
0.020025 -0.0038145 0.0161519 
0.020048 -0.003058 0.0161472 
0.020071 -0.0023015 0.0161426 
0.020094 -0.001545 0.016138 
0.020117 -0.000788498 0.0161334 
0.02014 -3.19977e-05 0.0161288 
0.020163 0.000724602 0.0161242 
0.020186 0.0014811 0.0161196 
0.020209 0.0022376 0.016115 
0.020232 0.0029941 0.0161104 
0.020255 0.0037506 0.0161058 
0.020278 0.0045071 0.0161011 
0.020301 0.0052636 0.0160965 
0.020324 0.0060201 0.0160919 
0.020347 0.0067766 0.0160873 
0.02037 0.0075331 0.0160827 
0.020393 0.0082897 0.0160781 
0.020416 0.0090462 0.0160735 
0.019699 0.0099597 0.0153982 
0.019722 0.0107178 0.0153935 
0.019745 0.0114759 0.0153889 
0.019768 0.012234 0.0153843 
0.019791 0.0129921 0.0153797 
0.019815 0.0137502 0.0153751 
0.019838 0.014508 0.0153704 
0.019861 0.015266 0.0153658 
0.019884 0.016024 0.0153612 
0.019907 0.016783 0.0153566 
0.01993 0.017541 0.015352 
0.019953 0.018299 0.0153473 
0.019976 0.019057 0.0153427 
0.019999 0.019815 0.0153381 
0.020022 0.020573 0.0153335 
0.020045 0.021331 0.0153289 
0.020068 0.022089 0.0153243 
0.020091 0.022847 0.0153196 
0.020114 0.023606 0.015315 
0.020137 0.024364 0.0153104 
0.02016 0.025122 0.0153058 
0.020183 0.02588 0.0153012 
0.020206 0.026638 0.0152965 
0.020229 0.027396 0.0152919 
0.020252 0.028154 0.0152873 
0.020275 0.028912 0.0152827 
0.020298 0.02967 0.0152781 
0.020321 0.030428 0.0152734 
0.020344 0.031187 0.0152688 
0.020367 0.031945 0.0152642 
0.020391 0.032703 0.0152596 
0.020414 0.033461 0.015255 
0.020437 0.034219 0.0152503 
0.02046 0.034977 0.0152457 
0.020483 0.035735 0.0152411 
0.020506 0.036493 0.0152365 
0.020529 0.037251 0.0152319 
0.020552 0.038009 0.0152272 
0.020575 0.038768 0.0152226 
0.020598 0.039526 0.015218 
0.020621 0.040284 0.0152134 
0.019907 0.041264 0.0145376 
0.01993 0.042024 0.014533 
0.019953 0.042784 0.0145284 
0.019976 0.043543 0.0145237 
0.019999 0.044303 0.0145191 
0.020022 0.045063 0.0145145 
0.020045 0.045822 0.0145099 
0.020068 0.046582 0.0145052 
0.020091 0.047342 0.0145006 
0.020114 0.048101 0.014496 
0.020137 0.048861 0.0144913 
0.020161 0.049621 0.0144867 
0.020184 0.050381 0.0144821 
0.020207 0.05114 0.0144774 
0.02023 0.0519 0.0144728 
0.020253 0.05266 0.0144682 
0.019539 0.053667 0.0137923 
0.019562 0.054428 0.0137877 
0.019586 0.05519 0.013783 
0.019609 0.055951 0.0137784 
0.019632 0.056712 0.0137737 
0.019655 0.057474 0.0137691 
0.019678 0.058235 0.0137645 
0.019701 0.058996 0.0137598 
0.019724 0.059757 0.0137552 
0.019747 0.060519 0.0137505 
0.019771 0.06128 0.0137459 
0.019057 0.062307 0.0130699 
0.019081 0.063069 0.0130652 
0.019104 0.063832 0.0130606 
0.018391 0.064865 0.0123845 
0.017678 0.065901 0.0117084 
0.015494 0.067487 0.00968948 
0.011837 0.069632 0.00632759 
0.02032 -0.0098847 0.0156033 
0.020343 -0.0091282 0.0155987 
0.020366 -0.0083717 0.0155941 
0.020389 -0.0076152 0.0155895 
0.019673 -0.0067368 0.0149131 
0.019696 -0.0059787 0.0149085 
0.020458 -0.0053457 0.0155756 
0.019742 -0.0044625 0.0148993 
0.019765 -0.0037044 0.0148946 
0.019788 -0.0029463 0.01489 
0.019811 -0.0021882 0.0148854 
0.019834 -0.0014301 0.0148808 
0.019857 -0.000671997 0.0148762 
0.01988 8.60977e-05 0.0148715 
0.019903 0.0008442 0.0148669 
0.019926 0.0016023 0.0148623 
0.019949 0.0023605 0.0148577 
0.019972 0.0031186 0.0148531 
0.019995 0.0038767 0.0148484 
0.020018 0.0046348 0.0148438 
0.020041 0.0053929 0.0148392 
0.020064 0.006151 0.0148346 
0.020087 0.0069091 0.01483 
0.02011 0.0076672 0.0148253 
0.020134 0.0084253 0.0148207 
0.020157 0.0091834 0.0148161 
0.02018 0.0099415 0.0148115 
0.020203 0.0106996 0.0148069 
0.020226 0.0114577 0.0148022 
0.020249 0.0122158 0.0147976 
0.020272 0.0129739 0.014793 
0.020295 0.013732 0.0147884 
0.020318 0.01449 0.0147838 
0.020341 0.015248 0.0147791 
0.019626 0.016176 0.0141025 
0.019649 0.016936 0.0140978 
0.019672 0.017695 0.0140932 
0.019695 0.018455 0.0140886 
0.019718 0.019215 0.014084 
0.019741 0.019974 0.0140793 
0.019764 0.020734 0.0140747 
0.019787 0.021494 0.0140701 
0.019811 0.022254 0.0140654 
0.019834 0.023013 0.0140608 
0.019857 0.023773 0.0140562 
0.01988 0.024533 0.0140516 
0.019903 0.025292 0.0140469 
0.019926 0.026052 0.0140423 
0.019949 0.026812 0.0140377 
0.019972 0.027571 0.014033 
0.019995 0.028331 0.0140284 
0.020018 0.029091 0.0140238 
0.020042 0.029851 0.0140191 
0.020065 0.03061 0.0140145 
0.020088 0.03137 0.0140099 
0.020111 0.03213 0.0140053 
0.020134 0.032889 0.0140006 
0.020157 0.033649 0.013996 
0.02018 0.034409 0.0139914 
0.020203 0.035168 0.0139867 
0.020226 0.035928 0.0139821 
0.020249 0.036688 0.0139775 
0.020272 0.037447 0.0139729 
0.020296 0.038207 0.0139682 
0.020319 0.038967 0.0139636 
0.020342 0.039727 0.013959 
0.020365 0.040486 0.0139543 
0.020388 0.041246 0.0139497 
0.020411 0.042006 0.0139451 
0.020434 0.042765 0.0139404 
0.020457 0.043525 0.0139358 
0.02048 0.044285 0.0139312 
0.020503 0.045044 0.0139266 
0.01979 0.046036 0.0132495 
0.019813 0.046797 0.0132449 
0.019836 0.047559 0.0132403 
0.01986 0.04832 0.0132356 
0.019883 0.049081 0.013231 
0.019906 0.049842 0.0132263 
0.019929 0.050604 0.0132217 
0.019952 0.051365 0.0132171 
0.019975 0.052126 0.0132124 
0.019998 0.052888 0.0132078 
0.020022 0.053649 0.0132031 
0.020045 0.05441 0.0131985 
0.020068 0.055171 0.0131939 
0.020091 0.055933 0.0131892 
0.020114 0.056694 0.0131846 
0.020137 0.057455 0.0131799 
0.02016 0.058217 0.0131753 
0.020184 0.058978 0.0131707 
0.020207 0.059739 0.013166 
0.02023 0.0605 0.0131614 
0.019518 0.061525 0.0124841 
0.019541 0.062288 0.0124795 
0.019564 0.063051 0.0124748 
0.018852 0.064082 0.0117976 
0.018875 0.064847 0.0117929 
0.018164 0.065883 0.0111156 
0.016717 0.067195 0.0097656 
0.013066 0.069339 0.00639754 
0.020084 -0.0090293 0.0143403 
0.020107 -0.0082712 0.0143357 
0.02013 -0.0075131 0.014331 
0.020153 -0.006755 0.0143264 
0.020176 -0.0059969 0.0143218 
0.020199 -0.0052388 0.0143172 
0.020222 -0.0044807 0.0143126 
0.020245 -0.0037225 0.0143079 
0.020268 -0.0029644 0.0143033 
0.020291 -0.0022063 0.0142987 
0.020314 -0.0014482 0.0142941 
0.020337 -0.000690102 0.0142895 
0.02036 6.80008e-05 0.0142848 
0.020383 0.000826103 0.0142802 
0.019668 0.0017236 0.0136025 
0.019692 0.0024833 0.0135979 
0.019715 0.003243 0.0135933 
0.019738 0.0040026 0.0135886 
0.020499 0.0046166 0.0142571 
0.019784 0.005522 0.0135794 
0.019807 0.0062817 0.0135747 
0.020568 0.0068909 0.0142433 
0.020591 0.007649 0.0142386 
0.020614 0.0084071 0.014234 
0.020637 0.0091652 0.0142294 
0.019922 0.0100802 0.0135516 
0.019946 0.0108399 0.013547 
0.019969 0.0115996 0.0135423 
0.019992 0.0123593 0.0135377 
0.020015 0.013119 0.0135331 
0.020038 0.0138787 0.0135284 
0.020061 0.014638 0.0135238 
0.020084 0.015398 0.0135192 
0.020107 0.016158 0.0135146 
0.02013 0.016917 0.0135099 
0.020153 0.017677 0.0135053 
0.020176 0.018437 0.0135007 
0.019463 0.019373 0.0128227 
0.019486 0.020134 0.0128181 
0.019509 0.020895 0.0128135 
0.019532 0.021656 0.0128088 
0.019555 0.022418 0.0128042 
0.019578 0.023179 0.0127995 
0.019602 0.02394 0.0127949 
0.019625 0.024702 0.0127903 
0.019648 0.025463 0.0127856 
0.019671 0.026224 0.012781 
0.019694 0.026985 0.0127764 
0.019717 0.027747 0.0127717 
0.01974 0.028508 0.0127671 
0.019763 0.029269 0.0127624 
0.019787 0.030031 0.0127578 
0.01981 0.030792 0.0127532 
0.019833 0.031553 0.0127485 
0.019856 0.032314 0.0127439 
0.019879 0.033076 0.0127392 
0.019902 0.033837 0.0127346 
0.019925 0.034598 0.01273 
0.019949 0.03536 0.0127253 
0.019972 0.036121 0.0127207 
0.019995 0.036882 0.012716 
0.020018 0.037644 0.0127114 
0.020041 0.038405 0.0127068 
0.020064 0.039166 0.0127021 
0.020087 0.039927 0.0126975 
0.020111 0.040689 0.0126929 
0.020134 0.04145 0.0126882 
0.020157 0.042211 0.0126836 
0.02018 0.042973 0.0126789 
0.020203 0.043734 0.0126743 
0.020226 0.044495 0.0126697 
0.020249 0.045256 0.012665 
0.020273 0.046018 0.0126604 
0.020296 0.046779 0.0126557 
0.020319 0.04754 0.0126511 
0.020342 0.048302 0.0126465 
0.020365 0.049063 0.0126418 
0.019653 0.050064 0.0119635 
0.019677 0.050827 0.0119588 
0.0197 0.05159 0.0119542 
0.019723 0.052352 0.0119495 
0.019746 0.053115 0.0119449 
0.019769 0.053878 0.0119402 
0.019792 0.054641 0.0119356 
0.019816 0.055404 0.0119309 
0.019839 0.056167 0.0119263 
0.019862 0.05693 0.0119216 
0.019885 0.057693 0.011917 
0.019908 0.058456 0.0119123 
0.019932 0.059218 0.0119077 
0.019955 0.059981 0.011903 
0.019978 0.060744 0.0118984 
0.020001 0.061507 0.0118937 
0.020024 0.06227 0.0118891 
0.019313 0.0633 0.0112106 
0.019337 0.064064 0.0112059 
0.018626 0.065099 0.0105274 
0.018649 0.065865 0.0105227 
0.017938 0.066904 0.00984418 
0.01576 0.068496 0.00781779 
0.018374 -0.0079334 0.0117264 
0.019135 -0.0072908 0.012396 
0.019896 -0.0066513 0.0130655 
0.019919 -0.0058916 0.0130609 
0.02068 -0.0052569 0.0137305 
0.019965 -0.0043722 0.0130516 
0.019988 -0.0036125 0.013047 
0.020011 -0.0028528 0.0130424 
0.020034 -0.0020931 0.0130377 
0.020057 -0.0013334 0.0130331 
0.020081 -0.0005737 0.0130285 
0.020104 0.000185898 0.0130239 
0.020127 0.000945602 0.0130192 
0.02015 0.0017053 0.0130146 
0.020173 0.002465 0.01301 
0.020196 0.0032247 0.0130053 
0.020219 0.0039844 0.0130007 
0.020242 0.0047441 0.0129961 
0.020265 0.0055038 0.0129914 
0.020288 0.0062635 0.0129868 
0.020311 0.0070232 0.0129822 
0.020335 0.0077829 0.0129776 
0.020358 0.0085426 0.0129729 
0.020381 0.0093023 0.0129683 
0.020404 0.010062 0.0129637 
0.020427 0.0108217 0.012959 
0.02045 0.0115814 0.0129544 
0.020473 0.0123411 0.0129498 
0.020496 0.0131008 0.0129452 
0.020519 0.0138605 0.0129405 
0.019806 0.014787 0.0122614 
0.019829 0.015548 0.0122568 
0.019853 0.016309 0.0122521 
0.019876 0.01707 0.0122475 
0.019899 0.017832 0.0122429 
0.019922 0.018593 0.0122382 
0.019945 0.019354 0.0122336 
0.019968 0.020116 0.012229 
0.019991 0.020877 0.0122243 
0.020014 0.021638 0.0122197 
0.020038 0.022399 0.012215 
0.020061 0.023161 0.0122104 
0.020084 0.023922 0.0122058 
0.020107 0.024683 0.0122011 
0.02013 0.025445 0.0121965 
0.020153 0.026206 0.0121918 
0.020176 0.026967 0.0121872 
0.0202 0.027729 0.0121826 
0.020223 0.02849 0.0121779 
0.020246 0.029251 0.0121733 
0.020269 0.030012 0.0121686 
0.020292 0.030774 0.012164 
0.020315 0.031535 0.0121594 
0.020338 0.032296 0.0121547 
0.020362 0.033058 0.0121501 
0.020385 0.033819 0.0121454 
0.020408 0.03458 0.0121408 
0.020431 0.035341 0.0121362 
0.020454 0.036103 0.0121315 
0.020477 0.036864 0.0121269 
0.0205 0.037625 0.0121223 
0.020524 0.038387 0.0121176 
0.020547 0.039148 0.012113 
0.02057 0.039909 0.0121083 
0.019858 0.040891 0.0114289 
0.019882 0.041654 0.0114242 
0.019905 0.042417 0.0114196 
0.019928 0.04318 0.0114149 
0.019951 0.043943 0.0114103 
0.019974 0.044705 0.0114056 
0.019998 0.045468 0.011401 
0.020021 0.046231 0.0113963 
0.020044 0.046994 0.0113917 
0.020067 0.047757 0.011387 
0.02009 0.04852 0.0113824 
0.020113 0.049283 0.0113777 
0.020137 0.050046 0.0113731 
0.02016 0.050808 0.0113684 
0.020183 0.051571 0.0113638 
0.020206 0.052334 0.0113591 
0.020229 0.053097 0.0113545 
0.019519 0.054108 0.0106749 
0.019542 0.054872 0.0106702 
0.019565 0.055637 0.0106656 
0.019589 0.056401 0.0106609 
0.019612 0.057165 0.0106563 
0.019635 0.05793 0.0106516 
0.019658 0.058694 0.0106469 
0.019682 0.059459 0.0106423 
0.019705 0.060223 0.0106376 
0.019728 0.060988 0.010633 
0.019751 0.061752 0.0106283 
0.019774 0.062517 0.0106236 
0.019798 0.063281 0.010619 
0.019821 0.064046 0.0106143 
0.019111 0.06508 0.00993455 
0.019134 0.065846 0.00992988 
0.018425 0.066885 0.00925009 
0.01625 0.068477 0.00722001 
0.012609 0.070631 0.00383957 
0.018144 -0.0070686 0.0104559 
0.018904 -0.006426 0.0111267 
0.019664 -0.0057865 0.0117975 
0.020423 -0.0051501 0.0124683 
0.020446 -0.0043904 0.0124637 
0.019733 -0.0035026 0.0117836 
0.019756 -0.0027413 0.011779 
0.01978 -0.00198 0.0117743 
0.019803 -0.0012187 0.0117697 
0.019826 -0.000457397 0.0117651 
0.019849 0.000303902 0.0117604 
0.019872 0.0010651 0.0117558 
0.019895 0.0018264 0.0117511 
0.019918 0.0025877 0.0117465 
0.019942 0.003349 0.0117419 
0.019965 0.0041103 0.0117372 
0.019988 0.0048716 0.0117326 
0.020011 0.0056329 0.0117279 
0.020034 0.0063942 0.0117233 
0.020057 0.0071555 0.0117187 
0.02008 0.0079167 0.011714 
0.020103 0.008678 0.0117094 
0.020127 0.0094393 0.0117047 
0.02015 0.0102006 0.0117001 
0.020173 0.0109619 0.0116955 
0.020196 0.0117232 0.0116908 
0.020219 0.0124845 0.0116862 
0.020242 0.0132458 0.0116816 
0.020265 0.014007 0.0116769 
0.020289 0.014768 0.0116723 
0.020312 0.01553 0.0116676 
0.020335 0.016291 0.011663 
0.019623 0.017223 0.0109826 
0.019646 0.017986 0.010978 
0.019669 0.018749 0.0109733 
0.019693 0.019512 0.0109687 
0.019716 0.020275 0.010964 
0.019739 0.021038 0.0109594 
0.019762 0.021801 0.0109547 
0.019785 0.022564 0.0109501 
0.019808 0.023326 0.0109454 
0.019832 0.024089 0.0109408 
0.019855 0.024852 0.0109361 
0.019878 0.025615 0.0109315 
0.019901 0.026378 0.0109268 
0.019924 0.027141 0.0109222 
0.019948 0.027904 0.0109175 
0.019971 0.028667 0.0109129 
0.019994 0.029429 0.0109082 
0.020017 0.030192 0.0109036 
0.02004 0.030955 0.0108989 
0.020064 0.031718 0.0108943 
0.020087 0.032481 0.0108896 
0.02011 0.033244 0.010885 
0.020133 0.034007 0.0108803 
0.020156 0.03477 0.0108757 
0.02018 0.035533 0.010871 
0.020203 0.036295 0.0108664 
0.020226 0.037058 0.0108617 
0.020249 0.037821 0.0108571 
0.020272 0.038584 0.0108524 
0.020295 0.039347 0.0108478 
0.020319 0.04011 0.0108431 
0.020342 0.040873 0.0108385 
0.020365 0.041636 0.0108338 
0.020388 0.042398 0.0108292 
0.020411 0.043161 0.0108245 
0.020435 0.043924 0.0108199 
0.020458 0.044687 0.0108152 
0.019748 0.04568 0.0101345 
0.019771 0.046445 0.0101299 
0.019794 0.047209 0.0101252 
0.019817 0.047973 0.0101205 
0.019841 0.048738 0.0101159 
0.019864 0.049502 0.0101112 
0.019887 0.050267 0.0101066 
0.01991 0.051031 0.0101019 
0.019934 0.051796 0.0100972 
0.019957 0.05256 0.0100926 
0.01998 0.053325 0.0100879 
0.020003 0.054089 0.0100833 
0.020027 0.054854 0.0100786 
0.02005 0.055618 0.0100739 
0.020073 0.056383 0.0100693 
0.020096 0.057147 0.0100646 
0.02012 0.057912 0.01006 
0.020143 0.058676 0.0100553 
0.020166 0.059441 0.0100507 
0.020189 0.060205 0.010046 
0.020212 0.06097 0.0100413 
0.020236 0.061734 0.0100367 
0.020259 0.062498 0.010032 
0.020282 0.063263 0.0100274 
0.019573 0.064296 0.00934636 
0.019597 0.065062 0.0093417 
0.01962 0.065828 0.00933703 
0.018911 0.066867 0.00865601 
0.018203 0.067909 0.00797497 
0.014567 0.07006 0.00458837 
0.017158 -0.0068467 0.008511 
0.018652 -0.0063225 0.00985967 
0.019411 -0.0056814 0.0105317 
0.020169 -0.0050434 0.0112037 
0.020192 -0.0042821 0.0111991 
0.020216 -0.0035208 0.0111945 
0.020239 -0.0027596 0.0111898 
0.020262 -0.0019983 0.0111852 
0.020285 -0.001237 0.0111805 
0.020308 -0.0004757 0.0111759 
0.020331 0.000285599 0.0111713 
0.020354 0.0010469 0.0111666 
0.020378 0.0018082 0.011162 
0.020401 0.0025695 0.0111573 
0.020424 0.0033308 0.0111527 
0.020447 0.004092 0.0111481 
0.02047 0.0048533 0.0111434 
0.020493 0.0056146 0.0111388 
0.020516 0.0063759 0.0111342 
0.02054 0.0071372 0.0111295 
0.020563 0.0078985 0.0111249 
0.020586 0.0086598 0.0111202 
0.020609 0.0094211 0.0111156 
0.020632 0.0101824 0.011111 
0.020655 0.0109436 0.0111063 
0.020678 0.0117049 0.0111017 
0.019967 0.0126278 0.0104201 
0.01999 0.0133907 0.0104155 
0.020014 0.014154 0.0104108 
0.020037 0.014916 0.0104062 
0.02006 0.015679 0.0104015 
0.020083 0.016442 0.0103969 
0.020106 0.017205 0.0103922 
0.02013 0.017968 0.0103876 
0.020153 0.018731 0.0103829 
0.020176 0.019494 0.0103783 
0.020199 0.020257 0.0103736 
0.019489 0.021199 0.00969197 
0.019512 0.021963 0.00968731 
0.019535 0.022728 0.00968265 
0.019558 0.023492 0.00967799 
0.019581 0.024256 0.00967333 
0.019605 0.025021 0.00966867 
0.019628 0.025785 0.00966401 
0.019651 0.02655 0.00965935 
0.019674 0.027314 0.0096547 
0.019698 0.028079 0.00965004 
0.019721 0.028843 0.00964538 
0.019744 0.029608 0.00964072 
0.019767 0.030372 0.00963606 
0.019791 0.031137 0.0096314 
0.019814 0.031901 0.00962675 
0.02057 0.032463 0.0102992 
0.020593 0.033226 0.0102946 
0.020616 0.033988 0.0102899 
0.019907 0.034959 0.00960811 
0.01993 0.035724 0.00960345 
0.019953 0.036488 0.00959879 
0.019977 0.037253 0.00959414 
0.02 0.038017 0.00958948 
0.020023 0.038781 0.00958482 
0.020046 0.039546 0.00958016 
0.020069 0.04031 0.0095755 
0.020093 0.041075 0.00957084 
0.020116 0.041839 0.00956618 
0.020139 0.042604 0.00956153 
0.020162 0.043368 0.00955687 
0.020186 0.044133 0.00955221 
0.020209 0.044897 0.00954755 
0.020232 0.045662 0.00954289 
0.020255 0.046426 0.00953823 
0.020279 0.047191 0.00953358 
0.020302 0.047955 0.00952892 
0.020325 0.04872 0.00952426 
0.020348 0.049484 0.0095196 
0.020372 0.050249 0.00951494 
0.019663 0.051254 0.00883287 
0.019686 0.05202 0.00882821 
0.019709 0.052786 0.00882354 
0.019733 0.053552 0.00881887 
0.019756 0.054319 0.0088142 
0.019779 0.055085 0.00880953 
0.019803 0.055851 0.00880486 
0.019826 0.056617 0.0088002 
0.019849 0.057383 0.00879553 
0.019872 0.058149 0.00879086 
0.019896 0.058915 0.00878619 
0.019919 0.059681 0.00878152 
0.019942 0.060447 0.00877685 
0.019966 0.061213 0.00877219 
0.019989 0.061979 0.00876752 
0.020012 0.062745 0.00876285 
0.020035 0.063511 0.00875818 
0.020059 0.064277 0.00875351 
0.020082 0.065043 0.00874885 
0.019374 0.066081 0.0080666 
0.019398 0.066849 0.00806192 
0.017228 0.06844 0.00602444 
0.015059 0.070041 0.00398689 
0.011429 0.072208 0.000594046 
0.017667 -0.0060974 0.00791224 
0.018425 -0.005453 0.00858547 
0.019917 -0.0049368 0.00993665 
0.01994 -0.0041739 0.009932 
0.019964 -0.003411 0.00992735 
0.020721 -0.0027778 0.0106007 
0.02001 -0.0018852 0.00991805 
0.020033 -0.0011224 0.0099134 
0.020056 -0.000359497 0.00990876 
0.02008 0.000403397 0.00990411 
0.020103 0.0011663 0.00989946 
0.020126 0.0019292 0.00989481 
0.020149 0.002692 0.00989016 
0.020172 0.0034549 0.00988551 
0.020196 0.0042178 0.00988086 
0.020219 0.0049807 0.00987621 
0.020242 0.0057436 0.00987156 
0.020265 0.0065065 0.00986692 
0.020288 0.0072693 0.00986227 
0.020311 0.0080322 0.00985762 
0.020335 0.0087951 0.00985297 
0.020358 0.009558 0.00984832 
0.020381 0.0103209 0.00984367 
0.020404 0.0110837 0.00983902 
0.020427 0.0118466 0.00983438 
0.020451 0.0126095 0.00982973 
0.020474 0.0133724 0.00982508 
0.020497 0.014135 0.00982043 
0.02052 0.014898 0.00981578 
0.01981 0.015829 0.00913296 
0.019833 0.016593 0.0091283 
0.019857 0.017358 0.00912364 
0.01988 0.018122 0.00911898 
0.019903 0.018887 0.00911432 
0.019926 0.019651 0.00910966 
0.01995 0.020416 0.009105 
0.019973 0.02118 0.00910035 
0.019996 0.021945 0.00909569 
0.020019 0.022709 0.00909103 
0.020043 0.023474 0.00908637 
0.020066 0.024238 0.00908171 
0.020089 0.025003 0.00907705 
0.020112 0.025767 0.0090724 
0.020136 0.026532 0.00906774 
0.020159 0.027296 0.00906308 
0.020182 0.028061 0.00905842 
0.020205 0.028825 0.00905376 
0.020229 0.029589 0.0090491 
0.020252 0.030354 0.00904444 
0.020275 0.031118 0.00903979 
0.020298 0.031883 0.00903513 
0.020321 0.032647 0.00903047 
0.020345 0.033412 0.00902581 
0.020368 0.034176 0.00902115 
0.020391 0.034941 0.00901649 
0.020414 0.035705 0.00901184 
0.020438 0.03647 0.00900718 
0.020461 0.037234 0.00900252 
0.020484 0.037999 0.00899786 
0.020507 0.038763 0.0089932 
0.020531 0.039528 0.00898854 
0.020554 0.040292 0.00898388 
0.020577 0.041057 0.00897923 
0.019869 0.042043 0.00829604 
0.019892 0.042809 0.00829137 
0.019915 0.043575 0.0082867 
0.019939 0.044341 0.00828204 
0.019962 0.045107 0.00827737 
0.019985 0.045873 0.0082727 
0.020008 0.046639 0.00826803 
0.020032 0.047406 0.00826336 
0.020055 0.048172 0.00825869 
0.020078 0.048938 0.00825403 
0.020102 0.049704 0.00824936 
0.020125 0.05047 0.00824469 
0.020148 0.051236 0.00824002 
0.020172 0.052002 0.00823535 
0.020195 0.052768 0.00823069 
0.019487 0.05378 0.00754737 
0.019511 0.054548 0.00754269 
0.019534 0.055315 0.00753801 
0.019557 0.056083 0.00753333 
0.019581 0.056851 0.00752865 
0.019604 0.057618 0.00752398 
0.019627 0.058386 0.0075193 
0.019651 0.059154 0.00751462 
0.019674 0.059921 0.00750994 
0.019697 0.060689 0.00750527 
0.019721 0.061457 0.00750059 
0.019744 0.062224 0.00749591 
0.019767 0.062992 0.00749123 
0.019791 0.06376 0.00748655 
0.019814 0.064527 0.00748188 
0.019837 0.065295 0.0074772 
0.019861 0.066063 0.00747252 
0.019154 0.067103 0.00678902 
0.017718 0.068422 0.00542666 
0.014822 0.070299 0.00270657 
0.012656 0.071911 0.000665269 
0.018177 -0.0053482 0.00731348 
0.018934 -0.0047054 0.00798795 
0.019691 -0.0040657 0.00866246 
0.020447 -0.0034293 0.00933697 
0.02047 -0.0026664 0.00933232 
0.020493 -0.0019035 0.00932767 
0.020517 -0.0011406 0.00932302 
0.02054 -0.0003778 0.00931837 
0.020563 0.000385101 0.00931372 
0.020586 0.001148 0.00930907 
0.020609 0.0019109 0.00930442 
0.020633 0.0026738 0.00929978 
0.020656 0.0034366 0.00929513 
0.020679 0.0041995 0.00929048 
0.020702 0.0049624 0.00928583 
0.020725 0.0057253 0.00928118 
0.020748 0.0064882 0.00927653 
0.020772 0.007251 0.00927188 
0.020795 0.0080139 0.00926723 
0.020818 0.0087768 0.00926258 
0.020841 0.0095397 0.00925794 
0.020132 0.0104593 0.00857395 
0.020155 0.0112237 0.00856929 
0.020178 0.0119882 0.00856463 
0.020202 0.0127527 0.00855997 
0.020225 0.0135172 0.00855531 
0.020248 0.014282 0.00855065 
0.020271 0.015046 0.008546 
0.020295 0.015811 0.00854134 
0.020318 0.016575 0.00853668 
0.020341 0.01734 0.00853202 
0.020364 0.018104 0.00852736 
0.019656 0.019043 0.00784324 
0.019679 0.019809 0.00783857 
0.019702 0.020575 0.0078339 
0.019726 0.021341 0.00782923 
0.019749 0.022107 0.00782456 
0.019772 0.022873 0.00781989 
0.019795 0.023639 0.00781523 
0.019819 0.024405 0.00781056 
0.019842 0.025171 0.00780589 
0.019865 0.025937 0.00780122 
0.019889 0.026703 0.00779655 
0.019912 0.027469 0.00779189 
0.019935 0.028236 0.00778722 
0.019958 0.029002 0.00778255 
0.019982 0.029768 0.00777788 
0.020005 0.030534 0.00777321 
0.020028 0.0313 0.00776854 
0.020052 0.032066 0.00776388 
0.020075 0.032832 0.00775921 
0.020098 0.033598 0.00775454 
0.020121 0.034364 0.00774987 
0.020145 0.03513 0.0077452 
0.020168 0.035896 0.00774054 
0.020191 0.036662 0.00773587 
0.020214 0.037428 0.0077312 
0.020238 0.038194 0.00772653 
0.020261 0.03896 0.00772186 
0.020284 0.039727 0.00771719 
0.020308 0.040493 0.00771253 
0.020331 0.041259 0.00770786 
0.020354 0.042025 0.00770319 
0.020378 0.042791 0.00769852 
0.01967 0.043782 0.0070141 
0.019694 0.04455 0.00700942 
0.019717 0.045317 0.00700474 
0.01974 0.046085 0.00700006 
0.019764 0.046853 0.00699538 
0.019787 0.04762 0.00699071 
0.01981 0.048388 0.00698603 
0.019834 0.049156 0.00698135 
0.019857 0.049923 0.00697667 
0.01988 0.050691 0.00697199 
0.019904 0.051459 0.00696732 
0.019927 0.052226 0.00696264 
0.01995 0.052994 0.00695796 
0.019974 0.053762 0.00695328 
0.019997 0.054529 0.0069486 
0.02002 0.055297 0.00694393 
0.020044 0.056065 0.00693925 
0.020067 0.056832 0.00693457 
0.02009 0.0576 0.00692989 
0.020114 0.058368 0.00692522 
0.020137 0.059135 0.00692054 
0.02016 0.059903 0.00691586 
0.020184 0.060671 0.00691118 
0.020207 0.061438 0.0069065 
0.02023 0.062206 0.00690183 
0.020254 0.062974 0.00689715 
0.020277 0.063741 0.00689247 
0.0203 0.064509 0.00688779 
0.019595 0.065546 0.00620308 
0.019618 0.066316 0.0061984 
0.018913 0.067358 0.00551364 
0.017478 0.068678 0.0041488 
0.014587 0.070556 0.00142379 
0.014978 -0.0055261 0.00332224 
0.017199 -0.0051201 0.00535864 
0.017954 -0.0044741 0.00603434 
0.019443 -0.0039576 0.00739043 
0.020198 -0.0033196 0.00806618 
0.020221 -0.0025551 0.00806152 
0.020245 -0.0017906 0.00805686 
0.020268 -0.0010262 0.00805221 
0.020291 -0.000261703 0.00804755 
0.020314 0.0005028 0.00804289 
0.020338 0.0012673 0.00803823 
0.020361 0.0020317 0.00803357 
0.020384 0.0027962 0.00802891 
0.020407 0.0035607 0.00802425 
0.020431 0.0043251 0.0080196 
0.020454 0.0050896 0.00801494 
0.020477 0.0058541 0.00801028 
0.0205 0.0066186 0.00800562 
0.020523 0.007383 0.00800096 
0.020547 0.0081475 0.0079963 
0.02057 0.008912 0.00799164 
0.020593 0.0096765 0.00798699 
0.020616 0.0104409 0.00798233 
0.02064 0.0112054 0.00797767 
0.020663 0.0119699 0.00797301 
0.020686 0.0127344 0.00796835 
0.019978 0.0136619 0.00728306 
0.020001 0.014428 0.00727839 
0.020025 0.015194 0.00727373 
0.020048 0.01596 0.00726906 
0.020071 0.016726 0.00726439 
0.020095 0.017492 0.00725972 
0.020118 0.018258 0.00725505 
0.020141 0.019024 0.00725038 
0.020164 0.01979 0.00724572 
0.020188 0.020556 0.00724105 
0.020211 0.021323 0.00723638 
0.020234 0.022089 0.00723171 
0.020258 0.022855 0.00722704 
0.01955 0.023805 0.00654164 
0.019574 0.024572 0.00653696 
0.019597 0.02534 0.00653228 
0.01962 0.026107 0.0065276 
0.019644 0.026875 0.00652292 
0.019667 0.027643 0.00651825 
0.01969 0.02841 0.00651357 
0.019714 0.029178 0.00650889 
0.019737 0.029946 0.00650421 
0.01976 0.030713 0.00649954 
0.019784 0.031481 0.00649486 
0.019807 0.032249 0.00649018 
0.01983 0.033016 0.0064855 
0.019854 0.033784 0.00648082 
0.019877 0.034552 0.00647615 
0.0199 0.035319 0.00647147 
0.019924 0.036087 0.00646679 
0.019947 0.036855 0.00646211 
0.01997 0.037622 0.00645743 
0.019994 0.03839 0.00645276 
0.020017 0.039158 0.00644808 
0.02004 0.039925 0.0064434 
0.020064 0.040693 0.00643872 
0.020087 0.041461 0.00643404 
0.02011 0.042228 0.00642937 
0.020133 0.042996 0.00642469 
0.020157 0.043764 0.00642001 
0.02018 0.044531 0.00641533 
0.020204 0.045299 0.00641066 
0.020227 0.046067 0.00640598 
0.02025 0.046834 0.0064013 
0.020273 0.047602 0.00639662 
0.020297 0.04837 0.00639194 
0.02032 0.049137 0.00638727 
0.020344 0.049905 0.00638259 
0.020367 0.050673 0.00637791 
0.019661 0.051681 0.00569214 
0.019685 0.052451 0.00568746 
0.019708 0.05322 0.00568277 
0.019731 0.053989 0.00567808 
0.019755 0.054758 0.00567339 
0.019778 0.055528 0.00566871 
0.019802 0.056297 0.00566402 
0.019825 0.057066 0.00565933 
0.019848 0.057835 0.00565464 
0.019872 0.058605 0.00564996 
0.019895 0.059374 0.00564527 
0.019919 0.060143 0.00564058 
0.019942 0.060912 0.00563589 
0.019965 0.061682 0.00563121 
0.019989 0.062451 0.00562652 
0.020012 0.06322 0.00562183 
0.020035 0.063989 0.00561714 
0.020059 0.064759 0.00561246 
0.019354 0.065798 0.00492648 
0.019378 0.066568 0.00492179 
0.017945 0.067885 0.00355451 
0.016513 0.069208 0.00218719 
0.014353 0.070814 0.000138528 
0.017711 -0.0043677 0.00475739 
0.019197 -0.0038496 0.00611596 
0.01922 -0.003082 0.00611128 
0.019975 -0.0024439 0.00678824 
0.019998 -0.0016778 0.00678357 
0.020021 -0.000911697 0.00677891 
0.020044 -0.000145699 0.00677424 
0.020068 0.000620399 0.00676957 
0.020091 0.0013865 0.0067649 
0.020114 0.0021525 0.00676023 
0.020138 0.0029186 0.00675557 
0.020161 0.0036846 0.0067509 
0.020184 0.0044507 0.00674623 
0.020207 0.0052168 0.00674156 
0.020231 0.0059829 0.00673689 
0.020254 0.0067489 0.00673222 
0.020277 0.007515 0.00672756 
0.020301 0.008281 0.00672289 
0.020324 0.0090471 0.00671822 
0.020347 0.0098132 0.00671355 
0.02037 0.0105793 0.00670888 
0.020394 0.0113453 0.00670422 
0.020417 0.0121114 0.00669955 
0.02044 0.0128774 0.00669488 
0.020464 0.0136435 0.00669021 
0.020487 0.01441 0.00668554 
0.02051 0.015176 0.00668087 
0.019803 0.016109 0.00599433 
0.019827 0.016877 0.00598966 
0.01985 0.017645 0.00598498 
0.019873 0.018412 0.0059803 
0.019897 0.01918 0.00597562 
0.01992 0.019948 0.00597094 
0.019943 0.020715 0.00596627 
0.019967 0.021483 0.00596159 
0.01999 0.022251 0.00595691 
0.020013 0.023018 0.00595223 
0.020037 0.023786 0.00594755 
0.02006 0.024554 0.00594288 
0.020083 0.025321 0.0059382 
0.020107 0.026089 0.00593352 
0.02013 0.026857 0.00592884 
0.020153 0.027624 0.00592416 
0.020177 0.028392 0.00591949 
0.0202 0.02916 0.00591481 
0.020223 0.029927 0.00591013 
0.020247 0.030695 0.00590545 
0.02027 0.031463 0.00590077 
0.020293 0.03223 0.0058961 
0.020317 0.032998 0.00589142 
0.02034 0.033766 0.00588674 
0.020363 0.034533 0.00588206 
0.020387 0.035301 0.00587739 
0.02041 0.036069 0.00587271 
0.020433 0.036836 0.00586803 
0.020457 0.037604 0.00586335 
0.02048 0.038372 0.00585867 
0.020503 0.039139 0.005854 
0.020527 0.039907 0.00584932 
0.02055 0.040675 0.00584464 
0.019845 0.041663 0.00515777 
0.019868 0.042432 0.00515308 
0.019892 0.043201 0.00514839 
0.019915 0.04397 0.00514371 
0.019938 0.04474 0.00513902 
0.019962 0.045509 0.00513433 
0.019985 0.046278 0.00512964 
0.020008 0.047047 0.00512496 
0.020032 0.047817 0.00512027 
0.020055 0.048586 0.00511558 
0.020079 0.049355 0.00511089 
0.020102 0.050124 0.0051062 
0.020125 0.050894 0.00510152 
0.020149 0.051663 0.00509683 
0.020172 0.052432 0.00509214 
0.020196 0.053201 0.00508745 
0.020219 0.053971 0.00508277 
0.020242 0.05474 0.00507808 
0.020266 0.055509 0.00507339 
0.020289 0.056278 0.0050687 
0.020312 0.057048 0.00506402 
0.020336 0.057817 0.00505933 
0.020359 0.058586 0.00505464 
0.020383 0.059355 0.00504995 
0.020406 0.060125 0.00504527 
0.020429 0.060894 0.00504058 
0.020453 0.061663 0.00503589 
0.020476 0.062432 0.0050312 
0.020499 0.063202 0.00502652 
0.019796 0.064237 0.00433933 
0.019819 0.065008 0.00433463 
0.019116 0.066049 0.00364744 
0.018412 0.067093 0.00296021 
0.017709 0.06814 0.00227298 
0.016279 0.069464 0.000903185 
0.016738 -0.0041367 0.00279513 
0.018222 -0.0036154 0.00415615 
0.018976 -0.0029725 0.00483433 
0.01973 -0.0023327 0.00551252 
0.019753 -0.0015651 0.00550784 
0.019776 -0.000797401 0.00550316 
0.0198 -2.98004e-05 0.00549848 
0.019823 0.0007379 0.00549381 
0.020576 0.0013681 0.00617205 
0.0206 0.0021341 0.00616738 
0.020623 0.0029002 0.00616271 
0.020646 0.0036663 0.00615805 
0.020669 0.0044324 0.00615338 
0.020693 0.0051984 0.00614871 
0.020716 0.0059645 0.00614404 
0.020739 0.0067306 0.00613937 
0.020763 0.0074966 0.0061347 
0.020786 0.0082627 0.00613004 
0.02008 0.0091822 0.00544235 
0.020103 0.0099498 0.00543767 
0.020126 0.0107175 0.00543299 
0.02015 0.0114851 0.00542832 
0.020173 0.0122528 0.00542364 
0.020196 0.0130205 0.00541896 
0.02022 0.0137881 0.00541428 
0.020243 0.014556 0.0054096 
0.020266 0.015323 0.00540493 
0.02029 0.016091 0.00540025 
0.020313 0.016859 0.00539557 
0.020336 0.017626 0.00539089 
0.02036 0.018394 0.00538621 
0.020383 0.019162 0.00538154 
0.020406 0.019929 0.00537686 
0.019701 0.020874 0.00468902 
0.019724 0.021644 0.00468433 
0.019748 0.022413 0.00467964 
0.019771 0.023182 0.00467495 
0.019794 0.023951 0.00467027 
0.019818 0.024721 0.00466558 
0.019841 0.02549 0.00466089 
0.019865 0.026259 0.0046562 
0.019888 0.027028 0.00465152 
0.019911 0.027798 0.00464683 
0.019935 0.028567 0.00464214 
0.019958 0.029336 0.00463745 
0.019982 0.030105 0.00463276 
0.020005 0.030875 0.00462808 
0.020028 0.031644 0.00462339 
0.020052 0.032413 0.0046187 
0.020075 0.033182 0.00461401 
0.020098 0.033952 0.00460933 
0.020122 0.034721 0.00460464 
0.020145 0.03549 0.00459995 
0.020169 0.036259 0.00459526 
0.020192 0.037029 0.00459058 
0.020215 0.037798 0.00458589 
0.020239 0.038567 0.0045812 
0.020262 0.039336 0.00457651 
0.020285 0.040106 0.00457183 
0.020309 0.040875 0.00456714 
0.020332 0.041644 0.00456245 
0.020356 0.042413 0.00455776 
0.020379 0.043183 0.00455308 
0.020402 0.043952 0.00454839 
0.020426 0.044721 0.0045437 
0.020449 0.04549 0.00453901 
0.020473 0.04626 0.00453432 
0.020496 0.047029 0.00452964 
0.020519 0.047798 0.00452495 
0.020543 0.048567 0.00452026 
0.019839 0.049573 0.00383203 
0.019862 0.050344 0.00382733 
0.019886 0.051115 0.00382264 
0.019909 0.051885 0.00381794 
0.019933 0.052656 0.00381324 
0.019956 0.053427 0.00380854 
0.01998 0.054198 0.00380385 
0.020003 0.054969 0.00379915 
0.020026 0.05574 0.00379445 
0.02005 0.05651 0.00378976 
0.020073 0.057281 0.00378506 
0.020097 0.058052 0.00378036 
0.02012 0.058823 0.00377566 
0.020144 0.059594 0.00377097 
0.020167 0.060365 0.00376627 
0.02019 0.061136 0.00376157 
0.020214 0.061906 0.00375687 
0.020237 0.062677 0.00375218 
0.020261 0.063448 0.00374748 
0.019558 0.064485 0.00305907 
0.018856 0.065526 0.00237063 
0.018879 0.0663 0.00236591 
0.018177 0.067345 0.00167746 
0.016749 0.068667 0.000305219 
0.017252 -0.0033813 0.00219141 
0.018734 -0.002863 0.0035549 
0.019487 -0.0022217 0.00423433 
0.01951 -0.0014524 0.00422964 
0.019534 -0.000683197 0.00422495 
0.019557 8.60977e-05 0.00422027 
0.020309 0.000719498 0.00489972 
0.020333 0.0014872 0.00489505 
0.020356 0.0022548 0.00489037 
0.020379 0.0030225 0.00488569 
0.020403 0.0037901 0.00488101 
0.020426 0.0045578 0.00487633 
0.020449 0.0053255 0.00487166 
0.020473 0.0060931 0.00486698 
0.020496 0.0068608 0.0048623 
0.020519 0.0076284 0.00485762 
0.020543 0.0083961 0.00485294 
0.020566 0.0091638 0.00484827 
0.020589 0.0099314 0.00484359 
0.020613 0.0106991 0.00483891 
0.020636 0.0114667 0.00483423 
0.020659 0.0122344 0.00482956 
0.019955 0.0131634 0.00414058 
0.019978 0.0139326 0.00413589 
0.020001 0.014702 0.0041312 
0.020025 0.015471 0.00412651 
0.020048 0.01624 0.00412183 
0.020071 0.01701 0.00411714 
0.020095 0.017779 0.00411245 
0.020118 0.018548 0.00410776 
0.020142 0.019317 0.00410308 
0.020165 0.020087 0.00409839 
0.020188 0.020856 0.0040937 
0.020212 0.021625 0.00408901 
0.020235 0.022394 0.00408433 
0.020258 0.023164 0.00407964 
0.020282 0.023933 0.00407495 
0.020305 0.024702 0.00407026 
0.020329 0.025471 0.00406558 
0.020352 0.026241 0.00406089 
0.020375 0.02701 0.0040562 
