ply
format ascii 1.0
comment Created by CloudCompare v2.11 alpha (Anoia)
comment Created 17/05/2019 19:40
obj_info Generated by CloudCompare!
element vertex 1595
property float x
property float y
property float z
end_header
0.016086 0.062045 0.0275352 
0.016109 0.062792 0.0275306 
0.016132 0.063539 0.0275261 
0.016154 0.064286 0.0275215 
0.016177 0.065033 0.027517 
0.0162 0.06578 0.0275124 
0.016223 0.066527 0.0275079 
0.015494 0.067468 0.0268484 
0.015516 0.068216 0.0268438 
0.015539 0.068965 0.0268393 
0.015562 0.069713 0.0268347 
0.017776 -0.0223936 0.0307464 
0.017798 -0.0216546 0.0307419 
0.01782 -0.0209157 0.0307374 
0.017843 -0.0201767 0.0307329 
0.017865 -0.0194377 0.0307284 
0.017888 -0.0186987 0.0307239 
0.01791 -0.0179597 0.0307194 
0.017933 -0.0172207 0.0307149 
0.017955 -0.0164817 0.0307104 
0.017978 -0.0157427 0.0307059 
0.018 -0.0150037 0.0307014 
0.018023 -0.0142647 0.0306969 
0.018045 -0.0135257 0.0306924 
0.018068 -0.0127867 0.0306879 
0.01809 -0.0120478 0.0306834 
0.018112 -0.0113088 0.0306789 
0.018135 -0.0105698 0.0306744 
0.018157 -0.0098308 0.0306698 
0.01818 -0.0090918 0.0306653 
0.018202 -0.0083528 0.0306608 
0.018225 -0.0076138 0.0306563 
0.018247 -0.0068748 0.0306518 
0.01827 -0.0061358 0.0306473 
0.018292 -0.0053968 0.0306428 
0.018315 -0.0046578 0.0306383 
0.018337 -0.0039188 0.0306338 
0.01836 -0.0031799 0.0306293 
0.018382 -0.0024409 0.0306248 
0.018404 -0.0017019 0.0306203 
0.018427 -0.000962898 0.0306158 
0.018449 -0.0002239 0.0306113 
0.018472 0.000515099 0.0306068 
0.018494 0.0012541 0.0306023 
0.018517 0.0019931 0.0305978 
0.018539 0.0027321 0.0305933 
0.018562 0.0034711 0.0305888 
0.018584 0.0042101 0.0305843 
0.018607 0.0049491 0.0305798 
0.018629 0.005688 0.0305753 
0.018652 0.006427 0.0305708 
0.018674 0.007166 0.0305663 
0.018696 0.007905 0.0305618 
0.018719 0.008644 0.0305573 
0.017987 0.0094544 0.0298973 
0.01801 0.010195 0.0298928 
0.018032 0.0109356 0.0298883 
0.018055 0.0116762 0.0298838 
0.018077 0.0124168 0.0298793 
0.0181 0.0131574 0.0298748 
0.018122 0.0138979 0.0298703 
0.018145 0.0146385 0.0298658 
0.018167 0.0153791 0.0298612 
0.01819 0.0161197 0.0298567 
0.018212 0.0168603 0.0298522 
0.018235 0.0176009 0.0298477 
0.018257 0.0183414 0.0298432 
0.01828 0.019082 0.0298387 
0.018302 0.0198226 0.0298342 
0.018325 0.0205632 0.0298297 
0.018347 0.0213038 0.0298251 
0.01837 0.0220444 0.0298206 
0.018392 0.022785 0.0298161 
0.018415 0.0235255 0.0298116 
0.017684 0.0243694 0.0291515 
0.017707 0.0251116 0.029147 
0.017729 0.0258538 0.0291425 
0.017752 0.0265959 0.0291379 
0.017774 0.0273381 0.0291334 
0.017797 0.0280803 0.0291289 
0.01782 0.0288225 0.0291244 
0.017842 0.0295646 0.0291198 
0.017865 0.0303068 0.0291153 
0.017887 0.031049 0.0291108 
0.01791 0.0317912 0.0291063 
0.017932 0.0325333 0.0291017 
0.017955 0.0332755 0.0290972 
0.017977 0.0340177 0.0290927 
0.018 0.0347599 0.0290882 
0.018023 0.0355021 0.0290837 
0.018045 0.0362442 0.0290791 
0.018068 0.0369864 0.0290746 
0.01809 0.0377286 0.0290701 
0.018113 0.0384708 0.0290656 
0.018135 0.0392129 0.029061 
0.018158 0.0399551 0.0290565 
0.01818 0.0406973 0.029052 
0.017451 0.0415794 0.0283917 
0.017473 0.0423232 0.0283871 
0.017496 0.0430669 0.0283826 
0.017519 0.0438107 0.0283781 
0.017541 0.0445545 0.0283735 
0.016812 0.0454461 0.0277131 
0.016835 0.0461915 0.0277086 
0.016857 0.0469368 0.027704 
0.01688 0.0476822 0.0276995 
0.016903 0.0484276 0.0276949 
0.016925 0.0491729 0.0276904 
0.016948 0.0499183 0.0276859 
0.016971 0.0506636 0.0276813 
0.016993 0.051409 0.0276768 
0.017016 0.0521544 0.0276722 
0.016287 0.0530635 0.0270117 
0.01631 0.0538105 0.0270072 
0.016333 0.0545574 0.0270026 
0.016355 0.055304 0.0269981 
0.016378 0.056051 0.0269935 
0.016401 0.056798 0.026989 
0.016423 0.057545 0.0269844 
0.016446 0.058292 0.0269799 
0.016469 0.059039 0.0269753 
0.016491 0.059786 0.0269708 
0.016514 0.060533 0.0269662 
0.016537 0.06128 0.0269617 
0.01656 0.062027 0.0269571 
0.016582 0.062774 0.0269526 
0.016605 0.063521 0.026948 
0.015877 0.064456 0.0262873 
0.0159 0.065204 0.0262828 
0.015922 0.065953 0.0262782 
0.015945 0.066701 0.0262736 
0.015968 0.06745 0.0262691 
0.015991 0.068198 0.0262645 
0.016013 0.068947 0.02626 
0.018266 -0.0216724 0.03017 
0.018289 -0.0209334 0.0301655 
0.018311 -0.0201944 0.030161 
0.018334 -0.0194554 0.0301565 
0.018356 -0.0187164 0.030152 
0.018379 -0.0179774 0.0301475 
0.018401 -0.0172384 0.030143 
0.018423 -0.0164994 0.0301385 
0.018446 -0.0157604 0.030134 
0.017714 -0.0150026 0.0294731 
0.018491 -0.0142824 0.030125 
0.017759 -0.0135214 0.0294641 
0.017781 -0.0127808 0.0294596 
0.017804 -0.0120403 0.0294551 
0.018581 -0.0113265 0.030107 
0.018603 -0.0105875 0.0301025 
0.018626 -0.0098485 0.030098 
0.018648 -0.0091095 0.0300935 
0.018671 -0.0083705 0.0300889 
0.018693 -0.0076315 0.0300844 
0.018715 -0.0068925 0.0300799 
0.018738 -0.0061535 0.0300754 
0.01876 -0.0054145 0.0300709 
0.018783 -0.0046756 0.0300664 
0.018805 -0.0039366 0.0300619 
0.018828 -0.0031976 0.0300574 
0.01885 -0.0024586 0.0300529 
0.018873 -0.0017196 0.0300484 
0.018895 -0.000980598 0.0300439 
0.018918 -0.0002416 0.0300394 
0.01894 0.000497398 0.0300349 
0.018963 0.0012364 0.0300304 
0.018985 0.0019754 0.0300259 
0.019007 0.0027144 0.0300214 
0.01903 0.0034534 0.0300169 
0.019052 0.0041923 0.0300124 
0.019075 0.0049313 0.0300079 
0.018344 0.0057338 0.0293468 
0.018366 0.0064743 0.0293423 
0.018389 0.0072149 0.0293378 
0.018411 0.0079555 0.0293332 
0.018434 0.0086961 0.0293287 
0.018456 0.0094367 0.0293242 
0.018479 0.0101773 0.0293197 
0.018501 0.0109178 0.0293152 
0.018524 0.0116584 0.0293107 
0.018546 0.012399 0.0293062 
0.018569 0.0131396 0.0293017 
0.017839 0.0139611 0.0286405 
0.017861 0.0147033 0.0286359 
0.017884 0.0154455 0.0286314 
0.017906 0.0161877 0.0286269 
0.017929 0.0169298 0.0286224 
0.017951 0.017672 0.0286178 
0.017974 0.0184142 0.0286133 
0.017996 0.0191564 0.0286088 
0.018019 0.0198986 0.0286043 
0.018042 0.0206407 0.0285997 
0.018064 0.0213829 0.0285952 
0.018087 0.0221251 0.0285907 
0.018109 0.0228673 0.0285862 
0.018132 0.0236094 0.0285817 
0.018154 0.0243516 0.0285771 
0.018177 0.0250938 0.0285726 
0.0182 0.025836 0.0285681 
0.018222 0.0265781 0.0285636 
0.018245 0.0273203 0.028559 
0.018267 0.0280625 0.0285545 
0.01829 0.0288047 0.02855 
0.018312 0.0295469 0.0285455 
0.018335 0.030289 0.028541 
0.018357 0.0310312 0.0285364 
0.01838 0.0317734 0.0285319 
0.018403 0.0325156 0.0285274 
0.018425 0.0332577 0.0285229 
0.018448 0.0339999 0.0285183 
0.01847 0.0347421 0.0285138 
0.018493 0.0354843 0.0285093 
0.018515 0.0362264 0.0285048 
0.018538 0.0369686 0.0285002 
0.017809 0.0378427 0.0278387 
0.017832 0.0385865 0.0278342 
0.017854 0.0393302 0.0278297 
0.017877 0.040074 0.0278251 
0.017899 0.0408178 0.0278206 
0.017922 0.0415616 0.0278161 
0.017945 0.0423053 0.0278115 
0.017216 0.0431922 0.0271499 
0.017239 0.0439375 0.0271454 
0.017262 0.0446829 0.0271408 
0.017284 0.0454282 0.0271363 
0.017307 0.0461736 0.0271317 
0.01733 0.046919 0.0271272 
0.016602 0.0478169 0.0264655 
0.016624 0.0485639 0.026461 
0.016647 0.0493109 0.0264564 
0.01667 0.0500578 0.0264519 
0.016692 0.0508048 0.0264473 
0.016715 0.0515517 0.0264428 
0.016738 0.0522987 0.0264382 
0.01676 0.0530456 0.0264337 
0.016783 0.0537926 0.0264291 
0.016806 0.0545395 0.0264246 
0.016828 0.055286 0.02642 
0.016851 0.056033 0.0264155 
0.016874 0.05678 0.0264109 
0.016897 0.057527 0.0264064 
0.016919 0.058274 0.0264018 
0.016942 0.059021 0.0263973 
0.016965 0.059768 0.0263927 
0.016987 0.060515 0.0263882 
0.01626 0.061443 0.0257263 
0.016283 0.062192 0.0257217 
0.016306 0.062941 0.0257172 
0.016329 0.063689 0.0257126 
0.016351 0.064438 0.025708 
0.016374 0.065186 0.0257035 
0.016397 0.065935 0.0256989 
0.01567 0.066876 0.025037 
0.015693 0.067626 0.0250324 
0.015716 0.068376 0.0250278 
0.018003 -0.020945 0.0289361 
0.018025 -0.0202044 0.0289316 
0.018048 -0.0194639 0.0289271 
0.01807 -0.0187233 0.0289226 
0.018093 -0.0179827 0.0289181 
0.018115 -0.0172421 0.0289136 
0.018138 -0.0165015 0.028909 
0.01816 -0.0157609 0.0289045 
0.018183 -0.0150204 0.0289 
0.018205 -0.0142798 0.0288955 
0.018228 -0.0135392 0.028891 
0.01825 -0.0127986 0.0288865 
0.018273 -0.012058 0.028882 
0.018295 -0.0113174 0.0288775 
0.018318 -0.0105769 0.0288729 
0.01834 -0.0098363 0.0288684 
0.018363 -0.0090957 0.0288639 
0.018385 -0.0083551 0.0288594 
0.018408 -0.0076145 0.0288549 
0.01843 -0.0068739 0.0288504 
0.018453 -0.0061333 0.0288459 
0.018475 -0.0053928 0.0288413 
0.018498 -0.0046522 0.0288368 
0.018521 -0.0039116 0.0288323 
0.018543 -0.003171 0.0288278 
0.018565 -0.0024304 0.0288233 
0.018588 -0.0016898 0.0288188 
0.018611 -0.000949299 0.0288143 
0.018633 -0.000208698 0.0288098 
0.018656 0.000531898 0.0288052 
0.018678 0.0012725 0.0288007 
0.018701 0.0020131 0.0287962 
0.018723 0.0027537 0.0287917 
0.018746 0.0034943 0.0287872 
0.018768 0.0042348 0.0287827 
0.018791 0.0049754 0.0287782 
0.018813 0.005716 0.0287737 
0.018836 0.0064566 0.0287691 
0.018858 0.0071972 0.0287646 
0.018881 0.0079378 0.0287601 
0.018903 0.0086783 0.0287556 
0.018173 0.0094903 0.0280932 
0.018196 0.0102325 0.0280887 
0.018219 0.0109746 0.0280842 
0.018241 0.0117168 0.0280797 
0.018264 0.012459 0.0280751 
0.018286 0.0132012 0.0280706 
0.018309 0.0139433 0.0280661 
0.018331 0.0146855 0.0280616 
0.018354 0.0154277 0.028057 
0.018377 0.0161699 0.0280525 
0.018399 0.016912 0.028048 
0.018422 0.0176542 0.0280435 
0.018444 0.0183964 0.028039 
0.018467 0.0191386 0.0280344 
0.018489 0.0198808 0.0280299 
0.018512 0.0206229 0.0280254 
0.018534 0.0213651 0.0280209 
0.018557 0.0221073 0.0280163 
0.01858 0.0228495 0.0280118 
0.018602 0.0235916 0.0280073 
0.017873 0.024437 0.0273447 
0.017896 0.0251808 0.0273402 
0.017919 0.0259246 0.0273356 
0.017941 0.0266683 0.0273311 
0.017964 0.0274121 0.0273266 
0.017986 0.0281559 0.0273221 
0.018009 0.0288996 0.0273175 
0.018032 0.0296434 0.027313 
0.018054 0.0303872 0.0273085 
0.018077 0.031131 0.0273039 
0.018099 0.0318747 0.0272994 
0.018122 0.0326185 0.0272949 
0.018145 0.0333623 0.0272903 
0.018167 0.034106 0.0272858 
0.01819 0.0348498 0.0272813 
0.018213 0.0355936 0.0272767 
0.018235 0.0363373 0.0272722 
0.018258 0.0370811 0.0272677 
0.01828 0.0378249 0.0272631 
0.018303 0.0385686 0.0272586 
0.018326 0.0393124 0.0272541 
0.017598 0.0401928 0.0265913 
0.017621 0.0409382 0.0265867 
0.017643 0.0416836 0.0265822 
0.017666 0.0424289 0.0265776 
0.017689 0.0431743 0.0265731 
0.017711 0.0439196 0.0265685 
0.016984 0.0448112 0.0259057 
0.017007 0.0455582 0.0259011 
0.017029 0.0463051 0.0258966 
0.017052 0.0470521 0.025892 
0.017075 0.047799 0.0258875 
0.017097 0.048546 0.0258829 
0.01712 0.049293 0.0258784 
0.017143 0.0500399 0.0258738 
0.017166 0.0507869 0.0258693 
0.017188 0.0515338 0.0258647 
0.017211 0.0522808 0.0258602 
0.016484 0.0531915 0.0251972 
0.017256 0.0537747 0.0258511 
0.01653 0.0546886 0.025188 
0.016553 0.055437 0.0251835 
0.016575 0.056186 0.0251789 
0.016598 0.056934 0.0251744 
0.016621 0.057683 0.0251698 
0.016644 0.058431 0.0251652 
0.016666 0.05918 0.0251607 
0.016689 0.059928 0.0251561 
0.016712 0.060677 0.0251516 
0.016735 0.061425 0.025147 
0.016757 0.062174 0.0251424 
0.01678 0.062923 0.0251379 
0.016803 0.063671 0.0251333 
0.016826 0.06442 0.0251287 
0.0161 0.065357 0.0244656 
0.016122 0.066108 0.024461 
0.016145 0.066858 0.0244565 
0.016168 0.067608 0.0244519 
0.016191 0.068358 0.0244473 
0.018495 -0.0202222 0.0283585 
0.018517 -0.0194816 0.028354 
0.018539 -0.018741 0.0283494 
0.018562 -0.0180005 0.0283449 
0.018585 -0.0172599 0.0283404 
0.018607 -0.0165193 0.0283359 
0.01863 -0.0157787 0.0283314 
0.018652 -0.0150381 0.0283269 
0.017922 -0.0142772 0.0276636 
0.017944 -0.013535 0.0276591 
0.017967 -0.0127928 0.0276545 
0.01799 -0.0120506 0.02765 
0.018012 -0.0113085 0.0276455 
0.018035 -0.0105663 0.027641 
0.018057 -0.0098241 0.0276364 
0.01808 -0.0090819 0.0276319 
0.018102 -0.0083398 0.0276274 
0.018125 -0.0075976 0.0276229 
0.018147 -0.0068554 0.0276184 
0.018922 -0.0061511 0.0282727 
0.018945 -0.0054105 0.0282682 
0.018967 -0.0046699 0.0282637 
0.01899 -0.0039293 0.0282592 
0.019012 -0.0031888 0.0282547 
0.019035 -0.0024482 0.0282502 
0.019057 -0.0017076 0.0282457 
0.01908 -0.000966999 0.0282411 
0.019102 -0.000226398 0.0282366 
0.019125 0.000514198 0.0282321 
0.019147 0.0012547 0.0282276 
0.01917 0.0019953 0.0282231 
0.019192 0.0027359 0.0282186 
0.019215 0.0034765 0.0282141 
0.019237 0.0042171 0.0282095 
0.018508 0.0050194 0.027546 
0.018531 0.0057616 0.0275415 
0.018554 0.0065038 0.027537 
0.018576 0.007246 0.0275324 
0.018599 0.0079881 0.0275279 
0.018621 0.0087303 0.0275234 
0.018644 0.0094725 0.0275189 
0.018666 0.0102147 0.0275143 
0.018689 0.0109568 0.0275098 
0.018711 0.011699 0.0275053 
0.018734 0.0124412 0.0275008 
0.018757 0.0131834 0.0274962 
0.018779 0.0139255 0.0274917 
0.018802 0.0146677 0.0274872 
0.018073 0.015494 0.0268235 
0.018096 0.0162377 0.026819 
0.018119 0.0169815 0.0268144 
0.018141 0.0177253 0.0268099 
0.018164 0.018469 0.0268054 
0.018186 0.0192128 0.0268008 
0.018209 0.0199566 0.0267963 
0.018232 0.0207003 0.0267918 
0.018254 0.0214441 0.0267872 
0.018277 0.0221879 0.0267827 
0.018299 0.0229317 0.0267782 
0.018322 0.0236754 0.0267737 
0.018345 0.0244192 0.0267691 
0.018367 0.025163 0.0267646 
0.01839 0.0259067 0.0267601 
0.018412 0.0266505 0.0267555 
0.018435 0.0273943 0.026751 
0.018458 0.028138 0.0267465 
0.01848 0.0288818 0.0267419 
0.018503 0.0296256 0.0267374 
0.018526 0.0303694 0.0267329 
0.018548 0.0311131 0.0267283 
0.018571 0.0318569 0.0267238 
0.017844 0.0327214 0.0260598 
0.017866 0.0334667 0.0260553 
0.017889 0.0342121 0.0260508 
0.017912 0.0349574 0.0260462 
0.017934 0.0357028 0.0260417 
0.017957 0.0364482 0.0260371 
0.01798 0.0371935 0.0260326 
0.018002 0.0379389 0.0260281 
0.018025 0.0386842 0.0260235 
0.018048 0.0394296 0.026019 
0.01807 0.040175 0.0260144 
0.018093 0.0409203 0.0260099 
0.017366 0.0418055 0.0253458 
0.017389 0.0425525 0.0253413 
0.017412 0.0432994 0.0253367 
0.017435 0.0440464 0.0253322 
0.017457 0.0447933 0.0253276 
0.01748 0.0455403 0.0253231 
0.017503 0.0462872 0.0253185 
0.016777 0.0471851 0.0246544 
0.016799 0.0479337 0.0246498 
0.016822 0.0486822 0.0246452 
0.016845 0.0494308 0.0246407 
0.016868 0.0501793 0.0246361 
0.01689 0.0509279 0.0246316 
0.016913 0.0516764 0.024627 
0.016936 0.052425 0.0246224 
0.016959 0.0531735 0.0246179 
0.016981 0.0539221 0.0246133 
0.017004 0.0546706 0.0246088 
0.017027 0.055419 0.0246042 
0.01705 0.056168 0.0245996 
0.017072 0.056916 0.0245951 
0.017095 0.057665 0.0245905 
0.017118 0.058413 0.0245859 
0.017141 0.059162 0.0245814 
0.017163 0.05991 0.0245768 
0.017186 0.060659 0.0245723 
0.017209 0.061408 0.0245677 
0.017232 0.062156 0.0245631 
0.016507 0.063089 0.0238988 
0.016529 0.063839 0.0238942 
0.016552 0.064589 0.0238896 
0.016575 0.065339 0.0238851 
0.01585 0.06628 0.0232207 
0.015873 0.067032 0.0232161 
0.018964 -0.02024 0.0277853 
0.018986 -0.0194994 0.0277808 
0.019009 -0.0187588 0.0277763 
0.019031 -0.0180182 0.0277718 
0.018302 -0.0172637 0.0271073 
0.018324 -0.0165215 0.0271028 
0.018347 -0.0157793 0.0270983 
0.01837 -0.0150371 0.0270937 
0.018392 -0.014295 0.0270892 
0.018415 -0.0135528 0.0270847 
0.018437 -0.0128106 0.0270802 
0.01846 -0.0120684 0.0270757 
0.018482 -0.0113263 0.0270711 
0.018505 -0.0105841 0.0270666 
0.018527 -0.0098419 0.0270621 
0.01855 -0.0090997 0.0270576 
0.018573 -0.0083576 0.027053 
0.018595 -0.0076154 0.0270485 
0.018618 -0.0068732 0.027044 
0.01864 -0.006131 0.0270395 
0.018663 -0.0053888 0.027035 
0.018685 -0.0046467 0.0270304 
0.018708 -0.0039045 0.0270259 
0.01873 -0.0031623 0.0270214 
0.018753 -0.0024201 0.0270169 
0.018776 -0.001678 0.0270123 
0.018798 -0.000935799 0.0270078 
0.018821 -0.0001936 0.0270033 
0.018843 0.000548599 0.0269988 
0.018866 0.0012907 0.0269942 
0.018888 0.0020329 0.0269897 
0.018911 0.0027751 0.0269852 
0.018934 0.0035173 0.0269807 
0.018956 0.0042594 0.0269762 
0.018979 0.0050016 0.0269716 
0.019001 0.0057438 0.0269671 
0.019024 0.006486 0.0269626 
0.019046 0.0072282 0.0269581 
0.019069 0.0079703 0.0269535 
0.019091 0.0087125 0.026949 
0.019114 0.0094547 0.0269445 
0.018386 0.0102697 0.0262796 
0.018409 0.0110135 0.0262751 
0.018432 0.0117573 0.0262706 
0.018454 0.012501 0.026266 
0.018477 0.0132448 0.0262615 
0.018499 0.0139886 0.026257 
0.018522 0.0147324 0.0262524 
0.018545 0.0154761 0.0262479 
0.018567 0.0162199 0.0262434 
0.01859 0.0169637 0.0262388 
0.018612 0.0177074 0.0262343 
0.018635 0.0184512 0.0262298 
0.018658 0.019195 0.0262253 
0.01868 0.0199387 0.0262207 
0.018703 0.0206825 0.0262162 
0.017976 0.021523 0.0255511 
0.017999 0.0222684 0.0255466 
0.018021 0.0230138 0.0255421 
0.018044 0.0237591 0.0255375 
0.018067 0.0245045 0.025533 
0.018089 0.0252499 0.0255284 
0.018112 0.0259952 0.0255239 
0.018135 0.0267406 0.0255194 
0.018157 0.0274859 0.0255148 
0.01818 0.0282313 0.0255103 
0.018203 0.0289767 0.0255057 
0.018225 0.029722 0.0255012 
0.018248 0.0304674 0.0254966 
0.018271 0.0312128 0.0254921 
0.018293 0.0319581 0.0254876 
0.018316 0.0327035 0.025483 
0.018339 0.0334488 0.0254785 
0.018361 0.0341942 0.0254739 
0.018384 0.0349396 0.0254694 
0.018407 0.0356849 0.0254648 
0.018429 0.0364303 0.0254603 
0.017703 0.0373059 0.0247951 
0.017726 0.0380528 0.0247905 
0.017749 0.0387998 0.024786 
0.017772 0.0395467 0.0247814 
0.017794 0.0402937 0.0247769 
0.017817 0.0410406 0.0247723 
0.01784 0.0417876 0.0247678 
0.017862 0.0425345 0.0247632 
0.017137 0.0434245 0.0240979 
0.01716 0.044173 0.0240933 
0.017183 0.0449215 0.0240888 
0.017205 0.0456701 0.0240842 
0.017228 0.0464186 0.0240796 
0.017251 0.0471672 0.0240751 
0.017274 0.0479157 0.0240705 
0.017296 0.0486643 0.0240659 
0.017319 0.0494128 0.0240614 
0.017342 0.0501614 0.0240568 
0.017365 0.0509099 0.0240523 
0.017387 0.0516585 0.0240477 
0.01741 0.052407 0.0240431 
0.017433 0.0531556 0.0240386 
0.017456 0.0539041 0.024034 
0.017478 0.0546527 0.0240295 
0.017501 0.055401 0.0240249 
0.017524 0.05615 0.0240203 
0.017547 0.056898 0.0240158 
0.018704 -0.019508 0.0265465 
0.019478 -0.0187765 0.0272032 
0.01875 -0.0180236 0.0265375 
0.018772 -0.0172815 0.0265329 
0.018795 -0.0165393 0.0265284 
0.018066 -0.01578 0.0258627 
0.018089 -0.0150363 0.0258581 
0.017361 -0.0142722 0.0251923 
0.017384 -0.0135269 0.0251878 
0.017406 -0.0127815 0.0251833 
0.017429 -0.0120361 0.0251787 
0.017452 -0.0112908 0.0251742 
0.018225 -0.0105736 0.0258309 
0.018247 -0.0098299 0.0258264 
0.01827 -0.0090861 0.0258219 
0.018293 -0.0083423 0.0258174 
0.019065 -0.0076332 0.0264742 
0.018338 -0.0068548 0.0258083 
0.01836 -0.006111 0.0258038 
0.019133 -0.0054066 0.0264606 
0.019156 -0.0046645 0.0264561 
0.019178 -0.0039223 0.0264515 
0.019201 -0.0031801 0.026447 
0.019223 -0.0024379 0.0264425 
0.019246 -0.0016958 0.026438 
0.019268 -0.000953602 0.0264335 
0.019291 -0.000211399 0.0264289 
0.019314 0.0005308 0.0264244 
0.019336 0.0012729 0.0264199 
0.019359 0.0020151 0.0264154 
0.019381 0.0027573 0.0264108 
0.019404 0.0034995 0.0264063 
0.018677 0.0043018 0.0257403 
0.018699 0.0050455 0.0257358 
0.018722 0.0057893 0.0257312 
0.018745 0.0065331 0.0257267 
0.018767 0.0072768 0.0257222 
0.01879 0.0080206 0.0257176 
0.018812 0.0087644 0.0257131 
0.018835 0.0095081 0.0257086 
0.018858 0.0102519 0.025704 
0.01888 0.0109957 0.0256995 
0.018903 0.0117394 0.025695 
0.018926 0.0124832 0.0256904 
0.018948 0.013227 0.0256859 
0.018222 0.0140516 0.0250197 
0.018244 0.0147969 0.0250152 
0.018267 0.0155423 0.0250107 
0.01829 0.0162876 0.0250061 
0.018312 0.017033 0.0250016 
0.018335 0.0177784 0.024997 
0.018358 0.0185237 0.0249925 
0.01838 0.0192691 0.0249879 
0.018403 0.0200145 0.0249834 
0.018426 0.0207598 0.0249789 
0.018448 0.0215052 0.0249743 
0.018471 0.0222505 0.0249698 
0.018494 0.0229959 0.0249652 
0.018516 0.0237413 0.0249607 
0.018539 0.0244866 0.0249562 
0.018562 0.025232 0.0249516 
0.018584 0.0259774 0.0249471 
0.018607 0.0267227 0.0249425 
0.01863 0.0274681 0.024938 
0.018652 0.0282134 0.0249334 
0.018675 0.0289588 0.0249289 
0.01795 0.0298184 0.0242625 
0.017972 0.0305654 0.024258 
0.017995 0.0313123 0.0242534 
0.018018 0.0320593 0.0242489 
0.018041 0.0328062 0.0242443 
0.018063 0.0335532 0.0242398 
0.018086 0.0343001 0.0242352 
0.018109 0.0350471 0.0242307 
0.018131 0.035794 0.0242261 
0.018154 0.036541 0.0242216 
0.018177 0.0372879 0.024217 
0.018199 0.0380349 0.0242125 
0.018222 0.0387819 0.0242079 
0.017498 0.0396638 0.0235414 
0.01752 0.0404123 0.0235368 
0.017543 0.0411609 0.0235323 
0.017566 0.0419094 0.0235277 
0.017589 0.042658 0.0235231 
0.017611 0.0434065 0.0235186 
0.017634 0.044155 0.023514 
0.017657 0.0449036 0.0235095 
0.016933 0.0457998 0.0228429 
0.016956 0.04655 0.0228383 
0.016978 0.0473001 0.0228337 
0.017001 0.0480502 0.0228292 
0.017024 0.0488004 0.0228246 
0.017047 0.0495505 0.02282 
0.01707 0.0503007 0.0228154 
0.017092 0.0510508 0.0228109 
0.017115 0.0518009 0.0228063 
0.017138 0.0525511 0.0228017 
0.017161 0.0533012 0.0227972 
0.017184 0.0540514 0.0227926 
0.017206 0.0548015 0.022788 
0.017229 0.055552 0.0227835 
0.017252 0.056302 0.0227789 
0.019175 -0.0195258 0.0259722 
0.019197 -0.0187836 0.0259676 
0.01847 -0.0180292 0.0253007 
0.017743 -0.0172715 0.0246337 
0.017765 -0.0165262 0.0246291 
0.016288 -0.0157467 0.0232997 
0.016311 -0.0149982 0.0232951 
0.016334 -0.0142496 0.0232905 
0.016357 -0.0135011 0.023286 
0.016379 -0.0127525 0.0232814 
0.016402 -0.012004 0.0232768 
0.016425 -0.0112554 0.0232723 
0.017197 -0.0105351 0.0239303 
0.017969 -0.0098179 0.0245883 
0.017992 -0.0090725 0.0245837 
0.018764 -0.0083602 0.0252418 
0.018786 -0.0076164 0.0252372 
0.018809 -0.0068726 0.0252327 
0.018832 -0.0061289 0.0252282 
0.018854 -0.0053851 0.0252236 
0.018877 -0.0046413 0.0252191 
0.018899 -0.0038975 0.0252146 
0.018922 -0.0031538 0.02521 
0.018945 -0.00241 0.0252055 
0.018967 -0.0016662 0.025201 
0.01899 -0.000922501 0.0251964 
0.019012 -0.000178699 0.0251919 
0.019035 0.000565102 0.0251874 
0.019058 0.0013088 0.0251828 
0.01908 0.0020526 0.0251783 
0.019103 0.0027964 0.0251738 
0.019125 0.0035401 0.0251692 
0.019148 0.0042839 0.0251647 
0.019171 0.0050277 0.0251602 
0.019193 0.0057715 0.0251556 
0.019216 0.0065152 0.0251511 
0.019239 0.007259 0.0251466 
0.018513 0.0080708 0.0244793 
0.018536 0.0088161 0.0244747 
0.018558 0.0095615 0.0244702 
0.018581 0.0103069 0.0244656 
0.018603 0.0110522 0.0244611 
0.018626 0.0117976 0.0244565 
0.018649 0.012543 0.024452 
0.018672 0.0132883 0.0244475 
0.018694 0.0140337 0.0244429 
0.018717 0.014779 0.0244384 
0.018739 0.0155244 0.0244338 
0.018762 0.0162698 0.0244293 
0.018785 0.0170151 0.0244247 
0.01806 0.0178492 0.0237573 
0.018082 0.0185962 0.0237528 
0.018105 0.0193431 0.0237482 
0.018128 0.0200901 0.0237436 
0.018151 0.020837 0.0237391 
0.018173 0.021584 0.0237345 
0.018196 0.0223309 0.02373 
0.018219 0.0230779 0.0237254 
0.018241 0.0238249 0.0237209 
0.018264 0.0245718 0.0237163 
0.018287 0.0253188 0.0237118 
0.01831 0.0260657 0.0237072 
0.018332 0.0268127 0.0237027 
0.018355 0.0275596 0.0236981 
0.018378 0.0283066 0.0236936 
0.0184 0.0290535 0.023689 
0.018423 0.0298005 0.0236845 
0.018446 0.0305474 0.0236799 
0.018468 0.0312944 0.0236754 
0.018491 0.0320414 0.0236708 
0.018514 0.0327883 0.0236663 
0.018537 0.0335353 0.0236617 
0.018559 0.0342822 0.0236572 
0.017835 0.0351545 0.0229895 
0.017858 0.0359031 0.0229849 
0.017881 0.0366516 0.0229803 
0.017904 0.0374002 0.0229758 
0.017926 0.0381487 0.0229712 
0.017949 0.0388973 0.0229667 
0.017972 0.0396458 0.0229621 
0.017995 0.0403944 0.0229575 
0.018017 0.0411429 0.022953 
0.017294 0.0420311 0.0222852 
0.017317 0.0427813 0.0222806 
0.01734 0.0435314 0.0222761 
0.017362 0.0442816 0.0222715 
0.017385 0.0450317 0.0222669 
0.017408 0.0457818 0.0222624 
0.017431 0.046532 0.0222578 
0.017454 0.0472821 0.0222532 
0.017477 0.0480323 0.0222486 
0.017499 0.0487824 0.0222441 
0.017522 0.0495325 0.0222395 
0.017545 0.0502827 0.0222349 
0.017568 0.0510328 0.0222304 
0.017591 0.051783 0.0222258 
0.016868 0.0526951 0.0215578 
0.016891 0.0534468 0.0215533 
0.016914 0.0541986 0.0215487 
0.017682 0.0547835 0.0222075 
0.017705 0.055534 0.0222029 
0.017727 0.056284 0.0221984 
0.019668 -0.0188014 0.0253933 
0.015242 -0.0164824 0.0213975 
0.014516 -0.0157136 0.0207292 
0.014539 -0.0149603 0.0207247 
0.014562 -0.014207 0.0207201 
0.014585 -0.0134536 0.0207155 
0.014608 -0.0127003 0.0207109 
0.015379 -0.011972 0.02137 
0.016151 -0.0112468 0.0220292 
0.016922 -0.0105248 0.0226884 
0.017693 -0.009806 0.0233477 
0.018464 -0.0090904 0.0240069 
0.018487 -0.0083451 0.0240023 
0.018509 -0.0075997 0.0239978 
0.018532 -0.0068543 0.0239933 
0.018555 -0.006109 0.0239887 
0.018577 -0.0053636 0.0239842 
0.0186 -0.0046182 0.0239796 
0.018623 -0.0038729 0.0239751 
0.018645 -0.0031275 0.0239706 
0.018668 -0.0023822 0.023966 
0.018691 -0.0016368 0.0239615 
0.018713 -0.000891399 0.0239569 
0.018736 -0.000146099 0.0239524 
0.018759 0.0005993 0.0239478 
0.018781 0.0013447 0.0239433 
0.018804 0.00209 0.0239388 
0.018827 0.0028354 0.0239342 
0.018849 0.0035807 0.0239297 
0.018872 0.0043261 0.0239251 
0.018895 0.0050715 0.0239206 
0.018917 0.0058168 0.023916 
0.01894 0.0065622 0.0239115 
0.018962 0.0073075 0.023907 
0.018985 0.0080529 0.0239024 
0.019008 0.0087983 0.0238979 
0.01903 0.0095436 0.0238933 
0.019053 0.010289 0.0238888 
0.018329 0.0111087 0.0232202 
0.018351 0.0118557 0.0232157 
0.018374 0.0126026 0.0232111 
0.018397 0.0133496 0.0232066 
0.01842 0.0140965 0.023202 
0.018442 0.0148435 0.0231975 
0.018465 0.0155904 0.0231929 
0.018488 0.0163374 0.0231883 
0.01851 0.0170844 0.0231838 
0.018533 0.0178313 0.0231792 
0.018556 0.0185783 0.0231747 
0.018578 0.0193252 0.0231701 
0.018601 0.0200722 0.0231656 
0.018624 0.0208191 0.023161 
0.018647 0.0215661 0.0231565 
0.018669 0.022313 0.0231519 
0.018692 0.02306 0.0231474 
0.017968 0.0239084 0.0224786 
0.017991 0.0246569 0.022474 
0.018014 0.0254055 0.0224695 
0.018037 0.026154 0.0224649 
0.018059 0.0269026 0.0224604 
0.018082 0.0276511 0.0224558 
0.018105 0.0283997 0.0224512 
0.018128 0.0291482 0.0224467 
0.01815 0.0298968 0.0224421 
0.018173 0.0306453 0.0224375 
0.018196 0.0313939 0.022433 
0.018219 0.0321424 0.0224284 
0.018241 0.0328909 0.0224239 
0.018264 0.0336395 0.0224193 
0.018287 0.034388 0.0224147 
0.01831 0.0351366 0.0224102 
0.018332 0.0358851 0.0224056 
0.018355 0.0366337 0.0224011 
0.017633 0.0375123 0.0217321 
0.017655 0.0382625 0.0217275 
0.017678 0.0390126 0.021723 
0.017701 0.0397627 0.0217184 
0.017724 0.0405129 0.0217138 
0.017747 0.041263 0.0217093 
0.017769 0.0420132 0.0217047 
0.017792 0.0427633 0.0217001 
0.017815 0.0435134 0.0216955 
0.017093 0.044408 0.0210265 
0.017116 0.0451597 0.0210219 
0.017139 0.0459115 0.0210173 
0.017161 0.0466632 0.0210127 
0.017184 0.0474149 0.0210082 
0.017207 0.0481667 0.0210036 
0.01723 0.0489184 0.020999 
0.017253 0.0496701 0.0209944 
0.017276 0.0504219 0.0209898 
0.017299 0.0511736 0.0209852 
0.017321 0.0519253 0.0209807 
0.017344 0.0526771 0.0209761 
0.017367 0.0534288 0.0209715 
0.01739 0.0541805 0.0209669 
0.017413 0.0549323 0.0209623 
0.017436 0.055684 0.0209578 
0.015901 -0.0104865 0.0207791 
0.017419 -0.0097942 0.0221046 
0.018189 -0.009077 0.022765 
0.018212 -0.00833 0.0227605 
0.018234 -0.0075831 0.0227559 
0.019004 -0.0068722 0.0234164 
0.01828 -0.0060892 0.0227468 
0.01905 -0.0053815 0.0234074 
0.019072 -0.0046361 0.0234028 
0.019095 -0.0038908 0.0233983 
0.019118 -0.0031454 0.0233937 
0.01914 -0.0024 0.0233892 
0.019163 -0.0016547 0.0233846 
0.019186 -0.000909302 0.0233801 
0.019208 -0.000163898 0.0233756 
0.019231 0.000581402 0.023371 
0.019254 0.0013268 0.0233665 
0.019276 0.0020721 0.0233619 
0.019299 0.0028175 0.0233574 
0.018575 0.0036213 0.0226877 
0.018598 0.0043682 0.0226831 
0.01862 0.0051152 0.0226786 
0.018643 0.0058621 0.022674 
0.018666 0.0066091 0.0226695 
0.018688 0.007356 0.0226649 
0.018711 0.008103 0.0226604 
0.018734 0.0088499 0.0226558 
0.018757 0.0095969 0.0226513 
0.018779 0.0103438 0.0226467 
0.018802 0.0110908 0.0226421 
0.018825 0.0118378 0.0226376 
0.018847 0.0125847 0.022633 
0.01887 0.0133317 0.0226285 
0.018893 0.0140786 0.0226239 
0.01817 0.0149079 0.021954 
0.018192 0.0156564 0.0219495 
0.018215 0.0164049 0.0219449 
0.018238 0.0171535 0.0219404 
0.018261 0.017902 0.0219358 
0.018283 0.0186506 0.0219312 
0.018306 0.0193991 0.0219267 
0.018329 0.0201477 0.0219221 
0.018352 0.0208962 0.0219175 
0.018374 0.0216448 0.021913 
0.018397 0.0223933 0.0219084 
0.01842 0.0231419 0.0219039 
0.018443 0.0238904 0.0218993 
0.018466 0.024639 0.0218947 
0.018488 0.0253875 0.0218902 
0.018511 0.0261361 0.0218856 
0.018534 0.0268846 0.0218811 
0.018557 0.0276332 0.0218765 
0.018579 0.0283817 0.0218719 
0.018602 0.0291303 0.0218674 
0.018625 0.0298788 0.0218628 
0.018648 0.0306274 0.0218583 
0.01867 0.0313759 0.0218537 
0.018693 0.0321244 0.0218491 
0.018716 0.032873 0.0218446 
0.017994 0.0337436 0.0211744 
0.018017 0.0344938 0.0211699 
0.01804 0.0352439 0.0211653 
0.018062 0.035994 0.0211607 
0.018085 0.0367442 0.0211562 
0.018108 0.0374943 0.0211516 
0.018131 0.0382445 0.021147 
0.018154 0.0389946 0.0211424 
0.017432 0.0398796 0.0204722 
0.017455 0.0406313 0.0204676 
0.017478 0.041383 0.020463 
0.017501 0.0421348 0.0204585 
0.017523 0.0428865 0.0204539 
0.017546 0.0436383 0.0204493 
0.017569 0.04439 0.0204447 
0.017592 0.0451417 0.0204401 
0.017615 0.0458935 0.0204356 
0.017638 0.0466452 0.020431 
0.017661 0.0473969 0.0204264 
0.017683 0.0481487 0.0204218 
0.017706 0.0489004 0.0204172 
0.017729 0.0496521 0.0204126 
0.017752 0.0504038 0.0204081 
0.017031 0.0513143 0.0197377 
0.017054 0.0520676 0.0197331 
0.017077 0.052821 0.0197285 
0.0171 0.0535743 0.0197239 
0.017123 0.0543276 0.0197193 
0.017146 0.055081 0.0197147 
0.017169 0.055834 0.0197102 
0.00954303 -0.0140821 0.0142246 
0.010313 -0.0133377 0.0148861 
0.011083 -0.0125966 0.0155476 
0.014115 -0.0111768 0.0182033 
0.017916 -0.0090636 0.0215207 
0.017939 -0.0083151 0.0215162 
0.017961 -0.0075665 0.0215116 
0.01873 -0.006854 0.0221733 
0.018753 -0.0061071 0.0221688 
0.018776 -0.0053601 0.0221642 
0.018799 -0.0046132 0.0221597 
0.018821 -0.0038662 0.0221551 
0.018844 -0.0031192 0.0221506 
0.018867 -0.0023723 0.022146 
0.018889 -0.0016253 0.0221415 
0.018912 -0.000878399 0.0221369 
0.018935 -0.000131401 0.0221324 
0.018957 0.000615501 0.0221278 
0.01898 0.0013625 0.0221233 
0.019003 0.0021094 0.0221187 
0.019026 0.0028564 0.0221142 
0.019048 0.0036033 0.0221096 
0.019071 0.0043503 0.0221051 
0.019094 0.0050973 0.0221005 
0.019116 0.0058442 0.022096 
0.019139 0.0065912 0.0220914 
0.018417 0.0074044 0.0214204 
0.018439 0.008153 0.0214158 
0.018462 0.0089015 0.0214112 
0.018485 0.0096501 0.0214067 
0.018508 0.0103986 0.0214021 
0.01853 0.0111472 0.0213976 
0.018553 0.0118957 0.021393 
0.018576 0.0126443 0.0213884 
0.018599 0.0133928 0.0213839 
0.018621 0.0141414 0.0213793 
0.018644 0.0148899 0.0213748 
0.018667 0.0156385 0.0213702 
0.017945 0.0164724 0.020699 
0.017968 0.0172226 0.0206945 
0.01799 0.0179727 0.0206899 
0.018013 0.0187228 0.0206853 
0.018036 0.019473 0.0206808 
0.018059 0.0202231 0.0206762 
0.018082 0.0209733 0.0206716 
0.018104 0.0217234 0.0206671 
0.018127 0.0224735 0.0206625 
0.01815 0.0232237 0.0206579 
0.018173 0.0239738 0.0206533 
0.018196 0.024724 0.0206488 
0.018218 0.0254741 0.0206442 
0.018241 0.0262243 0.0206396 
0.018264 0.0269744 0.0206351 
0.018287 0.0277245 0.0206305 
0.01831 0.0284747 0.0206259 
0.018332 0.0292248 0.0206213 
0.018355 0.0299749 0.0206168 
0.018378 0.0307251 0.0206122 
0.018401 0.0314752 0.0206076 
0.018424 0.0322254 0.0206031 
0.018446 0.0329755 0.0205985 
0.018469 0.0337257 0.0205939 
0.018492 0.0344758 0.0205893 
0.018515 0.0352259 0.0205848 
0.017794 0.0361029 0.0199133 
0.017817 0.0368546 0.0199088 
0.01784 0.0376064 0.0199042 
0.017863 0.0383581 0.0198996 
0.017886 0.0391098 0.019895 
0.017908 0.0398616 0.0198904 
0.017931 0.0406133 0.0198859 
0.017954 0.041365 0.0198813 
0.017977 0.0421168 0.0198767 
0.017257 0.0430097 0.0192052 
0.01728 0.043763 0.0192006 
0.017303 0.0445163 0.019196 
0.017326 0.0452696 0.0191914 
0.017348 0.046023 0.0191868 
0.017371 0.0467763 0.0191822 
0.017394 0.0475296 0.0191777 
0.017417 0.0482829 0.0191731 
0.01744 0.0490363 0.0191685 
0.017463 0.0497896 0.0191639 
0.017486 0.0505429 0.0191593 
0.017509 0.0512962 0.0191547 
0.017532 0.0520496 0.0191501 
0.017555 0.0528029 0.0191455 
0.017577 0.0535562 0.0191409 
0.0176 0.0543095 0.0191363 
0.017623 0.055063 0.0191318 
0.017646 0.055816 0.0191272 
0.004039 -0.0147186 0.00829709 
0.00704602 -0.0140201 0.010962 
0.007815 -0.0132694 0.0116248 
0.00858398 -0.0125218 0.0122875 
0.017645 -0.0090503 0.0202739 
0.017668 -0.0083002 0.0202694 
0.018436 -0.0075845 0.0209323 
0.018458 -0.0068359 0.0209277 
0.018481 -0.0060874 0.0209232 
0.018504 -0.0053388 0.0209186 
0.018527 -0.0045903 0.0209141 
0.018549 -0.0038417 0.0209095 
0.018572 -0.0030932 0.0209049 
0.018595 -0.0023446 0.0209004 
0.018618 -0.0015961 0.0208958 
0.018641 -0.0008475 0.0208912 
0.018663 -9.8999e-05 0.0208867 
0.018686 0.000649601 0.0208821 
0.018709 0.0013981 0.0208776 
0.018732 0.0021467 0.020873 
0.018754 0.0028952 0.0208684 
0.018777 0.0036437 0.0208639 
0.0188 0.0043923 0.0208593 
0.018823 0.0051408 0.0208548 
0.018845 0.0058894 0.0208502 
0.018868 0.0066379 0.0208456 
0.018891 0.0073865 0.0208411 
0.018914 0.008135 0.0208365 
0.018936 0.0088836 0.0208319 
0.018215 0.0097032 0.0201597 
0.018238 0.0104533 0.0201551 
0.01826 0.0112035 0.0201505 
0.018283 0.0119536 0.020146 
0.018306 0.0127037 0.0201414 
0.018329 0.0134539 0.0201368 
0.018352 0.014204 0.0201322 
0.018375 0.0149542 0.0201277 
0.018397 0.0157043 0.0201231 
0.01842 0.0164544 0.0201185 
0.018443 0.0172046 0.020114 
0.018466 0.0179547 0.0201094 
0.018489 0.0187049 0.0201048 
0.018511 0.019455 0.0201002 
0.018534 0.0202051 0.0200957 
0.018557 0.0209553 0.0200911 
0.01858 0.0217054 0.0200865 
0.018603 0.0224556 0.020082 
0.018625 0.0232057 0.0200774 
0.018648 0.0239558 0.0200728 
0.018671 0.024706 0.0200682 
0.018694 0.0254561 0.0200637 
0.018717 0.0262063 0.0200591 
0.018739 0.0269564 0.0200545 
0.018762 0.0277065 0.02005 
0.018785 0.0284567 0.0200454 
0.018808 0.0292068 0.0200408 
0.018831 0.029957 0.0200362 
0.018853 0.0307071 0.0200317 
0.018876 0.0314572 0.0200271 
0.018899 0.0322074 0.0200225 
0.018179 0.0330779 0.0193499 
0.018202 0.0338297 0.0193453 
0.018225 0.0345814 0.0193408 
0.018248 0.0353331 0.0193362 
0.01827 0.0360849 0.0193316 
0.018293 0.0368366 0.019327 
0.018316 0.0375883 0.0193224 
0.018339 0.0383401 0.0193178 
0.01762 0.039225 0.0186452 
0.017643 0.0399783 0.0186406 
0.017665 0.0407316 0.018636 
0.017688 0.0414849 0.0186314 
0.017711 0.0422383 0.0186268 
0.017734 0.0429916 0.0186222 
0.017757 0.0437449 0.0186176 
0.01778 0.0444983 0.018613 
0.017803 0.0452516 0.0186084 
0.017826 0.0460049 0.0186038 
0.017849 0.0467582 0.0185993 
0.017872 0.0475116 0.0185947 
0.017894 0.0482649 0.0185901 
0.017917 0.0490182 0.0185855 
0.017199 0.049927 0.0179126 
0.017222 0.0506819 0.017908 
0.017245 0.0514368 0.0179034 
0.017268 0.0521917 0.0178988 
0.01729 0.0529467 0.0178942 
0.017313 0.0537016 0.0178896 
0.017336 0.0544565 0.017885 
0.017359 0.055211 0.0178804 
0.017382 0.055966 0.0178758 
0.00229901 -0.0146819 0.00568845 
0.00455701 -0.0139584 0.00768963 
0.00532501 -0.0132013 0.00835354 
0.00683801 -0.0124705 0.00968616 
0.012864 -0.0103725 0.0150216 
0.01512 -0.0097 0.0170231 
0.016632 -0.0090059 0.018356 
0.017399 -0.0082854 0.0190201 
0.018166 -0.007568 0.0196843 
0.018189 -0.0068179 0.0196797 
0.018211 -0.0060678 0.0196751 
0.018978 -0.0053568 0.0203393 
0.019001 -0.0046082 0.0203348 
0.019024 -0.0038597 0.0203302 
0.019047 -0.0031111 0.0203256 
0.019069 -0.0023626 0.0203211 
0.019092 -0.001614 0.0203165 
0.019115 -0.000865501 0.020312 
0.019138 -0.000116901 0.0203074 
0.01916 0.000631599 0.0203028 
0.018439 0.0014337 0.0196294 
0.018462 0.0021838 0.0196248 
0.018485 0.0029339 0.0196203 
0.018508 0.0036841 0.0196157 
0.018531 0.0044342 0.0196111 
0.018553 0.0051843 0.0196066 
0.018576 0.0059345 0.019602 
0.018599 0.0066846 0.0195974 
0.018622 0.0074348 0.0195929 
0.018645 0.0081849 0.0195883 
0.018667 0.0089351 0.0195837 
0.01869 0.0096852 0.0195791 
0.018713 0.0104353 0.0195746 
0.018736 0.0111855 0.01957 
0.018016 0.0120114 0.0188964 
0.018038 0.0127631 0.0188918 
0.018061 0.0135149 0.0188873 
0.018084 0.0142666 0.0188827 
0.018107 0.0150183 0.0188781 
0.01813 0.0157701 0.0188735 
0.018153 0.0165218 0.0188689 
0.018176 0.0172735 0.0188644 
0.018198 0.0180253 0.0188598 
0.018221 0.018777 0.0188552 
0.018244 0.0195287 0.0188506 
0.018267 0.0202805 0.018846 
0.01829 0.0210322 0.0188414 
0.018313 0.0217839 0.0188369 
0.018336 0.0225357 0.0188323 
0.018358 0.0232874 0.0188277 
0.018381 0.0240391 0.0188231 
0.018404 0.0247909 0.0188185 
0.018427 0.0255426 0.018814 
0.01845 0.0262943 0.0188094 
0.018473 0.0270461 0.0188048 
0.018495 0.0277978 0.0188002 
0.018518 0.0285495 0.0187956 
0.018541 0.0293013 0.0187911 
0.018564 0.030053 0.0187865 
0.018587 0.0308047 0.0187819 
0.01861 0.0315565 0.0187773 
0.018633 0.0323082 0.0187727 
0.018655 0.0330599 0.0187682 
0.018678 0.0338117 0.0187636 
0.018701 0.0345634 0.018759 
0.017982 0.0354403 0.0180851 
0.018005 0.0361936 0.0180805 
0.018028 0.0369469 0.0180759 
0.018051 0.0377003 0.0180714 
0.018074 0.0384536 0.0180668 
0.018097 0.0392069 0.0180622 
0.01812 0.0399602 0.0180576 
0.018143 0.0407136 0.018053 
0.018166 0.0414669 0.0180484 
0.017448 0.0423597 0.0173744 
0.01747 0.0431146 0.0173698 
0.017493 0.0438696 0.0173652 
0.017516 0.0446245 0.0173606 
0.017539 0.0453794 0.017356 
0.017562 0.0461343 0.0173514 
0.017585 0.0468892 0.0173468 
0.017608 0.0476441 0.0173422 
0.017631 0.0483991 0.0173376 
0.017654 0.049154 0.017333 
0.017677 0.0499089 0.0173284 
0.0177 0.0506638 0.0173238 
0.016982 0.0515773 0.0166497 
0.017005 0.0523338 0.0166451 
0.017028 0.0530904 0.0166405 
0.017051 0.0538469 0.0166359 
0.017074 0.0546034 0.0166313 
0.017097 0.05536 0.0166267 
0.01712 0.056116 0.0166221 
0.000564026 -0.0146454 0.00307239 
0.00281897 -0.0139171 0.00507726 
0.003586 -0.0131551 0.00574238 
0.00509698 -0.0124195 0.00707743 
0.012603 -0.0103628 0.0137625 
0.014112 -0.009659 0.0150978 
0.016365 -0.0089928 0.017103 
0.017132 -0.0082707 0.0177684 
0.017898 -0.0075517 0.0184338 
0.018664 -0.0068359 0.0190992 
0.018687 -0.0060857 0.0190946 
0.01871 -0.0053356 0.01909 
0.018732 -0.0045855 0.0190855 
0.018755 -0.0038353 0.0190809 
0.018778 -0.0030852 0.0190763 
0.018801 -0.002335 0.0190718 
0.018824 -0.0015849 0.0190672 
0.018846 -0.000834801 0.0190626 
0.018869 -8.45985e-05 0.019058 
0.018892 0.000665501 0.0190535 
0.018915 0.0014157 0.0190489 
0.018938 0.0021658 0.0190443 
0.01896 0.0029159 0.0190398 
0.018983 0.0036661 0.0190352 
0.019006 0.0044162 0.0190306 
0.018286 0.0052278 0.0183559 
0.018309 0.0059795 0.0183513 
0.018332 0.0067313 0.0183467 
0.018355 0.007483 0.0183421 
0.018378 0.0082347 0.0183376 
0.018401 0.0089865 0.018333 
0.018423 0.0097382 0.0183284 
0.018446 0.0104899 0.0183238 
0.018469 0.0112416 0.0183192 
0.018492 0.0119934 0.0183147 
0.018515 0.0127451 0.0183101 
0.018538 0.0134968 0.0183055 
0.01856 0.0142486 0.0183009 
0.017842 0.0150824 0.0176261 
0.017865 0.0158358 0.0176215 
0.017887 0.0165891 0.0176169 
0.01791 0.0173424 0.0176123 
0.017933 0.0180957 0.0176077 
0.017956 0.0188491 0.0176031 
0.017979 0.0196024 0.0175985 
0.018002 0.0203557 0.0175939 
0.018025 0.021109 0.0175894 
0.018048 0.0218624 0.0175848 
0.018071 0.0226157 0.0175802 
0.018093 0.023369 0.0175756 
0.018116 0.0241223 0.017571 
0.018139 0.0248757 0.0175664 
0.018162 0.025629 0.0175618 
0.018185 0.0263823 0.0175572 
0.018208 0.0271356 0.0175526 
0.018972 0.0277798 0.0182185 
0.018995 0.0285315 0.0182139 
0.019017 0.0292832 0.0182093 
0.01904 0.030035 0.0182047 
0.018322 0.0309023 0.0175297 
0.018345 0.0316556 0.0175251 
0.018368 0.0324089 0.0175205 
0.018391 0.0331622 0.0175159 
0.018414 0.0339156 0.0175113 
0.018437 0.0346689 0.0175067 
0.01846 0.0354222 0.0175021 
0.018483 0.0361755 0.0174975 
0.018506 0.0369289 0.017493 
0.017788 0.0378121 0.0168178 
0.017811 0.038567 0.0168132 
0.017834 0.0393219 0.0168086 
0.017857 0.0400769 0.016804 
0.01788 0.0408318 0.0167994 
0.017903 0.0415867 0.0167948 
0.017926 0.0423416 0.0167902 
0.017949 0.0430965 0.0167856 
0.017972 0.0438515 0.016781 
0.017255 0.0447506 0.0161058 
0.017278 0.0455071 0.0161011 
0.017301 0.0462636 0.0160965 
0.017324 0.0470201 0.0160919 
0.017347 0.0477766 0.0160873 
0.01737 0.0485331 0.0160827 
0.017393 0.0492897 0.0160781 
0.017416 0.0500462 0.0160735 
0.017439 0.0508027 0.0160689 
0.017462 0.0515592 0.0160643 
0.017485 0.0523157 0.0160597 
0.017508 0.0530722 0.016055 
0.017531 0.0538287 0.0160504 
0.016815 0.0547502 0.0153751 
0.016838 0.055508 0.0153704 
0.016861 0.056266 0.0153658 
-0.00118903 -0.0154023 0.000453798 
0.00106403 -0.0146643 0.00246229 
0.002573 -0.0139159 0.00379973 
0.00333899 -0.0131523 0.00446608 
0.00410602 -0.0123919 0.00513244 
0.013852 -0.0096477 0.0138387 
0.016102 -0.0089798 0.0158476 
0.017609 -0.0082887 0.0171854 
0.018374 -0.0075697 0.017852 
0.018397 -0.006818 0.0178474 
0.01842 -0.0060662 0.0178428 
0.018443 -0.0053145 0.0178383 
0.018466 -0.0045628 0.0178337 
0.018488 -0.003811 0.0178291 
0.018511 -0.0030593 0.0178245 
0.018534 -0.0023076 0.0178199 
0.018557 -0.0015558 0.0178154 
0.01858 -0.0008041 0.0178108 
0.018603 -5.23987e-05 0.0178062 
0.018626 0.000699402 0.0178016 
0.018648 0.0014511 0.017797 
0.018671 0.0022028 0.0177925 
0.018694 0.0029546 0.0177879 
0.018717 0.0037063 0.0177833 
0.01874 0.004458 0.0177787 
0.018763 0.0052098 0.0177741 
0.018785 0.0059615 0.0177696 
0.018808 0.0067132 0.017765 
0.018831 0.007465 0.0177604 
0.018113 0.0082844 0.0170844 
0.018136 0.0090378 0.0170798 
0.018159 0.0097911 0.0170752 
0.018182 0.0105444 0.0170706 
0.018204 0.0112977 0.017066 
0.018227 0.0120511 0.0170615 
0.01825 0.0128044 0.0170569 
0.018273 0.0135577 0.0170523 
0.018296 0.014311 0.0170477 
0.018319 0.0150644 0.0170431 
0.018342 0.0158177 0.0170385 
0.018365 0.016571 0.0170339 
0.018388 0.0173243 0.0170293 
0.01841 0.0180777 0.0170247 
0.018433 0.018831 0.0170201 
0.017716 0.019676 0.016344 
0.018479 0.0203377 0.017011 
0.018502 0.021091 0.0170064 
0.018525 0.0218443 0.0170018 
0.018548 0.0225976 0.0169972 
0.018571 0.023351 0.0169926 
0.018594 0.0241043 0.016988 
0.018617 0.0248576 0.0169834 
0.018639 0.0256109 0.0169788 
0.018662 0.0263643 0.0169742 
0.018685 0.0271176 0.0169696 
0.018708 0.0278709 0.016965 
0.018731 0.0286242 0.0169605 
0.018754 0.0293776 0.0169559 
0.018777 0.0301309 0.0169513 
0.0188 0.0308842 0.0169467 
0.018823 0.0316375 0.0169421 
0.018846 0.0323909 0.0169375 
0.018868 0.0331442 0.0169329 
0.018891 0.0338975 0.0169283 
0.018175 0.0347743 0.016252 
0.018198 0.0355293 0.0162474 
0.018221 0.0362842 0.0162428 
0.018244 0.0370391 0.0162382 
0.018267 0.037794 0.0162336 
0.018289 0.0385489 0.016229 
0.017573 0.0394369 0.0155526 
0.017596 0.0401934 0.015548 
0.017619 0.0409499 0.0155434 
0.017642 0.0417064 0.0155387 
0.017665 0.0424629 0.0155341 
0.017688 0.0432194 0.0155295 
0.017711 0.043976 0.0155249 
0.017734 0.0447325 0.0155203 
0.017757 0.045489 0.0155157 
0.01778 0.0462455 0.0155111 
0.017803 0.047002 0.0155065 
0.017826 0.0477585 0.0155019 
0.017849 0.048515 0.0154973 
0.017872 0.0492715 0.0154926 
0.017157 0.0501834 0.0148161 
0.01718 0.0509415 0.0148115 
0.017203 0.0516996 0.0148069 
0.017226 0.0524577 0.0148022 
0.017249 0.0532158 0.0147976 
0.017272 0.0539739 0.014793 
0.017295 0.054732 0.0147884 
0.017318 0.05549 0.0147838 
0.017341 0.056248 0.0147791 
-0.000685974 -0.0154214 -0.000160005 
0.00156299 -0.0146832 0.00185218 
0.00307001 -0.0139347 0.00319208 
0.003836 -0.0131711 0.00385967 
0.00460101 -0.0124106 0.00452726 
0.006849 -0.0117027 0.00653963 
0.00983899 -0.0110307 0.00922447 
0.012086 -0.0103436 0.011237 
0.01584 -0.0089669 0.0145897 
0.017345 -0.0082741 0.01593 
0.018109 -0.0075535 0.0165978 
0.018132 -0.0068001 0.0165932 
0.018155 -0.0060468 0.0165886 
0.018178 -0.0052935 0.016584 
0.018201 -0.0045401 0.0165795 
0.018224 -0.0037868 0.0165749 
0.018247 -0.0030335 0.0165703 
0.01827 -0.0022802 0.0165657 
0.018293 -0.0015268 0.0165611 
0.018315 -0.000773499 0.0165565 
0.018338 -2.01988e-05 0.0165519 
0.018361 0.000733101 0.0165473 
0.018384 0.0014865 0.0165427 
0.018407 0.0022398 0.0165381 
0.01843 0.0029931 0.0165336 
0.018453 0.0037464 0.016529 
0.018476 0.0044998 0.0165244 
0.018499 0.0052531 0.0165198 
0.018521 0.0060064 0.0165152 
0.018544 0.0067597 0.0165106 
0.018567 0.0075131 0.016506 
0.01859 0.0082664 0.0165014 
0.018613 0.0090197 0.0164968 
0.018636 0.009773 0.0164922 
0.017919 0.0105989 0.015815 
0.017942 0.0113538 0.0158104 
0.017965 0.0121087 0.0158058 
0.017988 0.0128636 0.0158012 
0.018011 0.0136185 0.0157966 
0.018034 0.0143734 0.015792 
0.018056 0.0151284 0.0157874 
0.018079 0.0158833 0.0157828 
0.018102 0.0166382 0.0157782 
0.018125 0.0173931 0.0157736 
0.018148 0.018148 0.015769 
0.018171 0.018903 0.0157644 
0.018194 0.0196579 0.0157598 
0.018217 0.0204128 0.0157552 
0.01824 0.0211677 0.0157506 
0.018263 0.0219226 0.015746 
0.018286 0.0226775 0.0157414 
0.018309 0.0234325 0.0157368 
0.018332 0.0241874 0.0157322 
0.018355 0.0249423 0.0157276 
0.018378 0.0256972 0.015723 
0.018401 0.0264521 0.0157184 
0.018424 0.027207 0.0157138 
0.018447 0.027962 0.0157092 
0.018469 0.0287169 0.0157046 
0.018492 0.0294718 0.0157 
0.018515 0.0302267 0.0156954 
0.018538 0.0309816 0.0156908 
0.018561 0.0317366 0.0156862 
0.018584 0.0324915 0.0156816 
0.018607 0.0332464 0.015677 
0.01863 0.0340013 0.0156724 
0.018653 0.0347562 0.0156678 
0.018676 0.0355112 0.0156632 
0.017961 0.0363927 0.0149856 
0.017984 0.0371492 0.0149809 
0.018007 0.0379057 0.0149763 
0.01803 0.0386622 0.0149717 
0.018053 0.0394188 0.0149671 
0.018076 0.0401753 0.0149625 
0.018099 0.0409318 0.0149579 
0.018122 0.0416883 0.0149533 
0.018145 0.0424448 0.0149487 
0.018168 0.0432013 0.0149441 
0.017453 0.0441004 0.0142664 
0.017476 0.0448585 0.0142617 
0.017499 0.0456166 0.0142571 
0.017522 0.0463747 0.0142525 
0.017545 0.0471328 0.0142479 
0.017568 0.0478909 0.0142433 
0.017591 0.048649 0.0142386 
0.017614 0.0494071 0.014234 
0.017637 0.0501652 0.0142294 
0.01766 0.0509233 0.0142248 
0.017683 0.0516814 0.0142202 
0.017706 0.0524395 0.0142156 
0.016992 0.0533593 0.0135377 
0.017015 0.054119 0.0135331 
0.017038 0.0548787 0.0135284 
0.017061 0.055638 0.0135238 
0.017084 0.056398 0.0135192 
0.00132202 -0.0146838 0.00056851 
0.00282703 -0.0139337 0.00191087 
0.00359198 -0.0131684 0.00257966 
0.00435602 -0.0124063 0.00324849 
0.00660101 -0.0116967 0.00526455 
0.00884601 -0.0109967 0.00728067 
0.011091 -0.0103062 0.00929687 
0.01558 -0.008954 0.0133294 
0.017083 -0.0082596 0.0146721 
0.017846 -0.0075373 0.0153411 
0.01861 -0.0068182 0.0160102 
0.018632 -0.0060649 0.0160056 
0.018655 -0.0053115 0.0160011 
0.018678 -0.0045582 0.0159965 
0.018701 -0.0038049 0.0159919 
0.018724 -0.0030516 0.0159873 
0.018747 -0.0022982 0.0159827 
0.01877 -0.0015449 0.0159781 
0.018793 -0.000791599 0.0159735 
0.018816 -3.82996e-05 0.0159689 
0.018839 0.000715099 0.0159643 
0.018861 0.0014684 0.0159597 
0.018884 0.0022217 0.0159552 
0.018907 0.002975 0.0159506 
0.018191 0.0037865 0.0152721 
0.018214 0.0045414 0.0152675 
0.018237 0.0052963 0.0152629 
0.018259 0.0060512 0.0152583 
0.018282 0.0068062 0.0152537 
0.018305 0.0075611 0.0152491 
0.018328 0.008316 0.0152445 
0.018351 0.0090709 0.0152399 
0.018374 0.0098258 0.0152353 
0.018397 0.0105807 0.0152307 
0.01842 0.0113357 0.0152261 
0.017704 0.0121662 0.0145476 
0.017727 0.0129227 0.014543 
0.01775 0.0136792 0.0145384 
0.017773 0.0144358 0.0145338 
0.017796 0.0151923 0.0145292 
0.017819 0.0159488 0.0145246 
0.017842 0.0167053 0.01452 
0.017865 0.0174618 0.0145154 
0.017888 0.0182183 0.0145107 
0.017911 0.0189748 0.0145061 
0.017934 0.0197313 0.0145015 
0.017957 0.0204878 0.0144969 
0.01798 0.0212444 0.0144923 
0.018003 0.0220009 0.0144877 
0.018026 0.0227574 0.0144831 
0.018049 0.0235139 0.0144785 
0.018072 0.0242704 0.0144739 
