# .PCD v0.7 - Point Cloud Data file format
VERSION 0.7
FIELDS x y z
SIZE 4 4 4
TYPE F F F
COUNT 1 1 1
WIDTH 1356
HEIGHT 1
VIEWPOINT 0 0 0 1 0 0 0
POINTS 1356
DATA ascii
0.60595995 0.014210034 0.022019479
0.60672528 0.014975272 0.022682618
0.60750431 0.016490884 0.023347899
0.60826957 0.017248156 0.024011016
0.60903472 0.01800224 0.024674142
0.60904837 0.018752614 0.024676263
0.60981345 0.019501921 0.025339358
0.60982704 0.0202507 0.025341475
0.60984063 0.020999482 0.025343591
0.60985422 0.021748262 0.025345709
0.60986787 0.022497043 0.025347827
0.60988146 0.023245823 0.025349945
0.60989505 0.023994604 0.025352063
0.60915738 0.024755605 0.024693239
0.60917103 0.025505979 0.024695361
0.60918468 0.026256353 0.024697484
0.60919827 0.027006725 0.024699606
0.60846078 0.027775692 0.024040787
0.60847443 0.028527658 0.024042912
0.60848808 0.029279627 0.024045039
0.60850173 0.030031594 0.024047166
0.60776436 0.030808525 0.023388388
0.60777807 0.031562086 0.023390519
0.60779178 0.032315645 0.023392649
0.60705447 0.033098951 0.022733871
0.60706818 0.033854105 0.022736005
0.60633105 0.034642186 0.022077261
0.60634482 0.035398934 0.022079401
0.60635853 0.036155682 0.022081541
0.60562152 0.036950137 0.021422811
0.60563529 0.037708476 0.021424957
0.60564905 0.038466815 0.021427101
0.6049121 0.039267644 0.020768372
0.60492587 0.040027577 0.020770522
0.60418904 0.040833186 0.020111823
0.60420287 0.041594714 0.020113977
0.60421675 0.042356238 0.02011613
0.60347998 0.043168221 0.019457433
0.60349387 0.043931339 0.019459592
0.60275722 0.044748101 0.018800925
0.6027711 0.04551281 0.018803088
0.60278499 0.046277523 0.018805251
0.60204846 0.047100656 0.018146586
0.60206234 0.047866967 0.018148752
0.60207629 0.04863327 0.01815092
0.60133988 0.049462773 0.017492289
0.60135382 0.050230671 0.017494461
0.60136777 0.050998572 0.017496632
0.60063148 0.051834449 0.016838022
0.60064548 0.052603941 0.016840197
0.60065943 0.05337343 0.016842375
0.59992325 0.054215685 0.016183762
0.59993726 0.054986767 0.016185943
0.59995127 0.055757854 0.016188124
0.59921521 0.056606475 0.015529548
0.59922922 0.057379156 0.015531733
0.59849322 0.058232561 0.014873154
0.59850729 0.059006833 0.014875343
0.59777141 0.059865013 0.014216794
0.59778553 0.060640872 0.014218988
0.5977996 0.061416741 0.014221182
0.59706384 0.062281299 0.013562634
0.59707797 0.063058756 0.013564833
0.59634227 0.06392809 0.012906315
0.59635639 0.064707138 0.012908518
0.59637058 0.065486185 0.012910721
0.595635 0.066361897 0.012252224
0.59564918 0.067142539 0.012254431
0.59491366 0.068023026 0.011595926
0.59492791 0.06880527 0.011598138
0.5941925 0.069690533 0.010939668
0.59420675 0.070474356 0.010941884
0.59422094 0.071258187 0.010944101
0.59348565 0.072149828 0.010285628
0.59349996 0.072935253 0.010287848
0.59276474 0.07383167 0.0096294098
0.59277904 0.07461869 0.0096316347
0.59204394 0.07551989 0.0089731906
0.59205824 0.076308496 0.0089754201
0.5913232 0.077214472 0.0083170068
0.59133756 0.078004673 0.008319241
0.59135193 0.078794874 0.0083214762
0.590617 0.079707228 0.0076630819
0.59063143 0.080499023 0.0076653208
0.58989656 0.081416152 0.0070069199
0.58991098 0.082209542 0.0070091635
0.58992541 0.083002932 0.0070114071
0.58919072 0.083926432 0.0063530444
0.58920515 0.084721409 0.0063552926
0.58847052 0.085649692 0.0056969435
0.588485 0.086446263 0.0056991959
0.58700144 0.087515816 0.0043802313
0.58551806 0.088591732 0.0030613255
0.58328581 0.089813702 0.0010818177
0.58105367 0.091045223 -0.00089766172
0.58206522 -0.0055056135 0.00018632151
0.5843339 -0.0045576622 0.002175669
0.59038752 -0.0018131252 0.0074811629
0.59719092 0.00089212542 0.013448774
0.59870726 0.0017391668 0.014775608
0.59947234 0.0025458427 0.015440098
0.60098851 0.0033817324 0.0167669
0.60100245 0.0041496307 0.016769072
0.6010164 0.0049175294 0.016771244
0.60178131 0.0057130517 0.017435702
0.6017952 0.006479356 0.017437868
0.60180914 0.0072456622 0.017440036
0.60182303 0.0080119679 0.017442202
0.60183698 0.0087782722 0.01744437
0.60260171 0.0095642367 0.018108822
0.60261559 0.010328948 0.018110985
0.60338026 0.011110133 0.018775402
0.60339415 0.011873251 0.01877756
0.60490942 0.012662941 0.020104231
0.60567391 0.013434566 0.020768642
0.60643834 0.014203004 0.021433024
0.60645211 0.01495975 0.021435164
0.60721642 0.015723409 0.022099534
0.60798073 0.016483882 0.022763913
0.60874492 0.017241169 0.023428265
0.60875857 0.017993135 0.02343039
0.60952276 0.018745642 0.024094747
0.60953635 0.019496016 0.024096869
0.60955 0.02024639 0.02409899
0.60956365 0.020996762 0.024101114
0.60957724 0.021747136 0.024103235
0.60959089 0.022497511 0.024105357
0.60960454 0.023247885 0.024107479
0.60961813 0.023998259 0.024109602
0.60963178 0.024748633 0.024111724
0.60964543 0.025499007 0.024113845
0.60890883 0.026264772 0.023453781
0.60892248 0.027016738 0.023455909
0.60893613 0.027768705 0.023458036
0.60894984 0.028520672 0.023460161
0.60821342 0.029294403 0.02280014
0.60822707 0.030047962 0.022802271
0.60824078 0.030801523 0.022804402
0.60750449 0.031581629 0.022144379
0.6075182 0.032336783 0.022146516
0.60678196 0.033121664 0.021486524
0.60679573 0.033878408 0.021488665
0.60680944 0.034635156 0.021490805
0.60607338 0.035426412 0.020830832
0.60608715 0.03618475 0.020832978
0.60610092 0.036943089 0.020835122
0.60536492 0.037740719 0.02017515
0.60537875 0.038500652 0.020177297
0.60539252 0.039260585 0.020179447
0.60465664 0.040064584 0.019519512
0.60467052 0.040826112 0.019521667
0.60393471 0.041634891 0.018861724
0.60394859 0.042398009 0.018863881
0.60396242 0.043161131 0.01886604
0.60322678 0.043976281 0.018206136
0.60324067 0.044740997 0.018208299
0.60325456 0.045505706 0.018210461
0.60251898 0.046327233 0.017550554
0.60253292 0.047093537 0.017552722
0.60179746 0.047919843 0.01689285
0.60181141 0.048687741 0.016895022
0.60182536 0.049455639 0.016897192
0.60109001 0.050288316 0.016237339
0.60110396 0.051057808 0.016239515
0.60111797 0.0518273 0.01624169
0.60038269 0.052666351 0.015581834
0.60039669 0.053437434 0.015584015
0.59966159 0.054281265 0.014924192
0.5996756 0.055053942 0.014926377
0.59968966 0.055826619 0.014928562
0.59895462 0.056676824 0.014268737
0.59896868 0.057451095 0.014270927
0.59823376 0.058306076 0.013611135
0.59824783 0.059081938 0.013613329
0.59826189 0.059857804 0.013615523
0.59752709 0.060719159 0.012955731
0.59754121 0.061496615 0.01295793
0.59680647 0.062362749 0.012298169
0.59682059 0.0631418 0.012300372
0.59683478 0.063920848 0.012302575
0.59610015 0.064793356 0.011642834
0.59611434 0.065573998 0.011645041
0.59537977 0.066451281 0.010985294
0.59539402 0.067233525 0.010987506
0.5954082 0.068015762 0.010989718
0.59467381 0.068899415 0.010330007
0.594688 0.069683246 0.010332224
0.59395367 0.070571691 0.0096725086
0.59396791 0.071357109 0.0096747288
0.5932337 0.072250329 0.0090150451
0.59324801 0.073037341 0.009017271
0.59326231 0.073824354 0.0090194969
0.59252816 0.074723952 0.0083598122
0.59254247 0.075512558 0.0083620427
0.59180844 0.076416932 0.0077023902
0.5918228 0.077207133 0.0077046249
0.59108883 0.078116275 0.0070449873
0.5911032 0.078908071 0.0070472267
0.59036934 0.079821996 0.0063875811
0.59038377 0.080615394 0.0063898247
0.59039813 0.081408784 0.0063920682
0.5896644 0.08232908 0.0057324627
0.58967882 0.083124064 0.005734711
0.58969331 0.083919048 0.0057369592
0.58895963 0.084845714 0.00507737
0.58822602 0.085775584 0.0044177505
0.58824056 0.08657375 0.0044200076
0.58675909 0.087644853 0.0030986187
0.58527774 0.088722333 0.0017772479
0.58304852 0.089945853 -0.00020596024
0.58156735 0.091037676 -0.0015273297
0.58182555 -0.0055614677 -0.0011032234
0.58334088 -0.0046586366 0.00022621696
0.58485609 -0.0037621751 0.0015556784
0.59013689 -0.001862444 0.006205217
0.59843153 0.00092211278 0.01351105
0.59994584 0.0017675915 0.01484035
0.60070992 0.0025726894 0.01550609
0.60147393 0.0033745975 0.016171802
0.60223794 0.0041733212 0.016837504
0.60225183 0.0049396255 0.01683967
0.60226578 0.0057059317 0.016841838
0.60302961 0.0064982818 0.017507542
0.6030435 0.0072629941 0.017509704
0.60305738 0.0080277082 0.017511867
0.60307127 0.0087924199 0.01751403
0.60308516 0.0095571317 0.017516192
0.60384887 0.010339921 0.018181849
0.6038627 0.011103042 0.018184008
0.6046263 0.011881054 0.018849671
0.60538983 0.012655879 0.019515306
0.60615337 0.013427519 0.020180952
0.60691679 0.014195972 0.02084657
0.60693049 0.014952719 0.020848708
0.60769385 0.015716393 0.021514311
0.60845715 0.016476881 0.022179926
0.60922033 0.017234182 0.02284551
0.60923398 0.017986149 0.022847638
0.60999715 0.01873867 0.02351323
0.61001074 0.019489044 0.023515351
0.61002439 0.020239418 0.023517473
0.61003804 0.020989791 0.023519594
0.61005163 0.021740165 0.023521718
0.61006528 0.022490539 0.023523839
0.61007893 0.023240913 0.023525961
0.61009252 0.023991287 0.023528082
0.60935694 0.024753852 0.022866776
0.60937059 0.025505818 0.022868901
0.60938424 0.026257785 0.022871029
0.60939789 0.027009752 0.022873156
0.60866243 0.027780281 0.022211891
0.60867614 0.028533842 0.022214022
0.60868979 0.029287402 0.022216152
0.60795444 0.030064305 0.021554887
0.60796815 0.030819457 0.021557022
0.60798186 0.031574611 0.021559158
0.60724664 0.032357886 0.020897929
0.60726041 0.033114634 0.020900069
0.60727412 0.033871379 0.020902209
0.60653901 0.034661025 0.020240998
0.60655278 0.035419367 0.020243142
0.60656655 0.036177706 0.020245286
0.60583156 0.036973726 0.019584075
0.60584533 0.037733659 0.019586224
0.60511047 0.038534459 0.018925045
0.60512429 0.039295983 0.018927198
0.60513812 0.04005751 0.018929351
0.60440326 0.040864684 0.01826817
0.60441715 0.041627802 0.018270329
0.60368246 0.042439751 0.017609181
0.60369635 0.043204464 0.017611343
0.60371023 0.043969177 0.017613506
0.60297561 0.044787504 0.016952356
0.60298949 0.045553807 0.016954524
0.60225505 0.04637691 0.016293408
0.60226899 0.047144808 0.016295578
0.60228294 0.047912709 0.01629775
0.60154849 0.048742183 0.015636653
0.6015625 0.049511675 0.015638828
0.60082817 0.050345931 0.014977724
0.60084218 0.051117018 0.014979905
0.60085618 0.051888101 0.014982086
0.60012197 0.052728727 0.014321019
0.60013604 0.053501405 0.014323204
0.60015005 0.054274086 0.014325389
0.59941596 0.055121087 0.01366432
0.59943002 0.055895358 0.01366651
0.59869605 0.056747139 0.013005476
0.59871012 0.057523005 0.013007669
0.59872425 0.058298867 0.013009863
0.59799033 0.059157021 0.012348828
0.59800446 0.059934478 0.012351026
0.59801859 0.060711935 0.012353225
0.59728485 0.06157646 0.011692226
0.59729898 0.062355511 0.011694429
0.59656531 0.063224815 0.011033442
0.59657949 0.064005457 0.01103565
0.59584588 0.064879544 0.010374659
0.59586012 0.065661781 0.010376872
0.59587431 0.066444017 0.010379083
0.59514087 0.067324474 0.0097181294
0.59515506 0.068108305 0.009720346
0.59516931 0.068892136 0.0097225625
0.59443593 0.069778964 0.0090616066
0.59445024 0.070564389 0.0090638278
0.59371698 0.071455993 0.0084029054
0.59373122 0.072243012 0.0084051313
0.59299809 0.073139399 0.0077442024
0.59301239 0.073928013 0.0077464324
0.59227931 0.074829184 0.0070855371
0.59229362 0.075619385 0.0070877718
0.59230798 0.076409586 0.0070900065
0.59157503 0.077317126 0.0064291293
0.59158939 0.078108922 0.0064313686
0.59085649 0.079021245 0.0057704845
0.59087092 0.079814628 0.005772728
0.59013814 0.080731727 0.0051118778
0.59015256 0.081526712 0.005114126
0.59016699 0.082321696 0.0051163742
0.58943433 0.083245166 0.0044555422
0.58944881 0.084041737 0.0044577946
0.58871615 0.084969997 0.0037969372
0.58873063 0.085768163 0.0037991942
0.58799815 0.086701192 0.0031383892
0.58726567 0.08763741 0.0024775916
0.58503932 0.08885292 0.00049065897
0.58356017 0.089938328 -0.00083315879
0.58310121 -0.0047128969 -0.0010633219
0.58386517 -0.0038599926 -0.0003962325
0.58687681 -0.0028795202 0.0022652938
0.58988822 -0.0019117938 0.0049267826
0.59967017 0.00095213117 0.013575818
0.6011824 0.0017960472 0.014907582
0.60194546 0.0025995662 0.015574532
0.60270846 0.003399895 0.016241474
0.6034714 0.0041970406 0.016908426
0.60348529 0.0049617528 0.016910588
0.60349917 0.0057264646 0.016912751
0.60351306 0.0064911768 0.016914913
0.60352695 0.0072558885 0.016917076
0.60354084 0.0080206031 0.016919238
0.60355473 0.0087853149 0.016921401
0.60431743 0.0095697129 0.017588299
0.60433131 0.010332831 0.017590456
0.6050939 0.011112453 0.018257359
0.60510778 0.011873979 0.018259512
0.60587031 0.012648819 0.018926382
0.60588408 0.013408752 0.01892853
0.60664654 0.014178813 0.019595407
0.60740894 0.014945688 0.020262253
0.60817122 0.015709376 0.020929093
0.60893351 0.016469879 0.02159594
0.60894722 0.017223438 0.021598071
0.60970938 0.017979162 0.022264887
0.60972303 0.018731128 0.022267012
0.61048514 0.019482072 0.022933835
0.61049879 0.020232445 0.022935957
0.61051244 0.020982819 0.02293808
0.61052603 0.021733193 0.022940202
0.60979134 0.022490963 0.022277646
0.60980499 0.02324293 0.022279771
0.60981864 0.023994897 0.022281898
0.60983229 0.024746865 0.022284025
0.60984594 0.025498832 0.022286151
0.60911143 0.026266159 0.021623643
0.60912514 0.027019721 0.021625774
0.60913885 0.02777328 0.021627905
0.6091525 0.028526841 0.021630036
0.60841811 0.029302135 0.020967532
0.60843182 0.030057289 0.020969667
0.60769755 0.030837361 0.020307194
0.60771132 0.031594109 0.020309333
0.60772502 0.032350853 0.020311473
0.60699087 0.033137303 0.019649019
0.60700464 0.033895642 0.019651165
0.60701841 0.03465398 0.019653309
0.60628438 0.0354468 0.018990852
0.60629815 0.036206733 0.018993001
0.60631198 0.036966667 0.018995149
0.60557806 0.037765857 0.018332733
0.60559189 0.038527381 0.018334886
0.60485798 0.039331354 0.017672462
0.60487187 0.040094472 0.017674619
0.6048857 0.040857591 0.017676778
0.60415202 0.041667938 0.01701439
0.60416591 0.042432647 0.017016552
0.60343224 0.043247771 0.01635416
0.60344613 0.044014078 0.016356327
0.60271257 0.044833981 0.015693966
0.60272652 0.045601878 0.015696138
0.60274047 0.046369776 0.01569831
0.60200703 0.047196049 0.015035969
0.60202104 0.047965541 0.015038145
0.60128766 0.048796598 0.014375797
0.60130167 0.049567685 0.014377978
0.60131568 0.050338767 0.014380159
0.60058242 0.051176194 0.013717848
0.60059643 0.051948871 0.013720033
0.59986329 0.052791081 0.013057716
0.59987736 0.053565349 0.013059906
0.59989142 0.054339621 0.013062095
0.59915835 0.055188201 0.012399816
0.59917247 0.055964064 0.01240201
0.59918654 0.05673993 0.012404204
0.59845358 0.057594884 0.011741924
0.59846771 0.058372337 0.011744123
0.59848183 0.059149798 0.011746322
0.59774905 0.060011119 0.01108408
0.59776318 0.06079017 0.011086283
0.59703046 0.061656274 0.010424053
0.59704465 0.06243692 0.010426261
0.59705883 0.063217565 0.010428469
0.59632623 0.064090043 0.0097662378
0.59634042 0.064872272 0.0097684497
0.59560794 0.065749533 0.0091062514
0.59562212 0.066533357 0.009108468
0.59563637 0.067317195 0.0091106845
0.59490395 0.068200827 0.0084484862
0.59491825 0.068986244 0.0084507065
0.59418595 0.069874652 0.0077885417
0.59420019 0.070661671 0.0077907671
0.5942145 0.071448684 0.007792993
0.59348232 0.072343469 0.007130824
0.59349662 0.073132075 0.0071330541
0.5927645 0.074031636 0.0064709205
0.59277886 0.074821837 0.0064731552
0.59204686 0.075726181 0.0058110333
0.59206122 0.076517969 0.0058132727
0.59132928 0.077427097 0.0051511456
0.59134364 0.078220479 0.0051533892
0.59135807 0.079013869 0.0051556327
0.59062624 0.079929359 0.0044935443
0.59064072 0.080724336 0.0044957926
0.58990896 0.081644617 0.003833716
0.58992344 0.082441188 0.0038359687
0.58919173 0.083366245 0.0031738665
0.58920622 0.084164411 0.0031761236
0.58922076 0.084962584 0.0031783807
0.58848923 0.085894004 0.0025163372
0.58775777 0.086828612 0.0018543011
0.5870263 0.087766401 0.0011922756
0.585549 0.088845424 -0.00013407014
0.58964157 -0.00196117 0.0036458995
0.59414512 -0.00092370959 0.0076443497
0.60090679 0.00098217966 0.013643036
0.60166889 0.0017888976 0.01431125
0.60317898 0.0026264708 0.015645444
0.60394096 0.0034252235 0.016313635
0.60395485 0.0041899355 0.016315797
0.60471672 0.004983908 0.016983956
0.60473055 0.0057470277 0.016986113
0.60474443 0.0065101455 0.016988272
0.60475832 0.0072732656 0.016990431
0.60477215 0.0080363853 0.016992588
0.60478604 0.0087995045 0.016994746
0.60479987 0.0095626228 0.016996903
0.60556155 0.010343851 0.017665047
0.60557538 0.011105377 0.0176672
0.60633689 0.011881826 0.018335309
0.60635072 0.012641758 0.018337458
0.60711217 0.013413427 0.019005572
0.60787356 0.01418191 0.019673659
0.60788733 0.014938656 0.019675799
0.60864866 0.015702359 0.020343872
0.60940993 0.016462877 0.021011954
0.60942358 0.017216437 0.021014085
0.61018479 0.017972175 0.021682136
0.61019844 0.018724142 0.021684261
0.61021209 0.019476108 0.021686388
0.61022574 0.020228075 0.021688515
0.61023939 0.020980043 0.021690641
0.61025304 0.02173201 0.021692768
0.61026675 0.022483977 0.021694895
0.61028039 0.023235943 0.02169702
0.60954678 0.023998478 0.021033265
0.60956049 0.024752038 0.021035396
0.60957414 0.025505599 0.021037526
0.60958785 0.026259158 0.021039657
0.60885435 0.02702966 0.020375904
0.60886812 0.027784811 0.02037804
0.60888183 0.028539965 0.020380175
0.60889554 0.029295119 0.020382311
0.60816222 0.030073585 0.019718599
0.60817599 0.030830331 0.019720739
0.6081897 0.031587075 0.019722879
0.60745651 0.032371916 0.019059187
0.60747033 0.033130255 0.019061331
0.6074841 0.033888593 0.019063475
0.60675097 0.034679808 0.018399779
0.60676479 0.035439737 0.018401928
0.60603184 0.036235727 0.017738266
0.60604566 0.036997255 0.017740419
0.60605949 0.037758783 0.017742574
0.60532659 0.038561143 0.01707891
0.60534042 0.039324265 0.017081067
0.60460764 0.040131405 0.016417436
0.60462153 0.040896118 0.016419599
0.60463542 0.04166083 0.016421761
0.60390276 0.042474348 0.015758131
0.6039167 0.043240651 0.015760297
0.6031841 0.044058945 0.015096699
0.60319805 0.044826847 0.015098871
0.603212 0.045594741 0.015101042
0.60247952 0.046419408 0.014437461
0.60249352 0.0471889 0.014439637
0.6017611 0.048018351 0.01377605
0.60177511 0.048789434 0.01377823
0.60104281 0.049623661 0.013114676
0.60105687 0.050396338 0.013116862
0.60032463 0.051235344 0.012453301
0.6003387 0.052009616 0.01245549
0.60035276 0.052783884 0.01245768
0.5996207 0.053629264 0.011794157
0.59963477 0.05440513 0.011796352
0.59964889 0.055180993 0.011798546
0.59891689 0.056032743 0.011135023
0.59893101 0.0568102 0.011137221
0.59894514 0.057587657 0.01113942
0.59821326 0.058445781 0.010475934
0.59822744 0.059224829 0.010478137
0.59749562 0.060087733 0.0098146638
0.5975098 0.060868375 0.009816872
0.59752399 0.061649021 0.0098190792
0.59679234 0.062518299 0.0091556041
0.59680653 0.063300535 0.0091578159
0.596075 0.064174592 0.0084943753
0.59608918 0.064958416 0.0084965918
0.59610343 0.065742247 0.0084988084
0.59537196 0.066622674 0.0078353649
0.59538627 0.0674081 0.0078375861
0.59465486 0.068293311 0.0071741762
0.59466916 0.069080323 0.007176402
0.59468347 0.069867343 0.0071786274
0.59395218 0.070758924 0.006515217
0.59396654 0.071547531 0.0065174471
0.59323537 0.072443888 0.0058540693
0.59324974 0.073234089 0.0058563035
0.59326404 0.07402429 0.0058585382
0.59253305 0.074927025 0.0051951781
0.59254742 0.07571882 0.0051974175
0.59181643 0.076626331 0.0045340504
0.59183085 0.077419721 0.0045362944
0.59109998 0.078332014 0.003872961
0.5911144 0.079126991 0.0038752093
0.59038365 0.080044061 0.0032118896
0.59039807 0.080840632 0.0032141423
0.58966738 0.081762493 0.0025507973
0.58968186 0.082560658 0.0025530544
0.58969635 0.083358832 0.0025553114
0.58896577 0.084287047 0.0018920235
0.58898032 0.085086808 0.0018942852
0.5882498 0.086019814 0.0012310107
0.58826435 0.086821161 0.0012332768
0.58678895 0.087895371 -9.5511277e-05
0.58531368 0.088975951 -0.0014243219
0.58639354 -0.002981609 -0.00030882869
0.59014416 -0.0019685563 0.0030298124
0.59464163 -0.00093100715 0.0070356713
0.59839165 4.8590457e-05 0.010374219
0.60214138 0.0010122572 0.013712741
0.60290247 0.0018173963 0.014382166
0.60441053 0.0026534062 0.015718844
0.60517144 0.0034505802 0.016388247
0.60518527 0.0042136982 0.016390406
0.60519916 0.0049768179 0.016392563
0.60595995 0.0057676202 0.017061966
0.60597378 0.0065291459 0.017064121
0.60598761 0.0072906711 0.017066274
0.6060015 0.0080521991 0.017068427
0.60601532 0.0088137239 0.01707058
0.60602915 0.0095752496 0.017072733
0.60604298 0.010336775 0.017074887
0.60680354 0.011114833 0.017744234
0.60681731 0.011874765 0.017746383
0.60757786 0.012648041 0.01841574
0.60759163 0.013406382 0.018417884
0.60835201 0.014174879 0.019087203
0.60911232 0.014940191 0.019756515
0.60912603 0.015695343 0.019758651
0.60988629 0.016455876 0.02042797
0.6099 0.017209437 0.020430101
0.60991371 0.017962996 0.020432232
0.61067384 0.018717155 0.021101512
0.61068749 0.019469121 0.021103637
0.61070114 0.020221088 0.021105764
0.61071479 0.020973057 0.02110789
0.60998213 0.021730796 0.020442886
0.60999584 0.022484357 0.020445017
0.61000949 0.023237916 0.020447148
0.6100232 0.023991477 0.020449279
0.61003685 0.024745036 0.02045141
0.60930437 0.025512336 0.019786412
0.60931808 0.026267489 0.019788546
0.60933179 0.027022643 0.019790683
0.6093455 0.027777797 0.019792818
0.60861313 0.028553061 0.019127864
0.6086269 0.029309807 0.019130005
0.60864067 0.030066554 0.019132145
0.60790843 0.03084819 0.018467207
0.6079222 0.031606529 0.018469352
0.60793597 0.032364871 0.018471496
0.60720384 0.033152882 0.017806556
0.60721761 0.033912811 0.017808706
0.60723144 0.034672745 0.017810855
0.60649943 0.035467129 0.017145954
0.60651326 0.036228653 0.017148107
0.60578132 0.037027817 0.016483201
0.60579515 0.037790935 0.016485358
0.60506332 0.038594875 0.015820483
0.60507721 0.039359588 0.015822645
0.60509109 0.040124301 0.015824808
0.60435939 0.040934615 0.015159933
0.60437328 0.041700922 0.0151621
0.60364169 0.042516015 0.014497258
0.60365564 0.043283913 0.01449943
0.60366958 0.044051811 0.014501601
0.60293806 0.044873279 0.013836776
0.602952 0.045642767 0.013838951
0.60222059 0.046469014 0.013174121
0.6022346 0.047240101 0.013176301
0.60224861 0.048011187 0.013178483
0.60151726 0.048843801 0.01251369
0.60153133 0.049616478 0.012515876
0.6008001 0.050453879 0.011851076
0.6008141 0.051228151 0.011853266
0.60008299 0.052070327 0.011188499
0.60009706 0.05284619 0.011190693
0.60011119 0.053622056 0.011192887
0.59938014 0.054470606 0.010528119
0.59939426 0.055248063 0.010530318
0.59866333 0.056101393 0.0098655848
0.59867746 0.056880441 0.0098677874
0.59869164 0.057659492 0.0098699909
0.59796083 0.058519192 0.0092052734
0.59797502 0.059299838 0.0092074806
0.59798914 0.06008048 0.0092096888
0.59725845 0.060946554 0.0085449703
0.59727263 0.061728798 0.0085471831
0.59728688 0.062511034 0.008549395
0.59655625 0.063383475 0.0078847148
0.59657049 0.064167306 0.0078869322
0.59583998 0.06504453 0.0072222441
0.59585428 0.065829955 0.0072244648
0.59512383 0.066711962 0.0065598125
0.59513813 0.067498975 0.0065620379
0.59515244 0.068285994 0.0065642637
0.5944221 0.069174372 0.0058996086
0.59443641 0.069962986 0.0059018387
0.59370625 0.070856139 0.0052372161
0.59372056 0.07164634 0.0052394508
0.59373492 0.072436541 0.0052416855
0.59300482 0.073336072 0.0045770826
0.59301919 0.074127868 0.0045793215
0.59228921 0.075032182 0.0039147115
0.59230357 0.075825572 0.0039169556
0.592318 0.076618962 0.0039191991
0.59158814 0.077529639 0.0032546259
0.59160256 0.078324623 0.0032568742
0.59087276 0.079240084 0.0025923161
0.59088719 0.080036655 0.0025945688
0.59015745 0.080956906 0.0019299837
0.59017193 0.081755079 0.0019322409
0.59018648 0.082553245 0.001934498
0.58945686 0.083479859 0.0012699715
0.5894714 0.084279619 0.0012722332
0.58874184 0.085211009 0.00060771877
0.58875638 0.086012363 0.00060998491
0.588027 0.086948536 -5.4514552e-05
0.58729762 0.087887891 -0.00071900641
0.59813702 2.5173254e-06 0.0091032209
0.60413396 0.0018459246 0.01445555
0.60489398 0.0026463012 0.015126216
0.60565388 0.0034434898 0.015796853
0.60641372 0.0042374935 0.016467499
0.60642755 0.0049990192 0.016469652
0.60644138 0.0057605444 0.016471805
0.60720116 0.0065481756 0.017142415
0.60646909 0.0072835959 0.016476113
0.60722876 0.00806804 0.017146714
0.60724252 0.0088279741 0.017148864
0.60725635 0.0095879054 0.017151011
0.60727018 0.010347839 0.017153161
0.60728395 0.011107772 0.01715531
0.60804349 0.011882656 0.017825903
0.60805726 0.012640996 0.017828047
0.60881668 0.013411102 0.018498609
0.60883039 0.014167847 0.018500747
0.60958976 0.014933174 0.019171294
0.60960346 0.015688326 0.019173428
0.61036271 0.016448874 0.019843983
0.61037642 0.017202435 0.019846113
0.61039007 0.017955994 0.019848244
0.61040378 0.018709553 0.019850375
0.61041749 0.019463114 0.019852506
0.61043113 0.020216674 0.019854637
0.61044484 0.020970235 0.019856768
0.61045855 0.021723794 0.019858899
0.6104722 0.022477355 0.019861029
0.61048591 0.023230914 0.01986316
0.60975432 0.023995014 0.019196918
0.60976803 0.024750166 0.019199055
0.60978174 0.025505319 0.019201189
0.60979545 0.026260473 0.019203326
0.6090641 0.027032537 0.018537128
0.60907781 0.027789284 0.018539269
0.60909158 0.02854603 0.018541409
0.60836029 0.029324466 0.017875228
0.60837406 0.030082805 0.017877372
0.60838783 0.030841144 0.017879516
0.6084016 0.031599484 0.017881662
0.60767043 0.032385886 0.017215483
0.60768425 0.033145819 0.017217631
0.6069532 0.033937 0.016551487
0.60696703 0.034698527 0.01655364
0.60698086 0.035460051 0.016555794
0.60624987 0.036257606 0.015889648
0.60626376 0.037020728 0.015891805
0.60553288 0.037823059 0.015225693
0.60554677 0.038587771 0.015227855
0.60481602 0.039394885 0.014561735
0.60482991 0.040161192 0.014563902
0.60484385 0.040927496 0.014566069
0.60411316 0.041740984 0.013899988
0.60412711 0.042508882 0.013902158
0.60339659 0.043327145 0.013236091
0.60341054 0.044096634 0.013238266
0.60342455 0.044866126 0.013240443
0.60269403 0.045690767 0.012574374
0.60270804 0.04646185 0.012576554
0.60197771 0.047291268 0.011910518
0.60199171 0.048063945 0.011912703
0.60126144 0.048898142 0.011246659
0.6012755 0.049672414 0.011248848
0.60054529 0.05051139 0.010582839
0.60055941 0.051287256 0.010585033
0.60057348 0.052063119 0.010587227
0.59984338 0.052908465 0.0099212164
0.59985751 0.053685926 0.0099234153
0.59912753 0.054536052 0.0092574367
0.59914172 0.055315103 0.0092596402
0.59915584 0.056094155 0.0092618428
0.59842598 0.056950651 0.0085958829
0.59844017 0.057731297 0.0085980901
0.59845436 0.058511939 0.0086002983
0.59772456 0.059374813 0.0079343356
0.59773874 0.060157053 0.0079365475
0.59775299 0.060939286 0.0079387594
0.59702331 0.061808534 0.0072728358
0.59703755 0.062592365 0.0072750524
0.59630799 0.063466392 0.0066091227
0.59632224 0.064251818 0.0066113439
0.59633654 0.065037236 0.0066135651
0.5956071 0.065917633 0.0059476728
0.59562141 0.066704646 0.0059498982
0.59489202 0.067589827 0.0052839988
0.59490633 0.068378441 0.0052862288
0.59492069 0.069167048 0.0052884589
0.59419143 0.070058599 0.0046225982
0.5942058 0.0708488 0.0046248329
0.59422016 0.071639001 0.0046270671
0.59349102 0.072536923 0.0039612241
0.59350538 0.073328719 0.0039634635
0.59277636 0.074231423 0.0032976151
0.59279078 0.075024813 0.0032998587
0.59206182 0.075932294 0.0026340429
0.59207624 0.076727271 0.0026362909
0.5913474 0.077639535 0.0019704886
0.59136188 0.078436106 0.0019727412
0.59063303 0.079353154 0.0013069131
0.59064758 0.080151327 0.0013091702
0.59066206 0.080949485 0.0013114273
0.5899334 0.081872903 0.00064565643
0.58994794 0.082672663 0.00064791809
0.58921933 0.083600856 -1.7839315e-05
0.58923393 0.084402211 -1.5573161e-05
0.58924848 0.085203566 -1.3307007e-05
0.58852005 0.086138122 -0.00067904638
0.58779162 0.087075874 -0.0013447767
0.60236919 0.00096068648 0.011850334
0.60536355 0.001874482 0.014531425
0.60612243 0.0026732816 0.0152033
0.60688132 0.0034688923 0.015875187
0.60689515 0.0042304178 0.01587734
0.60690904 0.0049919435 0.015879493
0.60766774 0.0057811816 0.016551344
0.60768157 0.0065411148 0.016553491
0.60769534 0.0073010465 0.016555641
0.60770917 0.0080609797 0.01655779
0.607723 0.0088209128 0.01655994
0.60848159 0.0096005918 0.017231781
0.60849535 0.010358931 0.017233925
0.60850912 0.011117271 0.017236069
0.60852289 0.011875611 0.017238215
0.60928136 0.012647323 0.017910013
0.60929507 0.01340407 0.017912153
0.60930884 0.014160817 0.017914293
0.61006713 0.014926158 0.018586073
0.61008084 0.015681311 0.018588208
0.61083913 0.016441874 0.019259995
0.61085278 0.017195433 0.019262128
0.61086649 0.017948993 0.019264258
0.6108802 0.018702552 0.019266389
0.61089385 0.019456113 0.01926852
0.61090755 0.020209674 0.019270651
0.61092126 0.020963233 0.019272782
0.61019057 0.021722537 0.018605292
0.61020428 0.02247769 0.018607428
0.61021805 0.023232844 0.018609563
0.61023176 0.023987997 0.018611699
0.60950124 0.024755266 0.017944252
0.60951501 0.025512012 0.017946392
0.60952872 0.02626876 0.017948532
0.60954249 0.027025506 0.017950673
0.60881215 0.027800741 0.017283248
0.60882592 0.028559079 0.017285394
0.60883969 0.02931742 0.017287537
0.60885346 0.030075759 0.017289681
0.60812324 0.03085896 0.01662226
0.60813707 0.031618893 0.01662441
0.60815084 0.032378826 0.016626559
0.6074208 0.033168398 0.015959173
0.60743463 0.033929925 0.015961327
0.60670459 0.03472428 0.015293937
0.60671848 0.035487399 0.015296095
0.60598856 0.036286529 0.014628739
0.60600245 0.037051242 0.014630902
0.60601634 0.037815955 0.014633064
0.60528654 0.038621459 0.013965705
0.60530043 0.039387766 0.013967873
0.60457075 0.04019805 0.013300546
0.60458469 0.040965948 0.013302718
0.60459864 0.041733846 0.013304889
0.60386908 0.0425505 0.012637583
0.60388303 0.043319996 0.012639759
0.60389704 0.044089485 0.012641935
0.60316753 0.044912517 0.011974626
0.60318154 0.045683604 0.011976806
0.60245216 0.046511408 0.011309532
0.60172278 0.047342405 0.010642244
0.60173684 0.048116677 0.010644434
0.60175091 0.048890948 0.010646624
0.60102171 0.049728315 0.0099793738
0.60103583 0.050504182 0.009981568
0.60030669 0.051346328 0.0093143135
0.60032082 0.052123789 0.0093165115
0.59959173 0.052970711 0.0086492905
0.59960592 0.053749762 0.008651494
0.59962004 0.054528814 0.0086536966
0.59889114 0.055382114 0.0079864925
0.59890532 0.056162756 0.0079886997
0.59817648 0.057020836 0.00732149
0.59819067 0.057803076 0.0073237023
0.59820485 0.058585312 0.0073259142
0.5982191 0.059367545 0.0073281261
0.59749037 0.060233589 0.0066609592
0.59750462 0.06101742 0.0066631758
0.59751886 0.061801251 0.0066653923
0.59679025 0.062673673 0.0059982231
0.59680456 0.063459098 0.0060004443
0.59607607 0.064336292 0.0053333086
0.59609038 0.065123305 0.0053355345
0.59610462 0.065910324 0.0053377599
0.59537625 0.066793889 0.0046706204
0.59539056 0.067582503 0.0046728505
0.59466231 0.068470851 0.0040057469
0.59467667 0.069261052 0.0040079812
0.59469098 0.070051253 0.0040102159
0.59396285 0.070945978 0.00334313
0.59397721 0.071737774 0.0033453691
0.59324908 0.072637267 0.0026782763
0.59326351 0.073430665 0.0026805201
0.59327793 0.074224055 0.0026827636
0.59254998 0.075129926 0.0020157078
0.5925644 0.075924911 0.0020179558
0.59183651 0.076835558 0.0013509149
0.591851 0.077632129 0.0013531676
0.59112316 0.078547567 0.00068609958
0.59113765 0.07934574 0.0006883567
0.59115213 0.080143906 0.00069061387
0.59042448 0.081065707 2.3604443e-05
0.59043902 0.081865475 2.58661e-05
0.58971143 0.082792059 -0.00064113125
0.58972597 0.083593413 -0.00063886505
0.5889985 0.084524773 -0.0013058474
0.58901304 0.085327715 -0.0013035767
0.60660487 0.0026661912 0.014611907
0.60736281 0.0034618168 0.015285027
0.60737664 0.0042233421 0.015287181
0.60813439 0.0050141877 0.015960269
0.60814822 0.0057741208 0.015962418
0.60890591 0.0065601873 0.016635513
0.60891968 0.007318526 0.016637657
0.60893345 0.0080768671 0.016639803
0.60894722 0.0088352067 0.016641947
0.60896099 0.0095935455 0.01664409
0.60897475 0.010351884 0.016646236
0.60973227 0.0111268 0.017319279
0.60974598 0.011883547 0.017321419
0.60975975 0.012640293 0.017323559
0.60977352 0.013397039 0.017325697
0.61053085 0.014163988 0.017998718
0.61054456 0.014919141 0.018000852
0.61055827 0.015674295 0.018002989
0.61131549 0.016434873 0.018676011
0.6113292 0.017188432 0.018678142
0.61134291 0.017941991 0.018680273
0.61061311 0.018694907 0.018011531
0.61062688 0.019450061 0.018013665
0.61064059 0.020205215 0.018015802
0.61065429 0.020960368 0.018017936
0.610668 0.02171552 0.018020073
0.60993844 0.022477996 0.017351378
0.60995215 0.023234742 0.017353518
0.60996592 0.023991488 0.017355658
0.60997969 0.024748236 0.017357798
0.6099934 0.025504982 0.017359938
0.60926402 0.026277015 0.016691269
0.60927778 0.027035356 0.016693415
0.60929155 0.027793694 0.016695559
0.60930532 0.028552035 0.016697703
0.60857606 0.029332034 0.016029038
0.60858989 0.030091967 0.016031187
0.60860372 0.030851901 0.016033337
0.60787457 0.031638272 0.015364707
0.6078884 0.0323998 0.015366862
0.60790223 0.033161324 0.015369015
0.6071732 0.033954069 0.014700387
0.60718703 0.034717187 0.014702545
0.60645813 0.035514712 0.014033948
0.60647202 0.036279425 0.014036111
0.60574317 0.03708173 0.013367508
0.60575706 0.037848037 0.013369675
0.60502833 0.038655117 0.012701107
0.60504228 0.039423015 0.012703278
0.60505623 0.040190913 0.01270545
0.60432756 0.041004371 0.012036899
0.60434157 0.041773863 0.012039075
0.60435551 0.042543352 0.012041251
0.60362697 0.043363184 0.011372698
0.60364097 0.044134267 0.011374878
0.60291255 0.044958875 0.01070636
0.60292661 0.045731552 0.010708545
0.60219824 0.046560939 0.010040019
0.60221231 0.047335211 0.010042208
0.60148406 0.048169378 0.0093737151
0.60149813 0.048945244 0.0093759093
0.60076994 0.049784191 0.0087074116
0.60078406 0.050561648 0.0087096104
0.60005599 0.051405374 0.0080411443
0.60007012 0.052184425 0.0080433479
0.60008425 0.052963473 0.0080455504
0.59935629 0.053813569 0.007377103
0.59937048 0.054594219 0.0073793107
0.59864259 0.055449095 0.0067108567
0.59865677 0.056231331 0.0067130686
0.59867096 0.057013568 0.0067152805
0.59794325 0.057874821 0.0060468661
0.59795743 0.058658648 0.0060490826
0.59797168 0.059442479 0.0060512992
0.59798592 0.060226306 0.0060535157
0.59725827 0.061095525 0.0053851022
0.59727257 0.06188095 0.0053873234
0.59654504 0.062754944 0.004718943
0.59655929 0.063541964 0.0047211689
0.59657359 0.064328976 0.0047233943
0.59584618 0.065209344 0.0040550139
0.59586048 0.065997958 0.0040572439
0.59513313 0.066883102 0.0033888954
0.59514749 0.067673303 0.0033911299
0.59516186 0.068463512 0.0033933646
0.59443462 0.069355026 0.0027250343
0.59444904 0.070146821 0.0027272732
0.59372187 0.071043126 0.0020589374
0.59373629 0.071836516 0.0020611812
0.59375072 0.072629899 0.0020634248
0.59302366 0.073532574 0.0013951259
0.59303814 0.074327551 0.0013973741
0.5923112 0.075235009 0.00072908867
0.59232563 0.076031581 0.00073134131
0.59159875 0.076943822 6.3030355e-05
0.59161329 0.077741988 6.5287495e-05
0.59162778 0.078540154 6.7544643e-05
0.59090102 0.079458758 -0.00060070917
0.59091556 0.080258518 -0.00059844757
0.59018892 0.081181899 -0.0012666879
0.59020346 0.081983261 -0.0012644217
0.59021801 0.082784608 -0.0012621556
0.60633045 0.0018602717 0.013346168
0.60708731 0.0026591008 0.014020513
0.60784423 0.0034547411 0.014694869
0.60860103 0.0042471937 0.015369196
0.6086148 0.0050071268 0.015371345
0.60862863 0.00576706 0.015373494
0.60938531 0.0065531414 0.016047822
0.60939908 0.0073114801 0.016049968
0.60941285 0.0080698216 0.016052112
0.61016941 0.0088495295 0.016726403
0.61018318 0.0096062766 0.016728543
0.61019695 0.010363022 0.016730683
0.61021066 0.011119769 0.016732823
0.61022443 0.011876515 0.016734963
0.61098081 0.012646666 0.017409226
0.61099452 0.013401819 0.017411362
0.61100823 0.014156972 0.017413497
0.61102194 0.014912126 0.017415633
0.61103565 0.015667278 0.017417768
0.61104941 0.016422432 0.017419904
0.61106312 0.017177584 0.017422039
0.61107683 0.017932737 0.017424174
0.61109054 0.018687891 0.01742631
0.61110425 0.019443044 0.017428445
0.61111796 0.020198198 0.017430581
0.61038935 0.020957472 0.016760644
0.61040312 0.021714218 0.016762782
0.61041683 0.022470964 0.016764922
0.6104306 0.02322771 0.016767062
0.60970211 0.023994951 0.016097147
0.60971588 0.024753291 0.016099291
0.60972965 0.02551163 0.016101437
0.60974342 0.02626997 0.016103581
0.60901511 0.027045175 0.015433667
0.60902888 0.027805109 0.015435816
0.6090427 0.028565042 0.015437965
0.60905653 0.029324973 0.015440114
0.60832834 0.030108145 0.014770241
0.60834217 0.03086967 0.014772396
0.608356 0.031631198 0.014774549
0.60762793 0.03242074 0.014104676
0.60764176 0.033183862 0.014106834
0.60691381 0.033978183 0.013436995
0.60692769 0.034742896 0.013439157
0.60694158 0.035507608 0.01344132
0.60621369 0.036308303 0.012771478
0.60622764 0.037074611 0.012773645
0.60549986 0.037880085 0.012103838
0.60551381 0.038647983 0.012106009
0.60552776 0.039415881 0.012108181
0.60480005 0.04022773 0.011438391
0.60481405 0.040997222 0.011440567
0.60408646 0.04181385 0.010770771
0.60410047 0.042584933 0.010772951
0.60411447 0.04335602 0.010775132
0.603387 0.044179019 0.010105372
0.60340106 0.044951696 0.010107557
0.60267365 0.045779478 0.009437792
0.60268772 0.046553746 0.0094399815
0.60196042 0.047386304 0.0087702507
0.60197455 0.04816217 0.0087724449
0.60124731 0.048999511 0.0081027066
0.60126144 0.049776968 0.0081049055
0.60053432 0.050619084 0.0074352017
0.60054851 0.051398136 0.0074374047
0.59982145 0.052245032 0.0067677139
0.59983563 0.053025674 0.0067699216
0.5991087 0.053877354 0.0061002243
0.59912288 0.05465959 0.0061024367
0.59913713 0.055441827 0.0061046486
0.59841031 0.056299876 0.0054349881
0.59842449 0.057083704 0.0054372046
0.59843874 0.057867538 0.0054394212
0.59845299 0.058651365 0.0054416377
0.59772629 0.05951738 0.0047719809
0.59774059 0.060302805 0.0047742021
0.59701395 0.061173595 0.0041045793
0.59702826 0.061960619 0.0041068047
0.59704256 0.062747635 0.0041090306
0.5963161 0.063624799 0.0034394052
0.5963304 0.064413406 0.0034416353
0.595604 0.065295354 0.0027720439
0.59561837 0.066085555 0.0027742786
0.59563273 0.066875763 0.0027765131
0.59490645 0.067764081 0.0021069397
0.59492081 0.068555877 0.0021091788
0.59419465 0.069448978 0.0014395973
0.59420902 0.070242368 0.0014418409
0.59422344 0.07103575 0.0014440846
0.5934974 0.071935222 0.00077454268
0.59351182 0.072730206 0.00077679078
0.59352624 0.073525183 0.00077903894
0.59280032 0.074431024 0.00010951509
0.5928148 0.075227603 0.00011176773
0.59208888 0.076138236 -0.00055778318
0.59210336 0.076936401 -0.000555526
0.59211785 0.077734567 -0.00055326888
0.5913921 0.078651562 -0.0012227612
0.59140664 0.079451323 -0.0012204995
0.60756975 0.0026520104 0.013429118
0.60758364 0.0034151282 0.013431276
0.60908145 0.0042401329 0.01478027
0.60909522 0.005000066 0.014782418
0.60985094 0.0057877563 0.015457988
0.60986477 0.006546095 0.015460132
0.60987854 0.0073044342 0.015462277
0.61063409 0.0080857538 0.016137807
0.61064786 0.008842499 0.016139947
0.61066157 0.0095992452 0.016142087
0.61067533 0.01035599 0.016144227
0.61143076 0.011129343 0.016819734
0.61144447 0.011884496 0.016821869
0.61145824 0.012639649 0.016824005
0.61147195 0.013394803 0.01682614
0.61148566 0.014149955 0.016828276
0.61149937 0.014905109 0.016830411
0.61151308 0.015660262 0.016832547
0.61152679 0.016415415 0.016834682
0.6115405 0.017170567 0.016836818
0.61155421 0.017925721 0.016838953
0.61082655 0.018680202 0.016167767
0.61084026 0.019436948 0.016169908
0.61085403 0.020193694 0.016172048
0.6108678 0.02095044 0.016174188
0.61088151 0.021707186 0.016176326
0.61015397 0.022471225 0.015505167
0.61016774 0.023229565 0.015507312
0.61018157 0.023987904 0.015509455
0.6094541 0.024758317 0.014838293
0.60946792 0.02551825 0.014840443
0.60948175 0.026278183 0.014842591
0.60949552 0.027038114 0.014844741
0.60876828 0.027816491 0.014173622
0.60878211 0.028578017 0.014175775
0.60879594 0.029339543 0.01417793
0.60806876 0.030124294 0.013506807
0.60808265 0.030887412 0.013508965
0.60809648 0.031650532 0.013511123
0.60811037 0.03241365 0.013513281
0.60738337 0.033206366 0.012842203
0.60739726 0.033971079 0.012844365
0.60667032 0.034768574 0.01217328
0.60668421 0.035534877 0.012175447
0.60595739 0.036337152 0.011504395
0.60597134 0.03710505 0.011506567
0.60598528 0.037872951 0.011508739
0.60525858 0.038681597 0.010837706
0.60527259 0.039451089 0.010839881
0.60528654 0.040220581 0.010842058
0.60455996 0.0410356 0.010171021
0.60457397 0.041806687 0.010173202
0.60384744 0.042626485 0.0095021995
0.60386145 0.043399163 0.0095043844
0.60313505 0.044223741 0.0088333767
0.60314912 0.044998012 0.0088355662
0.60242277 0.04582737 0.0081645902
0.60243684 0.046603233 0.0081667844
0.60171056 0.04743737 0.0074958038
0.60172468 0.04821483 0.0074980026
0.60099852 0.049053743 0.0068270541
0.60101271 0.049832795 0.0068292571
0.6002866 0.050676491 0.0061583221
0.60030079 0.051457137 0.0061605298
0.60031497 0.052237779 0.006162737
0.59958899 0.053087849 0.0054918015
0.59960324 0.053870086 0.0054940134
0.59887737 0.054724935 0.0048231101
0.59889156 0.055508763 0.0048253266
0.5989058 0.056292593 0.0048275432
0.59818006 0.057153814 0.0041566375
0.5981943 0.057939239 0.0041588587
0.59820855 0.05872466 0.0041610799
0.59748292 0.059592254 0.0034902138
0.59749722 0.060379267 0.0034924394
0.59751153 0.061166286 0.003494665
0.59678596 0.062040254 0.0028237954
0.59680033 0.062828861 0.0028260255
0.59607488 0.063707605 0.002155191
0.59608924 0.064497814 0.0021574257
0.59610355 0.065288015 0.0021596604
0.59537828 0.066173129 0.0014888425
0.59539264 0.066964924 0.0014910817
0.59466738 0.067854822 0.00082025706
0.5946818 0.068648219 0.00082250067
0.59469622 0.069441602 0.00082474429
0.59397107 0.070337877 0.00015395944
0.5939855 0.071132854 0.00015620758
0.59399998 0.071927831 0.0001584557
0.59327495 0.072830476 -0.00051231257
0.59328943 0.073627055 -0.00051005994
0.59256446 0.074534476 -0.0011808538
0.59257895 0.075332649 -0.0011785966
0.59259349 0.076130822 -0.0011763395
0.60805219 0.00264492 0.012837726
0.60880709 0.0034405901 0.01351455
0.60956186 0.004233072 0.014191346
0.60957569 0.0049930052 0.014193496
0.6103304 0.0057807099 0.014870298
0.61034417 0.0065390491 0.014872443
0.61109877 0.0073219738 0.015549212
0.61111253 0.0080787223 0.015551351
0.61112624 0.0088354675 0.015553491
0.61114001 0.0095922146 0.015555631
0.61189449 0.010367172 0.016232377
0.6119082 0.011122326 0.016234513
0.61192191 0.011877479 0.016236648
0.61193562 0.012632633 0.016238784
0.61194932 0.013387786 0.016240919
0.61196303 0.014142939 0.016243055
0.61197674 0.014898092 0.01624519
0.61199051 0.015653245 0.016247327
0.61200422 0.016408399 0.016249461
0.61127746 0.017159678 0.015577031
0.61129123 0.017916424 0.015579171
0.61130494 0.01867317 0.015581312
0.61131871 0.019429917 0.015583452
0.61133242 0.020186663 0.015585591
0.6106059 0.020947501 0.014913188
0.61061966 0.02170584 0.014915333
0.61063343 0.02246418 0.014917477
0.60990697 0.023231391 0.014245071
0.60992074 0.023991324 0.014247221
0.60993457 0.024751255 0.01424937
0.60920823 0.025524838 0.013577003
0.60922205 0.026286365 0.013579156
0.60923588 0.027047891 0.013581309
0.60924971 0.027809417 0.013583464
0.60852349 0.028590966 0.012911098
0.60853738 0.029354084 0.012913256
0.6085512 0.030117203 0.012915415
0.60782516 0.030905124 0.012243087
0.60783905 0.031669836 0.01224525
0.60785294 0.032434549 0.012247412
0.60712695 0.033228844 0.011575084
0.60714084 0.033995148 0.011577251
0.60715479 0.034761455 0.011579418
0.60642892 0.03556212 0.010907126
0.60644287 0.036330018 0.010909298
0.60571712 0.037135463 0.01023702
0.60573107 0.037904955 0.010239196
0.60574508 0.038674448 0.010241373
0.60501939 0.039486267 0.0095690936
0.6050334 0.04025735 0.0095712738
0.6050474 0.041028436 0.009573454
0.6043219 0.041846626 0.0089012133
0.6043359 0.042619303 0.0089033982
0.60361046 0.043442275 0.0082311509
0.60362452 0.044216547 0.0082333405
0.60289919 0.045044295 0.0075611263
0.60291326 0.045820158 0.00756332
0.60218799 0.04665269 0.0068910993
0.60220212 0.047430146 0.0068932981
0.60147691 0.048267458 0.0062211109
0.60149103 0.049046505 0.006223314
0.60076594 0.049888592 0.0055511408
0.60078013 0.050669238 0.005553348
0.6000551 0.051516108 0.0048811678
0.60006934 0.052298345 0.0048833801
0.60008353 0.053080581 0.004885592
0.59935862 0.053933822 0.00421345
0.59937286 0.054717652 0.0042156666
0.59864807 0.055575673 0.003543518
0.59866232 0.056361094 0.0035457392
0.59867656 0.057146516 0.0035479602
0.59795189 0.05801091 0.0028758498
0.59796619 0.058797926 0.0028780755
0.5979805 0.059584942 0.0028803011
0.59725589 0.060455706 0.0022081884
0.59727019 0.061244316 0.0022104187
0.59654576 0.062119864 0.0015383383
0.59656006 0.062910065 0.001540573
0.59657443 0.063700266 0.0015428076
0.59585005 0.064582184 0.00087074674
0.59586447 0.06537398 0.00087298581
0.59587884 0.066165775 0.00087522494
0.59515452 0.067054063 0.00020316188
0.59516895 0.067847453 0.00020540549
0.59444481 0.068740524 -0.00046662378
0.59445924 0.069535509 -0.00046437565
0.59447366 0.070330486 -0.00046212753
0.59374964 0.071229927 -0.0011341388
0.59376407 0.072026499 -0.0011318862
0.60779464 0.0026036701 0.011570445
0.60928851 0.0034335144 0.012924392
0.60930234 0.0041950401 0.012926545
0.6100561 0.0049859448 0.01360457
0.61006993 0.005745878 0.01360672
0.61082357 0.0065320032 0.014284753
0.61157721 0.0073149428 0.014962756
0.61159092 0.0080716917 0.014964895
0.61160469 0.008828436 0.014967036
0.61235815 0.0096050026 0.015645022
0.61237186 0.010360155 0.015647158
0.61238557 0.01111531 0.015649293
0.61239934 0.011870462 0.015651429
0.61241305 0.012625616 0.015653564
0.61242676 0.01338077 0.0156557
0.61244047 0.014135922 0.015657835
0.61245418 0.014891076 0.015659971
0.61172837 0.015639152 0.014986296
0.61174214 0.0163959 0.014988435
0.61175585 0.017152647 0.014990576
0.61176962 0.017909393 0.014992716
0.61104399 0.018665437 0.014319065
0.61105776 0.019423775 0.01432121
0.61107153 0.020182116 0.014323354
0.6110853 0.020940455 0.014325499
0.61035979 0.021704465 0.013651849
0.61037356 0.022464396 0.013653997
0.61038738 0.02322433 0.013656147
0.609662 0.023994712 0.012982537
0.60967582 0.024756238 0.01298469
0.60968965 0.025517764 0.012986843
0.60896432 0.026294518 0.01231323
0.60897821 0.027057637 0.012315388
0.6089921 0.027820757 0.012317546
0.60900593 0.028583875 0.012319704
0.60828078 0.029368594 0.011646134
0.60829467 0.030133307 0.011648296
0.60830861 0.03089802 0.011650459
0.60758352 0.031689111 0.010976886
0.60759747 0.032455418 0.010979053
0.60687256 0.033251289 0.010305515
0.60688651 0.034019187 0.010307686
0.60690045 0.034787089 0.010309858
0.6061756 0.03558933 0.0096363369
0.60618961 0.036358822 0.0096385125
0.60620356 0.037128314 0.009640689
0.60547888 0.037936933 0.0089671658
0.60549289 0.038708016 0.008969347
0.6055069 0.039479103 0.0089715272
0.60478228 0.040294092 0.0082980422
0.60479635 0.04106677 0.0083002271
0.6040718 0.041886542 0.0076267361
0.60408586 0.04266081 0.0076289256
0.60336149 0.043485358 0.0069554672
0.60337555 0.044261221 0.0069576614
0.60338968 0.045037087 0.0069598556
0.60266536 0.045868009 0.0062863962
0.60267949 0.046645466 0.0062885946
0.60195529 0.047481164 0.0056151678
0.60196942 0.048260219 0.0056173708
0.60124528 0.049100697 0.0049439576
0.60125947 0.049881339 0.0049461653
0.60053545 0.0507266 0.0042727464
0.60054964 0.05150884 0.0042749587
0.59982568 0.052358877 0.0036015722
0.59983993 0.053142708 0.0036037888
0.59911609 0.053997528 0.0029303972
0.59913033 0.054782949 0.0029326181
0.59914458 0.055568375 0.0029348393
0.59842086 0.056429565 0.0022614845
0.59843516 0.057216581 0.0022637101
0.59844947 0.058003597 0.0022659358
0.59772581 0.058871165 0.0015925801
0.59774011 0.059659772 0.0015948102
0.59775442 0.060448378 0.0015970403
0.59703094 0.061322317 0.00092372153
0.5970453 0.062112521 0.00092595618
0.59632188 0.062991239 0.00025265236
0.59633625 0.063783027 0.00025489146
0.59635061 0.064574823 0.0002571306
0.59562731 0.065459915 -0.00041617692
0.59564173 0.066253304 -0.0004139333
0.59565616 0.067046694 -0.00041168966
0.59493291 0.067938149 -0.0010849575
0.5949474 0.068733133 -0.0010827093
0.59567189 -0.00035977713 -0.00054009521
0.60530806 0.0016887833 0.008267113
