# .PCD v0.7 - Point Cloud Data file format
VERSION 0.7
FIELDS x y z
SIZE 4 4 4
TYPE F F F
COUNT 1 1 1
WIDTH 1381
HEIGHT 1
VIEWPOINT 0 0 0 1 0 0 0
POINTS 1381
DATA ascii
0.54776794 0.083496287 0.027048359
0.54778296 0.084321544 0.027050693
0.54779792 0.085146792 0.027053026
0.54861444 0.085842758 0.027651772
0.5486294 0.08666642 0.0276541
0.54944581 0.087357603 0.028252833
0.54946077 0.088179663 0.028255157
0.54947567 0.08900173 0.028257482
0.55029196 0.089686543 0.028856194
0.55030686 0.090507016 0.028858515
0.55032176 0.091327488 0.028860835
0.55113798 0.092005908 0.029459564
0.55115288 0.092824802 0.029461881
0.55116773 0.09364368 0.029464196
0.55118263 0.094462559 0.029466512
0.55119753 0.095281437 0.029468827
0.55121237 0.096100315 0.029471142
0.55122727 0.096919194 0.029473459
0.55124211 0.097738065 0.029475775
0.55125701 0.098556951 0.02947809
0.55127186 0.099375829 0.029480405
0.55048573 0.10035268 0.028886357
0.55050063 0.10117316 0.028888678
0.54971457 0.10215478 0.028294677
0.54892862 0.10313959 0.027700685
0.54814267 0.10412759 0.027106702
0.54815769 0.10495283 0.027109036
0.58852369 0.24722879 0.055560216
0.58933234 0.24749301 0.056157738
0.58855093 0.24872954 0.055564459
0.58856457 0.2494799 0.055566583
0.58937311 0.24973933 0.05616409
0.58938676 0.25048813 0.056166209
0.58940035 0.25123692 0.056168325
0.58941394 0.2519857 0.056170445
0.58942753 0.25273448 0.056172561
0.59023595 0.25298434 0.05677006
0.59024954 0.25373155 0.056772176
0.59026313 0.25447872 0.056774288
0.59107137 0.25472224 0.05737175
0.5910849 0.25546783 0.057373859
0.59189314 0.25570655 0.057971328
0.59270126 0.25594211 0.058568772
0.59271479 0.25668451 0.058570869
0.59352279 0.25691527 0.059168302
0.59433085 0.25714284 0.059765738
0.59434426 0.25788206 0.059767827
0.59515214 0.25810486 0.060365234
0.59516555 0.2588425 0.06036732
0.59597337 0.2590605 0.06096473
0.59598678 0.25979653 0.060966812
0.50873077 0.027245512 -0.0024551421
0.51275998 0.028066428 0.00053726876
0.51760757 0.029737858 0.0041301316
0.52003103 0.030559234 0.0059264852
0.52084947 0.031416118 0.0065269549
0.52247024 0.032245692 0.0077253231
0.52248615 0.03312033 0.0077277967
0.5233044 0.033967659 0.0083282031
0.52332026 0.034840703 0.008330672
0.52413839 0.035683252 0.008931065
0.52495652 0.036522612 0.0095314849
0.52497232 0.037392471 0.0095339455
0.52579033 0.038227051 0.010134316
0.52580613 0.03909532 0.010136771
0.52662402 0.039925121 0.010737129
0.52663976 0.040791795 0.010739581
0.52745759 0.041616816 0.011339923
0.52747333 0.042481899 0.01134237
0.52829111 0.043302141 0.0119427
0.52830678 0.04416563 0.011945141
0.5291245 0.044981092 0.012545494
0.52914011 0.045842987 0.012547932
0.52995771 0.046653669 0.013148235
0.52997333 0.047513969 0.013150668
0.53079081 0.048319876 0.013750958
0.53080642 0.049178585 0.013753387
0.53162384 0.049979709 0.014353663
0.5316394 0.050836824 0.014356087
0.53245676 0.051633168 0.014956385
0.53247225 0.052488688 0.014958804
0.53328949 0.053280253 0.015559053
0.53410667 0.054068632 0.016159292
0.53412217 0.054920971 0.016161703
0.53493923 0.055704571 0.016761931
0.53495473 0.056555312 0.016764335
0.53497016 0.057406057 0.016766742
0.53578711 0.058183286 0.017366951
0.53580254 0.059032433 0.017369352
0.53661948 0.059804875 0.017969584
0.53663486 0.060652435 0.017971979
0.53745168 0.061420105 0.018572161
0.537467 0.062266067 0.018574554
0.53828371 0.063028954 0.019174721
0.53829908 0.063873328 0.019177109
0.53911567 0.06463144 0.019777264
0.53913099 0.06547422 0.019779647
0.5391463 0.066316992 0.019782031
0.53996283 0.067068726 0.020382203
0.53997815 0.067909904 0.020384582
0.54079455 0.068656869 0.020984704
0.54080981 0.06949646 0.020987079
0.54082507 0.070336044 0.020989453
0.54164135 0.071076632 0.021589559
0.54165655 0.071914628 0.021591928
0.54247278 0.07265044 0.02219202
0.54248798 0.073486842 0.022194386
0.54250318 0.074323244 0.022196751
0.54331928 0.075052679 0.022796823
0.54333442 0.075887494 0.022799185
0.54415047 0.076612137 0.02339928
0.54496646 0.077333607 0.02399933
0.54498154 0.078165233 0.024001682
0.54579741 0.078881927 0.02460172
0.54581249 0.079711951 0.024604067
0.5466283 0.080423862 0.025204092
0.54664332 0.081252299 0.025206434
0.54745901 0.081959434 0.025806444
0.54747403 0.082786277 0.025808783
0.54748905 0.08361312 0.025811121
0.54830468 0.084313877 0.02641115
0.54831964 0.085139126 0.026413484
0.54833466 0.085964374 0.026415817
0.54915011 0.086658761 0.02701579
0.54916507 0.087482423 0.027018121
0.54998046 0.088172026 0.02761808
0.54999536 0.088994093 0.027620405
0.55001032 0.089816153 0.02762273
0.5508256 0.090499394 0.028222675
0.5508405 0.091319866 0.028224993
0.5508554 0.092140332 0.028227314
0.5508703 0.092960805 0.028229635
0.5508852 0.093781285 0.028231954
0.55170029 0.094454944 0.028831907
0.5517152 0.09527383 0.028834222
0.5517301 0.096092701 0.028836537
0.55174494 0.096911587 0.028838854
0.55175984 0.097730458 0.02884117
0.55177468 0.098549344 0.028843485
0.55098951 0.099524587 0.028248196
0.55100441 0.10034506 0.028250517
0.55021936 0.10132508 0.027655276
0.55023432 0.10214714 0.0276576
0.54944932 0.10313194 0.027062375
0.5478645 0.10428425 0.025869576
0.54787952 0.10511109 0.025871916
0.54709476 0.10610545 0.025276717
0.58898443 0.24647143 0.054976575
0.58899808 0.24722181 0.054978698
0.58901167 0.24797219 0.054980822
0.58902532 0.24872257 0.054982942
0.58903897 0.24947293 0.054985065
0.58905256 0.25022331 0.054987185
0.58906621 0.2509737 0.054989308
0.58987373 0.25122997 0.055588044
0.58988732 0.25197873 0.05559016
0.58990091 0.25272754 0.05559228
0.5899145 0.25347629 0.055594396
0.59072191 0.2537246 0.056193128
0.5907355 0.25447178 0.05619524
0.59154272 0.25471532 0.056793939
0.59155631 0.25546089 0.056796048
0.59236348 0.25569963 0.05739475
0.59317064 0.25593522 0.057993427
0.59318411 0.2566776 0.057995528
0.59399116 0.25690839 0.05859419
0.59479815 0.25713596 0.059192862
0.59481156 0.2578752 0.059194956
0.59561849 0.25809801 0.059793595
0.5956319 0.25883564 0.059795681
0.59643871 0.25905365 0.060394328
0.59645206 0.25978968 0.060396407
0.50930089 0.027237134 -0.003153949
0.51736504 0.029748976 0.0028456785
0.51978552 0.03057199 0.0046457779
0.52060294 0.031430483 0.00524745
0.5222218 0.032261677 0.0064483266
0.52223772 0.03313791 0.0064508044
0.52305496 0.033986844 0.0070524509
0.5238722 0.034832593 0.0076540885
0.52388805 0.035705637 0.0076565575
0.52470517 0.036546607 0.0082581816
0.52552229 0.037384387 0.0088598309
0.52553809 0.03825425 0.0088622905
0.52635503 0.039087251 0.0094638923
0.52717197 0.039917067 0.010065483
0.52718771 0.040783744 0.010067934
0.52800453 0.041608781 0.010669513
0.5280202 0.04247386 0.010671959
0.52803594 0.04333894 0.010674406
0.52885264 0.044157606 0.011275967
0.52886832 0.045021094 0.011278409
0.52968502 0.045834977 0.011879991
0.5297007 0.046696868 0.011882428
0.53051722 0.047505978 0.012483962
0.53053284 0.048366278 0.012486394
0.5313493 0.049170606 0.013087914
0.53136486 0.050029311 0.013090343
0.53218126 0.050828859 0.013691848
0.53219682 0.051685978 0.013694272
0.53301316 0.052480739 0.014295802
0.53302866 0.053336259 0.014298221
0.53384489 0.054126248 0.014899699
0.534661 0.054913051 0.01550117
0.53467649 0.055765387 0.015503581
0.53469199 0.056617722 0.015505991
0.53550798 0.057398152 0.016107444
0.53552341 0.058248892 0.01610985
0.53633934 0.059024546 0.016711287
0.53635478 0.059873693 0.016713688
0.53717071 0.06064456 0.017315151
0.53718609 0.061492119 0.017317547
0.53720146 0.062339671 0.017319944
0.53801721 0.063104168 0.017921351
0.53803259 0.063950129 0.017923744
0.53884822 0.06470985 0.018525137
0.53886354 0.065554224 0.018527525
0.53967911 0.066309161 0.019128906
0.53969443 0.067151934 0.019131288
0.54050994 0.067902088 0.019732689
0.5405252 0.068743274 0.01973507
0.54134059 0.06948866 0.020336423
0.54135585 0.070328243 0.020338796
0.54137111 0.071167834 0.020341171
0.54218632 0.071906842 0.020942507
0.54220158 0.072744839 0.020944877
0.54301673 0.073479071 0.021546198
0.54303193 0.074315473 0.021548562
0.54304713 0.075151883 0.021550927
0.54386222 0.075879738 0.022152232
0.54467726 0.076604396 0.022753561
0.5446924 0.077437609 0.022755917
0.54550731 0.078157507 0.0233572
0.54552239 0.078989133 0.023359552
0.54633725 0.07970424 0.023960819
0.54635233 0.080534272 0.023963166
0.54716706 0.081244603 0.024564421
0.54718208 0.08207304 0.024566764
0.54719716 0.082901478 0.024569107
0.54801178 0.083605438 0.025170341
0.5480268 0.084432289 0.025172681
0.54884142 0.085131459 0.025773939
0.54885638 0.085956708 0.025776273
0.54887134 0.086781964 0.025778607
0.54968578 0.087474771 0.026379811
0.54970074 0.088298425 0.026382139
0.5497157 0.089122087 0.026384469
0.55053002 0.089808516 0.026985655
0.55054498 0.090630591 0.026987979
0.55055988 0.091452651 0.026990304
0.55137408 0.09213271 0.027591474
0.55138898 0.092953183 0.027593793
0.55140388 0.093773663 0.027596114
0.55141878 0.094594128 0.027598435
0.55143368 0.095414601 0.027600754
0.55144858 0.096235074 0.027603075
0.55146348 0.097055547 0.027605396
0.55147839 0.09787602 0.027607715
0.55149329 0.098696493 0.027610036
0.55150819 0.099516958 0.027612355
0.55072415 0.10049538 0.027015876
0.55073905 0.10131744 0.027018201
0.54995507 0.10230062 0.026421735
0.54917115 0.103287 0.025825281
0.54838723 0.10427657 0.025228798
0.54760343 0.10526931 0.024632361
0.54681969 0.10626525 0.024035931
0.58947247 0.24721484 0.054397181
0.58948606 0.24796522 0.054399304
0.58949971 0.24871559 0.054401428
0.58951336 0.24946596 0.054403547
0.58952695 0.25021634 0.054405671
0.5895406 0.25096673 0.05440779
0.58955425 0.25171709 0.054409914
0.58956784 0.25246745 0.054412037
0.59037429 0.25272056 0.055011999
0.59038788 0.25346935 0.055014115
0.59040147 0.25421813 0.055016231
0.59120786 0.25446483 0.055616193
0.59122139 0.25521204 0.055618305
0.59202766 0.25545397 0.056218237
0.59283388 0.25569272 0.056818172
0.59284735 0.25643674 0.056820277
0.59365344 0.25667071 0.057420187
0.59445947 0.2569015 0.058020081
0.59447294 0.25764233 0.058022179
0.59527892 0.25786832 0.058622081
0.59608483 0.25809115 0.059221957
0.59609818 0.25882879 0.059224043
0.5961116 0.2595664 0.059226129
0.59691739 0.25978285 0.059826002
0.51228899 0.028082084 -0.0020488703
0.51712453 0.029760063 0.0015587907
0.51954204 0.030584715 0.0033625979
0.52115893 0.031422313 0.0045659258
0.52277577 0.032253534 0.0057692723
0.52279168 0.033129767 0.0057717501
0.52360791 0.033978719 0.006374632
0.52362382 0.034853358 0.0063771051
0.52443999 0.035697527 0.0069799721
0.5252561 0.036538512 0.0075828303
0.52527189 0.037409965 0.0075852945
0.526088 0.038246166 0.008188175
0.52610379 0.039116029 0.0081906347
0.52691972 0.03994745 0.0087934658
0.52773559 0.04077569 0.0093962876
0.52775133 0.041642364 0.0093987389
0.52856714 0.042465821 0.010001547
0.52858287 0.043330904 0.010003993
0.52859855 0.044195984 0.01000644
0.52941424 0.04501307 0.01060923
0.52942991 0.045876559 0.010611672
0.53024554 0.046688862 0.011214484
0.53026122 0.047550756 0.011216923
0.53107673 0.048358284 0.011819686
0.53109235 0.049218584 0.011822118
0.53190774 0.050021335 0.012424869
0.53192335 0.050880041 0.012427298
0.53273869 0.051678013 0.013030034
0.53275424 0.052535124 0.013032458
0.53356951 0.053328309 0.013635217
0.53358507 0.054183833 0.013637637
0.53440022 0.054972243 0.014240346
0.53441572 0.055826172 0.014242761
0.53523082 0.056609802 0.014845456
0.53524631 0.057462137 0.014847866
0.53606129 0.058240991 0.015450548
0.53607672 0.059091732 0.015452955
0.53609216 0.059942473 0.015455361
0.53690708 0.060714953 0.016058024
0.53692245 0.061564103 0.016060425
0.53773731 0.062331796 0.016663112
0.53775269 0.063179351 0.016665509
0.53856736 0.063942268 0.017268147
0.53858274 0.064788237 0.017270539
0.53939736 0.065546378 0.017873162
0.53941268 0.066390745 0.01787555
0.54022723 0.067144103 0.018478163
0.54024249 0.067986883 0.018480545
0.54105699 0.068735458 0.019083176
0.54107225 0.069576643 0.019085556
0.54188663 0.070320442 0.019688141
0.54190189 0.071160033 0.019690514
0.54191715 0.071999632 0.019692888
0.54273134 0.072737053 0.020295454
0.54274654 0.07357505 0.020297823
0.54356068 0.074307702 0.020900374
0.54357588 0.075144105 0.02090274
0.54438996 0.075871982 0.021505278
0.5444051 0.076706789 0.021507639
0.54521912 0.077429868 0.0221102
0.54523426 0.078263089 0.022112556
0.54604816 0.078981407 0.022715067
0.54606324 0.079813026 0.022717418
0.54687709 0.080526561 0.023319917
0.54689211 0.081356592 0.023322264
0.54770583 0.082065344 0.023924747
0.54772091 0.082893781 0.023927091
0.54773593 0.083722219 0.023929432
0.54854953 0.084424607 0.024531899
0.54856455 0.085251451 0.024534237
0.5493781 0.085949041 0.025136726
0.54939312 0.086774297 0.02513906
0.54940808 0.087599546 0.025141394
0.5494231 0.088424794 0.025143728
0.5502364 0.089114435 0.025746157
0.55025136 0.089938089 0.025748488
0.55106467 0.090622954 0.026350904
0.55107957 0.091445014 0.026353229
0.55109453 0.092267074 0.026355553
0.55110943 0.093089148 0.026357878
0.55192256 0.093766034 0.026960272
0.55193752 0.094586506 0.026962591
0.55195242 0.095406979 0.026964912
0.55196732 0.096227452 0.026967233
0.55198222 0.097047925 0.026969552
0.55199713 0.09786839 0.026971873
0.55201203 0.098688871 0.026974194
0.55202693 0.099509336 0.026976513
0.55124384 0.10048774 0.026378801
0.55046082 0.10146932 0.025781097
0.55047578 0.10229297 0.025783425
0.54969287 0.10327933 0.025185734
0.54811209 0.10443317 0.023988001
0.54732937 0.1054275 0.023390334
0.58915478 0.24769238 0.053216536
0.58916843 0.24844436 0.053218663
0.58918208 0.24919632 0.05322079
0.5899877 0.24945898 0.053822029
0.59000134 0.25020936 0.053824153
0.59001499 0.25095975 0.053826276
0.59002858 0.25171012 0.053828396
0.59004223 0.25246048 0.053830519
0.59005588 0.25321087 0.053832643
0.59006947 0.25396124 0.053834762
0.59087485 0.25421116 0.05443595
0.5908885 0.25495994 0.054438066
0.59169376 0.25520509 0.055039257
0.59249902 0.25544703 0.055640422
0.59251255 0.25619265 0.05564253
0.59331775 0.25642982 0.056243699
0.59412283 0.25666383 0.056844842
0.59492785 0.25689462 0.057445973
0.59494132 0.25763544 0.057448067
0.59574628 0.25786147 0.058049206
0.59655112 0.2580843 0.058650315
0.59656453 0.25882193 0.058652401
0.59657794 0.25955954 0.058654487
0.59738272 0.25977603 0.059255596
0.51205647 0.028089866 -0.0033456418
0.51768553 0.029751819 0.00087109546
0.51930058 0.030597409 0.0020769516
0.52171493 0.03141414 0.0038844035
0.52253032 0.032269478 0.0044885734
0.52334565 0.033121627 0.0050926972
0.52336156 0.03399786 0.005095175
0.52417678 0.034845229 0.0056992862
0.52419263 0.035719872 0.0057017598
0.52500778 0.036562461 0.0063058576
0.52582282 0.037401866 0.006909945
0.52583867 0.03827332 0.0069124093
0.52665371 0.039107945 0.0075165206
0.5266695 0.039977804 0.0075189807
0.52748442 0.040807649 0.0081230411
0.52829927 0.04163431 0.0087270942
0.52831501 0.042500984 0.0087295445
0.52912974 0.043322865 0.0093335826
0.52914548 0.044187944 0.0093360292
0.52916116 0.045053028 0.0093384748
0.52997583 0.045868535 0.0099424962
0.52999151 0.046732023 0.0099449381
0.53080612 0.047542747 0.010548981
0.53082174 0.048404641 0.010551418
0.53163624 0.049210593 0.011155413
0.53165185 0.050070893 0.011157845
0.53246623 0.050872065 0.011761826
0.53248185 0.051730774 0.011764254
0.53329611 0.052527163 0.01236822
0.53331167 0.053384278 0.012370644
0.53412592 0.054175884 0.012974634
0.53414148 0.055031408 0.012977053
0.53415704 0.055886928 0.012979472
0.53497112 0.056672167 0.013583407
0.53498662 0.057526093 0.013585822
0.53580064 0.058306556 0.014189743
0.53581607 0.059158888 0.014192154
0.53663003 0.059934571 0.014796061
0.53664547 0.060785312 0.014798467
0.53745931 0.061556213 0.015402362
0.53747475 0.062405363 0.015404764
0.53828853 0.063171476 0.016008679
0.53830391 0.064019032 0.016011076
0.53911757 0.064780377 0.016614944
0.53913295 0.065626338 0.016617337
0.5399465 0.0663829 0.017221192
0.53996181 0.067227274 0.01722358
0.5407753 0.067979053 0.01782742
0.54079062 0.068821833 0.017829802
0.54160404 0.069568828 0.018433664
0.54161936 0.070410013 0.018436043
0.54243267 0.071152233 0.019039856
0.54244792 0.071991831 0.019042231
0.54326111 0.072729267 0.019646032
0.54327637 0.073567264 0.019648401
0.54329157 0.07440526 0.019650772
0.5441047 0.075136334 0.020254552
0.54411989 0.075972736 0.020256918
0.5449329 0.076699033 0.020860687
0.54494804 0.077533841 0.020863047
0.54576105 0.078255348 0.021466838
0.54577619 0.079088569 0.021469194
0.54658902 0.0798053 0.022072935
0.5466041 0.080636926 0.022075288
0.54741687 0.081348881 0.022679014
0.54743195 0.082178913 0.022681361
0.54744703 0.083008938 0.02268371
0.54825968 0.083714522 0.023287419
0.5482747 0.084542967 0.023289762
0.54908729 0.085243762 0.023893459
0.54910231 0.086070612 0.023895796
0.54911733 0.086897455 0.023898136
0.5499298 0.087591879 0.024501849
0.54994482 0.088417128 0.024504183
0.54995978 0.089242376 0.024506517
0.55077213 0.089930438 0.025110178
0.55078709 0.090754099 0.025112506
0.55080205 0.091577753 0.025114836
0.55161422 0.092259437 0.025718477
0.55162919 0.093081504 0.025720801
0.55164409 0.093903579 0.025723126
0.55165905 0.094725639 0.02572545
0.5524711 0.095399357 0.026329072
0.552486 0.096219823 0.026331391
0.5525009 0.097040303 0.026333712
0.5525158 0.097860768 0.026336033
0.55173367 0.098835967 0.025737075
0.55174863 0.099658027 0.0257394
0.55176353 0.1004801 0.025741724
0.55098152 0.10146166 0.025142787
0.55019963 0.10244641 0.024543855
0.54941767 0.10343435 0.023944899
0.54863584 0.10442548 0.023345988
0.54785407 0.10541978 0.022747084
0.54627562 0.10658474 0.021546951
0.58963019 0.2476854 0.052633785
0.58964384 0.24843737 0.052635912
0.58965749 0.24918935 0.052638039
0.58967113 0.2499413 0.052640166
0.58968478 0.25069326 0.052642293
0.58969843 0.25144523 0.052644417
0.58971214 0.25219721 0.052646544
0.58972579 0.25294918 0.052648671
0.59053028 0.2532039 0.053251125
0.59054387 0.25395426 0.053253245
0.59055752 0.25470465 0.053255368
0.59136182 0.254953 0.053857785
0.59137547 0.25570178 0.053859904
0.59217972 0.25594532 0.054462325
0.5929839 0.25618571 0.055064719
0.59378809 0.25642291 0.055667121
0.59459215 0.25665691 0.056269497
0.59460562 0.25739932 0.056271598
0.59540963 0.25762856 0.056873959
0.59621358 0.25785458 0.057476331
0.59622699 0.25859383 0.057478424
0.59703088 0.25881508 0.058080763
0.59704429 0.25955269 0.058082849
0.59705764 0.26029032 0.058084935
0.51744807 0.029762862 -0.00041949563
0.51906109 0.030610077 0.00078879821
0.52147245 0.031428445 0.0025999956
0.5230853 0.032261319 0.0038082851
0.52310121 0.033139147 0.0038107676
0.52391547 0.03398972 0.0044161221
0.52393138 0.034865953 0.0044185999
0.52474558 0.035711743 0.0050239405
0.5247615 0.036586381 0.0050264141
0.52557558 0.037427396 0.0056317411
0.5263896 0.038265225 0.0062370612
0.52640545 0.039136678 0.0062395255
0.52721941 0.039969724 0.0068448652
0.52723521 0.040839583 0.0068473248
0.52804911 0.041667849 0.007452616
0.52886289 0.042492934 0.0080578988
0.52887863 0.043359604 0.0080603492
0.52889436 0.044226278 0.0080628004
0.52970809 0.045044992 0.008668066
0.52972376 0.045910072 0.0086705126
0.53053737 0.046723999 0.0092757633
0.5305531 0.047587484 0.0092782043
0.53056878 0.048450977 0.0092806462
0.53138232 0.04925853 0.0098859137
0.53219575 0.050062899 0.010491139
0.53221136 0.050923198 0.010493572
0.53302467 0.051722795 0.011098783
0.53304029 0.0525815 0.01110121
0.53385353 0.053376313 0.011706407
0.53386915 0.054233428 0.011708831
0.5338847 0.055090543 0.011711255
0.53469789 0.055878978 0.012316468
0.53471339 0.056734499 0.012318888
0.53552645 0.057518158 0.012924054
0.53554195 0.058372092 0.012926469
0.53635496 0.059150971 0.013531621
0.53637046 0.060003307 0.013534031
0.53718328 0.060777407 0.014139169
0.53719878 0.061628152 0.014141575
0.53721422 0.062478893 0.014143981
0.53802699 0.063246623 0.0147491
0.53804243 0.064095765 0.014751502
0.53885514 0.064858712 0.015356645
0.53966773 0.065618478 0.015961742
0.5396831 0.066464439 0.015964136
0.54049563 0.067219429 0.01656922
0.54051095 0.068063796 0.016571606
0.54132342 0.068814002 0.017176677
0.54133874 0.069656774 0.017179061
0.54215115 0.070402198 0.017784154
0.54216641 0.071243376 0.017786533
0.5429787 0.071984023 0.018391576
0.54299396 0.072823614 0.018393951
0.54380614 0.073559478 0.018998981
0.54382133 0.074397475 0.01900135
0.54383659 0.075235471 0.019003719
0.54464865 0.075964965 0.019608732
0.54466385 0.076801367 0.019611096
0.54547584 0.077526085 0.020216094
0.54549098 0.0783609 0.020218456
0.54630291 0.079080828 0.020823477
0.54631805 0.079914041 0.020825833
0.54712987 0.0806292 0.021430805
0.54714495 0.081460826 0.021433156
0.54716009 0.082292445 0.021435509
0.54797179 0.083001226 0.022040462
0.54798687 0.083831258 0.022042809
0.54879844 0.084535271 0.022647748
0.54881352 0.085363701 0.022650091
0.54882854 0.086192138 0.022652434
0.54964006 0.086889774 0.023257356
0.54965508 0.087716617 0.023259694
0.5496701 0.08854346 0.023262033
0.5504815 0.08923471 0.023866972
0.55049652 0.090059958 0.023869306
0.5513078 0.090746447 0.024474196
0.55132276 0.091570102 0.024476526
0.55133772 0.092393763 0.024478855
0.55214888 0.093073867 0.025083726
0.55216378 0.093895942 0.025086053
0.55217874 0.094718002 0.025088377
0.55219364 0.095540062 0.025090702
0.5522086 0.096362129 0.025093026
0.5522235 0.097184196 0.025095351
0.55223846 0.098006256 0.025097676
0.55225337 0.098828331 0.0251
0.55226833 0.09965039 0.025102325
0.55148733 0.10063035 0.024502147
0.55150229 0.10145401 0.024504477
0.54992539 0.10259983 0.023301782
0.54914457 0.10358935 0.022701632
0.54836375 0.10458204 0.02210149
0.54758304 0.10557793 0.021501357
0.54680234 0.106577 0.020901233
0.5460217 0.10757928 0.020301083
0.5444454 0.10875537 0.019098511
0.54366493 0.10976558 0.018498419
0.54208881 0.11095283 0.017295841
0.59011924 0.24843039 0.052053161
0.59013289 0.24918236 0.052055288
0.59014654 0.24993432 0.052057415
0.59016019 0.25068629 0.052059542
0.59017384 0.25143826 0.052061666
0.59018749 0.25219023 0.052063793
0.59020114 0.2529422 0.05206592
0.59021485 0.25369418 0.052068047
0.5902285 0.25444612 0.052070174
0.59103191 0.25469768 0.05267385
0.5910455 0.25544801 0.052675974
0.59184885 0.25569481 0.05327962
0.59265208 0.25593838 0.053883277
0.59266567 0.25668555 0.053885389
0.59346884 0.25692439 0.054489013
0.59427196 0.25715998 0.055092648
0.59507501 0.25739241 0.055696253
0.59587795 0.25762168 0.05629985
0.59589142 0.25836247 0.056301948
0.59669435 0.25858694 0.056905549
0.59749717 0.25880823 0.057509124
0.59751058 0.25954583 0.057511207
0.59752399 0.26028347 0.057513293
0.51721263 0.029773876 -0.0017125561
0.51962107 0.030601848 0.00010233551
0.52123201 0.031442717 0.001313117
0.52284282 0.032277219 0.0025238441
0.52365619 0.033130988 0.003130479
0.52446944 0.033981577 0.0037370673
0.52448535 0.03485781 0.0037395454
0.52450126 0.035734043 0.0037420231
0.52531439 0.036578257 0.0043485952
0.52533031 0.037452895 0.0043510683
0.52614337 0.03829233 0.0049576252
0.52695638 0.039128579 0.0055641741
0.52697217 0.040000033 0.0055666389
0.52778518 0.040831499 0.0061732093
0.52780098 0.041701362 0.0061756689
0.52861381 0.042528052 0.0067821913
0.52862954 0.043396316 0.0067846468
0.52944231 0.044218227 0.0073911538
0.52945805 0.045084901 0.0073936046
0.5302707 0.045902032 0.0080001
0.53028643 0.046767112 0.0080025466
0.53109896 0.047579464 0.0086090267
0.53111464 0.048442952 0.0086114686
0.53113031 0.049306441 0.0086139105
0.53194284 0.050112415 0.0092204101
0.53195852 0.050974309 0.0092228474
0.53277087 0.051775511 0.0098292958
0.53278649 0.052635811 0.0098317284
0.53359878 0.05343223 0.010438166
0.53361434 0.054290939 0.010440594
0.53442657 0.055082582 0.011047015
0.53444213 0.055939693 0.011049439
0.5352543 0.056726549 0.011655884
0.5352698 0.057582073 0.011658303
0.53528535 0.058437593 0.011660722
0.53609735 0.059218083 0.012267114
0.53611284 0.060072009 0.012269529
0.53692478 0.060847722 0.012875905
0.53694022 0.061700057 0.012878316
0.53775203 0.062470987 0.01348468
0.53776753 0.063321732 0.013487086
0.53857923 0.064087875 0.014093435
0.53859466 0.064937025 0.014095836
0.53940636 0.065698393 0.01470221
0.54021794 0.066456579 0.015308538
0.54023331 0.067302547 0.015310929
0.54104477 0.06805595 0.015917245
0.54106015 0.068900317 0.015919633
0.54187155 0.069648944 0.016525932
0.54268295 0.070394382 0.017132262
0.5426982 0.07123556 0.01713464
0.54350948 0.071976222 0.017740916
0.54352474 0.072815813 0.017743291
0.54354 0.073655404 0.017745666
0.54435116 0.074389689 0.018351927
0.54436636 0.075227685 0.018354297
0.54438156 0.076065682 0.018356666
0.5451926 0.076793596 0.018962907
0.5452078 0.077629998 0.018965272
0.54601872 0.078353144 0.019571502
0.54603392 0.079187952 0.019573864
0.54604906 0.08002276 0.019576224
0.54685998 0.08073952 0.02018247
0.54687506 0.081572734 0.020184826
0.5476858 0.082284719 0.020791024
0.54770094 0.083116345 0.020793375
0.54851156 0.083823547 0.021399558
0.54852664 0.084653579 0.021401906
0.54854172 0.085483611 0.021404253
0.54935229 0.086184442 0.02201042
0.54936731 0.087012887 0.022012763
0.55017781 0.087708935 0.022618914
0.55019283 0.088535778 0.022621252
0.55020785 0.089362621 0.022623589
0.55101824 0.090052292 0.023229759
0.5510332 0.090877555 0.023232093
0.55104822 0.091702804 0.023234427
0.55185843 0.092386104 0.023840543
0.55187339 0.093209766 0.023842873
0.55188835 0.094033428 0.023845201
0.55269843 0.094710365 0.024451299
0.55271339 0.095532425 0.024453623
0.5527283 0.096354492 0.024455948
0.55274326 0.097176559 0.024458272
0.55275816 0.097998619 0.024460599
0.55197811 0.098975375 0.023859177
0.55199307 0.09979903 0.023861507
0.55200803 0.1006227 0.023863835
0.55122805 0.10160583 0.023262432
0.55044812 0.10259215 0.022661002
0.54966825 0.10358164 0.022059618
0.5488885 0.10457433 0.02145824
0.54731399 0.10573605 0.020253157
0.5465343 0.1067367 0.019651769
0.54575473 0.10774055 0.019050423
0.54497516 0.10874758 0.018449087
0.54419571 0.10975778 0.01784776
0.54262161 0.110945 0.016642714
0.5898056 0.24890947 0.050867599
0.58981931 0.24966303 0.050869729
0.58983302 0.25041658 0.05087186
0.58984667 0.25117013 0.050873991
0.58986038 0.25192371 0.050876122
0.58987409 0.25267726 0.050878253
0.58988774 0.25343081 0.050880384
0.58990145 0.2541844 0.050882518
0.59070385 0.25443915 0.05148742
0.59071755 0.25519109 0.051489547
0.59151989 0.25544104 0.052094456
0.59153354 0.25619143 0.052096579
0.59233582 0.25643665 0.052701455
0.59313804 0.25667861 0.053306341
0.5939402 0.25691748 0.053911202
0.59395373 0.25766304 0.05391331
0.59475583 0.25789708 0.054518174
0.59555781 0.25812793 0.055123009
0.59635979 0.25835559 0.055727836
0.59716171 0.25858009 0.056332674
0.59717512 0.25931931 0.056334764
0.59797692 0.25953898 0.056939568
0.59799033 0.26027662 0.056941655
0.5177756 0.0297656 -0.0024027207
0.51938462 0.030614469 -0.0011894836
0.52179003 0.031434517 0.0006291251
0.52339876 0.032269046 0.0018423217
0.52341473 0.033148468 0.0018448086
0.52422708 0.034000661 0.0024526732
0.52503932 0.03484967 0.0030604922
0.52505523 0.035725899 0.0030629702
0.52507114 0.036602132 0.003065448
0.52588326 0.03744477 0.0036732494
0.52589911 0.038319409 0.0036757227
0.52671117 0.039157264 0.0042835106
0.52672702 0.040030312 0.0042859791
0.52753896 0.040863391 0.0048937537
0.52755481 0.041734844 0.004896218
0.52836668 0.042563137 0.0055040149
0.52838248 0.043432999 0.0055064745
0.52919424 0.044256516 0.0061142216
0.53000593 0.045076847 0.0067219599
0.53002167 0.045943521 0.0067244107
0.5308333 0.046759073 0.0073321355
0.53084904 0.047624156 0.0073345816
0.53166056 0.048434932 0.0079422928
0.53167623 0.049298417 0.0079447348
0.53169191 0.050161906 0.0079471767
0.53250337 0.0509663 0.0085549057
0.53251904 0.051828198 0.0085573429
0.53333038 0.052627817 0.0091650225
0.533346 0.053488117 0.0091674561
0.53415722 0.05428296 0.0097751217
0.53417283 0.055141669 0.0097775497
0.53498399 0.055931732 0.010385202
0.53499955 0.056788847 0.010387626
0.53501511 0.057645958 0.01039005
0.53582621 0.058429647 0.010997719
0.53584176 0.059285168 0.011000139
0.53665268 0.060064077 0.01160776
0.53666824 0.060918007 0.011610175
0.5374791 0.061692137 0.012217782
0.53749454 0.062544473 0.012220193
0.53830534 0.063313827 0.012827787
0.53832078 0.064164571 0.012830192
0.53913146 0.064929135 0.013437773
0.5391469 0.065778293 0.013440174
0.53995758 0.066538081 0.014047777
0.54076809 0.067294687 0.014655335
0.54078346 0.068140648 0.014657727
0.54159391 0.068892471 0.015265272
0.54160929 0.069736838 0.01526766
0.54241967 0.070483893 0.01587519
0.54323 0.071227744 0.016482748
0.54324532 0.07206893 0.016485127
0.54405552 0.072808012 0.017092636
0.54407078 0.073647603 0.017095011
0.54408604 0.074487194 0.017097384
0.54489613 0.075219899 0.017704874
0.54491132 0.076057896 0.017707244
0.54492658 0.076895893 0.017709615
0.54573655 0.077622227 0.018317087
0.54575175 0.078458637 0.018319452
0.54656166 0.079180196 0.018926911
0.54657686 0.080015004 0.018929271
0.546592 0.080849819 0.018931633
0.54740185 0.081564993 0.019539108
0.54741699 0.082398213 0.019541465
0.54743212 0.083231427 0.019543821
0.54824179 0.083940238 0.020151243
0.54825687 0.084771864 0.020153595
0.54906648 0.085475899 0.020761004
0.54908156 0.086305931 0.020763351
0.54989105 0.087005183 0.021370746
0.54990613 0.087833621 0.021373089
0.54992115 0.088662058 0.021375433
0.55073059 0.08935494 0.02198281
0.55074555 0.090181783 0.021985149
0.55155492 0.090869881 0.022592548
0.55156994 0.091695137 0.022594882
0.5515849 0.092520386 0.022597216
0.55239409 0.093202114 0.023204563
0.55240905 0.094025776 0.023206891
0.55242401 0.09484943 0.023209222
0.55243897 0.095673099 0.02321155
0.55245394 0.096496746 0.02321388
0.5524689 0.097320408 0.023216208
0.55248386 0.098144069 0.023218539
0.55249882 0.098967724 0.023220867
0.55251378 0.099791378 0.023223197
0.55252874 0.10061505 0.023225525
0.55174977 0.10159816 0.022622887
0.55097085 0.10258447 0.022020223
0.54939818 0.10373659 0.020812644
0.54861945 0.10473085 0.020210037
0.54784071 0.10572831 0.01960744
0.54706204 0.10672895 0.019004816
0.54628348 0.10773278 0.018402236
0.54550499 0.10873979 0.017799666
0.54472649 0.10974998 0.017197104
0.54394811 0.11076336 0.016594552
0.54396337 0.11160455 0.01659693
0.59028202 0.24890247 0.050283615
0.59029573 0.24965602 0.050285745
0.59030938 0.25040957 0.050287876
0.59032309 0.25116313 0.050290007
0.5903368 0.25191671 0.050292138
0.59035045 0.25267026 0.050294269
0.59036416 0.25342381 0.0502964
0.59037781 0.25417739 0.050298531
0.59039152 0.25493094 0.050300661
0.59040523 0.25568449 0.050302792
0.59120661 0.25593609 0.050908923
0.59122026 0.25668806 0.05091105
0.59202152 0.25693482 0.051517185
0.59282279 0.25717846 0.05212329
0.593624 0.25741887 0.052729409
0.59442508 0.25765613 0.053335495
0.59522617 0.25789016 0.053941596
0.5960272 0.25812104 0.054547668
0.5968281 0.25834873 0.055153728
0.59684157 0.25908953 0.055155821
0.59764242 0.25931242 0.055761889
0.59765589 0.26005164 0.055763979
0.59845662 0.26026976 0.056370016
0.51915026 0.030627061 -0.0024837735
0.52155262 0.031448748 -0.0006614555
0.52315938 0.032284901 0.00055421499
0.52397072 0.033140294 0.0011632862
0.5239867 0.034019716 0.0011657731
0.52479798 0.03487033 0.0017748685
0.52481395 0.035748154 0.0017773509
0.52562511 0.036593992 0.0023863951
0.52564102 0.037470225 0.0023888729
0.52645206 0.038311284 0.002997905
0.52646798 0.039185923 0.0030003786
0.52727896 0.040022202 0.0036093956
0.52729481 0.040895246 0.0036118645
0.52810574 0.041726746 0.004220868
0.52812153 0.042598199 0.0042233327
0.52893239 0.043424916 0.0048323604
0.52894819 0.044294775 0.0048348201
0.52975893 0.045116719 0.005443797
0.53056961 0.045935471 0.006052766
0.53058535 0.046802144 0.0060552168
0.53139591 0.047616117 0.0066641709
0.53141165 0.0484812 0.0066666175
0.53142732 0.049346279 0.0066690636
0.53223783 0.050153881 0.0072779995
0.5322535 0.051017366 0.0072804415
0.53306395 0.051820189 0.0078894021
0.53307956 0.052682083 0.0078918394
0.53388989 0.053480126 0.0085007483
0.53390551 0.054340426 0.0085031809
0.53392112 0.05520073 0.0085056135
0.53473133 0.055992398 0.0091145067
0.53474689 0.056851108 0.0091169346
0.53555697 0.057637997 0.0097258119
0.53557253 0.058495112 0.0097282361
0.53638262 0.059277218 0.010337136
0.53639817 0.060132738 0.010339555
0.53641367 0.060988259 0.010341975
0.53722358 0.061764002 0.010950822
0.53803343 0.062536553 0.01155966
0.53804886 0.063388884 0.01156207
0.53885865 0.064156666 0.012170894
0.53887409 0.065007403 0.012173301
0.53968376 0.065770403 0.01278211
0.53969914 0.066619553 0.012784512
0.54050881 0.067377761 0.013393344
0.5413183 0.068132788 0.014002133
0.54133368 0.068978749 0.014004525
0.54214311 0.069728993 0.014613299
0.54215842 0.070573367 0.014615687
0.54296774 0.071318835 0.015224448
0.54377711 0.072061114 0.015833236
0.54379237 0.072902299 0.015835615
0.54380763 0.073743477 0.015837993
0.54461682 0.074479394 0.016446726
0.54463208 0.075318985 0.016449101
0.54544115 0.07605011 0.017057823
0.54545635 0.076888107 0.017060192
0.54547155 0.077726103 0.017062562
0.54628056 0.078450866 0.017671265
0.5462957 0.079287268 0.01767363
0.5463109 0.08012367 0.017675994
0.54711974 0.080842063 0.01828468
0.54713494 0.081676871 0.01828704
0.54715008 0.082511678 0.018289402
0.54795885 0.083223686 0.018898103
0.54797399 0.084056906 0.01890046
0.54878265 0.084764138 0.019509112
0.54879773 0.085595764 0.019511463
0.54881287 0.086427391 0.019513816
0.5496214 0.087128252 0.020122452
0.54963648 0.087958284 0.020124799
0.5504449 0.088654362 0.02073342
0.55045992 0.089482807 0.020735761
0.55126828 0.090174101 0.021344371
0.5512833 0.091000952 0.021346709
0.55209166 0.091687471 0.021955339
0.55210662 0.092512719 0.021957671
0.55212164 0.093337968 0.021960005
0.5521366 0.094163224 0.021962339
0.55294472 0.094841778 0.02257091
0.55295968 0.09566544 0.02257324
0.55297464 0.096489094 0.022575568
0.5529896 0.097312756 0.022577899
0.55300456 0.09813641 0.022580227
0.55301952 0.098960072 0.022582557
0.55303448 0.099783726 0.022584885
0.55225652 0.10076524 0.02198101
0.55147856 0.10174993 0.021377105
0.55070072 0.10273781 0.020773245
0.54992288 0.10372888 0.020169396
0.54914516 0.10472313 0.019565554
0.5483675 0.10572056 0.018961722
0.54679704 0.1068886 0.017751683
0.54681224 0.10772501 0.017754048
0.54603475 0.10873201 0.017150244
0.54525727 0.10974218 0.016546447
0.54447991 0.11075555 0.015942661
0.54449517 0.11159673 0.01594504
0.58997142 0.24938151 0.049094334
0.58998513 0.25013664 0.049096469
0.58999884 0.2508918 0.049098603
0.59001255 0.25164697 0.049100738
0.59002632 0.25240213 0.049102876
0.59004003 0.25315726 0.049105011
0.59005374 0.25391242 0.049107146
0.59085423 0.25417039 0.049714547
0.59086794 0.25492394 0.049716678
0.59088159 0.25567749 0.049718808
0.5908953 0.25643104 0.049720939
0.59169561 0.25668105 0.050328299
0.59249592 0.25692788 0.050935667
0.59250957 0.25767824 0.05093779
0.59330976 0.2579203 0.051545128
0.59410989 0.25815913 0.052152473
0.59491003 0.25839478 0.052759793
0.59571004 0.25862724 0.053367119
0.59650999 0.25885656 0.053974424
0.59730989 0.25908265 0.054581713
0.59732336 0.25982347 0.05458381
0.59812319 0.26004478 0.055191107
0.5981366 0.260784 0.055193197
0.51971227 0.0306188 -0.0031727043
0.52131718 0.031462949 -0.0019545418
0.52292198 0.032300722 -0.00073636119
0.52373236 0.033157725 -0.00012605001
0.52454263 0.034011543 0.00048425066
0.5245586 0.034890965 0.00048673758
0.52536887 0.035739999 0.0010970625
0.52538484 0.036617823 0.0010995448
0.52619493 0.037462085 0.00170982
0.52621084 0.038338315 0.0017122979
0.52702093 0.039177794 0.0023225595
0.52703679 0.040052436 0.0023250328
0.5270527 0.040927075 0.0023275062
0.52786261 0.04176018 0.0029377497
0.52867246 0.0425901 0.0035479844
0.52868831 0.043461554 0.0035504487
0.5294981 0.044286694 0.004160706
0.5295139 0.045156553 0.004163166
0.53032362 0.045976914 0.0047733719
0.53113323 0.04679409 0.0053835707
0.53114897 0.047660764 0.0053860215
0.53195852 0.048473161 0.0059962063
0.53197426 0.04933824 0.0059986529
0.53198999 0.050203323 0.006001099
0.53279936 0.051009346 0.0066112662
0.5328151 0.051872835 0.0066137081
0.53283077 0.05273632 0.00661615
0.53364015 0.053535968 0.0072263349
0.53365576 0.054397859 0.0072287722
0.53446501 0.055192735 0.0078389077
0.53448063 0.056053035 0.0078413403
0.53528976 0.056843128 0.0084514627
0.53530538 0.057701834 0.0084538907
0.53532094 0.058560543 0.0084563196
0.53613001 0.059344262 0.0090664215
0.53614557 0.060201377 0.0090688458
0.53695452 0.060980313 0.009678972
0.53697008 0.061835837 0.0096813915
0.53777891 0.062609993 0.010291468
0.53858775 0.063380972 0.010901536
0.53860319 0.064233303 0.010903947
0.5394119 0.064999498 0.011514001
0.5394274 0.065850243 0.011516407
0.540236 0.066611663 0.012126448
0.54025143 0.067460813 0.012128849
0.54105997 0.068217441 0.012738912
0.54186845 0.068970889 0.01334893
0.54188383 0.06981685 0.013351321
0.54269224 0.070565522 0.013961326
0.54270756 0.071409889 0.013963714
0.54351586 0.072153784 0.014573705
0.54353118 0.072996564 0.014576089
0.54433942 0.073735662 0.015186103
0.54435474 0.074576847 0.015188482
0.54516286 0.075311184 0.015798446
0.54517812 0.076150768 0.015800821
0.54519331 0.076990359 0.015803194
0.54600137 0.077718318 0.016413141
0.54601657 0.078556322 0.01641551
0.54603177 0.079394318 0.01641788
0.54683971 0.080115899 0.017027808
0.54685491 0.080952302 0.017030174
0.54687005 0.081788711 0.017032539
0.54767787 0.082503922 0.017642448
0.54769301 0.08333873 0.017644808
0.54770821 0.084173545 0.01764717
0.54851592 0.084882386 0.018257098
0.54853106 0.085715599 0.018259455
0.54933864 0.086419664 0.018869333
0.54935372 0.087251291 0.018871684
0.55016118 0.087950565 0.019481549
0.55017626 0.088780604 0.019483896
0.55098367 0.089475103 0.020093748
0.55099875 0.090303548 0.020096092
0.55180603 0.09099327 0.020705929
0.55182105 0.091820113 0.020708267
0.55183607 0.092646956 0.020710606
0.55264336 0.093330301 0.021320462
0.55265832 0.094155557 0.021322796
0.55267334 0.094980806 0.02132513
0.5526883 0.095806062 0.021327464
0.55349535 0.096481442 0.021937259
0.55351031 0.097305104 0.021939589
0.55352527 0.098128758 0.021941917
0.55274826 0.099107064 0.021336798
0.55276322 0.099932313 0.021339132
0.55277824 0.10075757 0.021341465
0.5520013 0.10174225 0.020736326
0.55122447 0.10273012 0.020131232
0.55044764 0.10372116 0.019526146
0.54967093 0.1047154 0.018921072
0.54810244 0.10587863 0.017708549
0.54732585 0.10688083 0.017103497
0.54654932 0.10788622 0.016498452
0.54577285 0.1088948 0.015893416
0.54499644 0.10990655 0.015288391
0.54580331 0.11057398 0.015898166
0.54502696 0.11158892 0.015293148
0.59044886 0.24937449 0.048509113
0.59046257 0.25012964 0.048511248
0.59047627 0.2508848 0.048513383
0.59048998 0.25163993 0.048515517
0.59050369 0.25239509 0.048517656
0.5905174 0.25315025 0.04851979
0.59053111 0.25390542 0.048521925
0.59054482 0.25466058 0.048524059
0.59055859 0.25541571 0.048526198
0.5905723 0.25617087 0.048528332
0.59137172 0.25642404 0.049136952
0.59138536 0.25717762 0.049139082
0.59218466 0.25742605 0.049747676
0.59298396 0.25767127 0.050356273
0.59299755 0.25842166 0.050358396
0.59379673 0.2586621 0.050966963
0.59459585 0.25889936 0.051575538
0.59539491 0.25913346 0.05218409
0.59619391 0.25936434 0.052792646
0.59699285 0.25959206 0.05340118
0.59779173 0.25981659 0.054009702
0.59859055 0.2600379 0.054618232
0.59860396 0.26077712 0.054620322
0.52268666 0.032316513 -0.0020294082
0.52349603 0.033175126 -0.0014178585
0.52430534 0.034030553 -0.00080631644
0.5251146 0.034882791 -0.00019478484
0.52513057 0.035762209 -0.00019229793
0.52593982 0.036609668 0.00041925639
0.52595574 0.037487496 0.00042173881
0.52676481 0.038330175 0.0010332449
0.52678072 0.039206408 0.0010357228
0.52679664 0.040082641 0.0010382007
0.52760565 0.040918946 0.0016496872
0.52762151 0.041793589 0.0016521605
0.5284304 0.042625114 0.0022636335
0.52923924 0.043453459 0.0028750992
0.52925503 0.044324912 0.0028775635
0.53006387 0.045148473 0.0034890503
0.53007966 0.046018332 0.0034915102
0.53088832 0.046837114 0.0041029472
0.53169692 0.04765271 0.0047143768
0.53171265 0.048519388 0.0047168275
0.53172839 0.049386062 0.0047192783
0.53253686 0.050195284 0.0053306883
0.5325526 0.051060364 0.0053331344
0.53256828 0.051925447 0.005335581
0.53337663 0.052728299 0.0059469729
0.53339231 0.053591784 0.0059494148
0.53420067 0.054389853 0.0065608295
0.53421634 0.055251747 0.0065632667
0.53502452 0.05604504 0.007174633
0.53504014 0.05690534 0.0071770661
0.53505576 0.057765644 0.0071794991
0.53586382 0.058552567 0.0077908458
0.53587943 0.059411272 0.0077932742
0.53668743 0.060193412 0.0084046079
0.53670299 0.061050531 0.0084070312
0.53751093 0.061827887 0.0090183886
0.53752649 0.062683411 0.0090208082
0.53833431 0.063455991 0.0096321143
0.53914207 0.064225383 0.010243412
0.53915751 0.065077722 0.010245822
0.53996521 0.065842338 0.010857107
0.53998065 0.066693082 0.010859514
0.54078823 0.067452922 0.011470784
0.54080367 0.068302065 0.011473185
0.54161119 0.069057122 0.012084478
0.54241866 0.06980899 0.012695727
0.54243404 0.070654951 0.01269812
0.54324138 0.071402043 0.013309354
0.5432567 0.072246417 0.013311742
0.54406399 0.072988734 0.013922962
0.5440793 0.073831506 0.013925346
0.54488653 0.074569032 0.01453659
0.54490179 0.075410217 0.014538969
0.54491705 0.076251402 0.014541348
0.54572415 0.076982558 0.015152537
0.54573935 0.077822149 0.015154911
0.54575461 0.078661747 0.015157286
0.5465616 0.079386532 0.015768457
0.5465768 0.080224529 0.015770826
0.546592 0.081062526 0.015773196
0.54739887 0.08178094 0.016384352
0.54741406 0.082617342 0.016386716
0.5474292 0.083453745 0.016389081
0.54823595 0.084165789 0.017000217
0.54825109 0.085000604 0.017002577
0.54826629 0.085835412 0.017004939
0.54907292 0.086541079 0.017616091
0.54908806 0.087374292 0.017618448
0.54989457 0.088075183 0.018229552
0.54990965 0.08890681 0.018231904
0.5507161 0.089602917 0.018842995
0.55073118 0.090432949 0.018845342
0.55153751 0.091124289 0.019456418
0.55155259 0.091952726 0.019458761
0.55235881 0.092639267 0.020069825
0.55237383 0.093466125 0.020072164
0.55238885 0.094292969 0.020074502
0.55319506 0.094973132 0.020685583
0.55321002 0.095798396 0.020687917
0.55322504 0.096623637 0.020690251
0.55324 0.097448893 0.020692585
0.55325502 0.098274149 0.020694919
0.55326998 0.099099398 0.020697253
0.553285 0.099924646 0.020699587
0.55329996 0.10074989 0.020701921
0.55252403 0.10173457 0.020095546
0.55174816 0.10272242 0.019489218
0.5509724 0.10371345 0.018882899
0.54940587 0.10487186 0.017667929
0.54863018 0.10587087 0.017061597
0.5478546 0.10687306 0.016455309
0.54707909 0.10787843 0.01584903
0.54709429 0.10871644 0.015851399
0.54631889 0.10972658 0.015245134
0.54633415 0.11056618 0.015247509
0.54634935 0.11140576 0.015249883
0.59093994 0.25012264 0.047926027
0.59095365 0.25087777 0.047928162
0.59018254 0.25212371 0.047322564
0.59019625 0.25288045 0.047324702
0.59021002 0.25363719 0.047326844
0.59022373 0.25439394 0.047328983
0.5902375 0.25515071 0.047331125
0.59025127 0.25590745 0.047333263
0.59104967 0.25616384 0.047943112
0.59106338 0.256919 0.047945246
0.59186178 0.25717062 0.048555098
0.59187549 0.25792417 0.048557229
0.59267372 0.25817102 0.049167048
0.59347194 0.25841469 0.049776878
0.59427011 0.25865516 0.050386678
0.59506822 0.25889242 0.05099649
0.59586626 0.25912651 0.051606275
0.59666425 0.25935742 0.052216068
0.59746218 0.25958517 0.052825835
0.59747565 0.26032755 0.052827936
0.59827352 0.26055053 0.053437687
0.59907132 0.26077026 0.054047447
0.52326167 0.033192497 -0.002712135
0.52407002 0.034049533 -0.0020993545
0.52487832 0.034903377 -0.0014865836
0.5248943 0.03578439 -0.0014840922
0.52570254 0.036633458 -0.00087133417
0.52571851 0.037512876 -0.00086884724
0.52652663 0.038357165 -0.0002560665
0.5265426 0.039234988 -0.00025358409
0.5273506 0.040074497 0.00035914616
0.52736652 0.04095073 0.00036162409
0.52817446 0.04178546 0.00097434153
0.52819037 0.042660102 0.000976815
0.5289982 0.043490052 0.0015895182
0.52980602 0.044316813 0.002202213
0.52982181 0.045188271 0.0022046776
0.53062958 0.046010248 0.0028173944
0.53064537 0.046880107 0.0028198543
0.53145301 0.047697313 0.0034325223
0.53146875 0.048565581 0.0034349777
0.53227627 0.049378008 0.0040476313
0.53229201 0.050244682 0.0040500821
0.53309947 0.051052328 0.0046627233
0.53311521 0.051917408 0.0046651694
0.53313088 0.052782487 0.004667616
0.53393823 0.053583764 0.0052802381
0.53395391 0.054447249 0.00528268
0.53396958 0.055310737 0.0052851215
0.53477687 0.056105632 0.0058977627
0.53479254 0.056967527 0.0059002
0.53559965 0.05775765 0.0065127914
0.53561527 0.058617953 0.0065152245
0.53642231 0.059403293 0.0071278014
0.53643793 0.060262002 0.0071302298
0.53724486 0.061042566 0.0077427942
0.53726041 0.061899681 0.007745218
0.53806734 0.062675461 0.0083578043
0.5380829 0.063530982 0.0083602238
0.53888965 0.064301983 0.0089727603
0.53890514 0.065155916 0.0089751752
0.53971189 0.065922141 0.0095876986
0.54051852 0.066685177 0.010200214
0.54053396 0.067535922 0.010202619
0.54134053 0.068294182 0.010815119
0.54135591 0.069143325 0.010817521
0.54216242 0.069896802 0.011430045
0.54296881 0.070647091 0.012042523
0.54298419 0.071493052 0.012044916
0.54379052 0.072238572 0.012657381
0.54380584 0.073082939 0.012659769
0.54461211 0.073823676 0.01327222
0.54462737 0.074666455 0.013274604
0.54464269 0.075509228 0.013276987
0.54544884 0.076243587 0.013889455
0.54546416 0.077084765 0.013891835
0.54547942 0.07792595 0.013894213
0.54628539 0.078653947 0.014506629
0.54630065 0.07949353 0.014509003
0.54631591 0.080333121 0.014511378
0.54712182 0.08105474 0.015123774
0.54713702 0.081892736 0.015126144
0.54715222 0.082730733 0.015128514
0.54795802 0.083445974 0.015740894
0.54797322 0.084282383 0.015743259
0.54798841 0.085118786 0.015745623
0.54879403 0.085827656 0.016357984
0.54880923 0.086662471 0.016360346
0.54961479 0.087366551 0.01697273
0.54962993 0.088199772 0.016975086
0.54964507 0.089032985 0.016977442
0.5504505 0.089730702 0.017589772
0.55125594 0.090425238 0.018202092
0.55127102 0.09125527 0.018204439
0.55207628 0.09194503 0.018816747
0.55209136 0.09277346 0.01881909
0.55210638 0.093601897 0.018821433
0.55291158 0.094285287 0.019433722
0.5529266 0.09511213 0.01943606
0.55294162 0.095938973 0.019438397
0.55374676 0.09661597 0.020050706
0.55376172 0.097441226 0.02005304
0.55377674 0.098266475 0.020055374
0.5537917 0.099091731 0.020057706
0.55380672 0.09991698 0.02006004
0.55303174 0.10090005 0.019452427
0.55225688 0.10188628 0.01884486
0.5522719 0.10271472 0.018847203
0.55149716 0.10370574 0.018239649
0.55072242 0.10469995 0.017632104
0.54994774 0.10569734 0.017024567
0.54917312 0.10669792 0.016417004
0.54839855 0.1077017 0.015809486
0.54841375 0.1085381 0.015811851
0.54763931 0.10954664 0.015204347
0.54765451 0.11038464 0.015206716
0.54766977 0.11122263 0.015209086
0.59140366 0.24936046 0.047338668
0.59063345 0.2506032 0.04673183
0.59064716 0.25135994 0.046733968
0.59066093 0.25211668 0.046736106
0.5906747 0.25287345 0.046738248
0.59068841 0.25363016 0.046740387
0.59070218 0.2543869 0.046742529
0.59071589 0.25514367 0.046744667
0.59072965 0.25590041 0.046746809
0.59074342 0.25665715 0.046748947
0.59154081 0.25691199 0.047360025
0.59155452 0.25766715 0.04736216
0.59235185 0.25791717 0.047973242
0.59236556 0.25867075 0.047975373
0.59316278 0.25891602 0.048586424
0.59395999 0.25915807 0.049197484
0.59475708 0.25939697 0.049808517
0.59555417 0.25963268 0.050419558
0.59635115 0.25986519 0.051030573
0.59714812 0.26009452 0.051641595
0.59794503 0.26032066 0.052252591
0.59874183 0.26054364 0.052863576
0.5987553 0.26128444 0.052865673
0.52464402 0.034923937 -0.0027808503
0.5254513 0.035776205 -0.0021668486
0.52546728 0.036657218 -0.0021643571
0.52627444 0.037504707 -0.0015503697
0.52629042 0.038384125 -0.0015478828
0.52709752 0.039226834 -0.00093387184
0.5271135 0.040104657 -0.0009313894
0.52792048 0.040942591 -0.00031742896
0.5279364 0.041818824 -0.00031495106
0.52874327 0.042651974 0.00029899663
0.52875918 0.043526612 0.00030147002
