ply
format ascii 1.0
comment FreeCAD generated
element vertex 1912
property float x
property float y
property float z
end_header
15.6100 19.6299 73.0548 
15.6310 20.3290 73.0506 
15.6520 21.0282 73.0463 
15.6730 21.7274 73.0421 
15.6950 22.4266 73.0378 
15.7160 23.1257 73.0335 
15.7370 23.8249 73.0293 
15.7580 24.5241 73.0250 
15.7800 25.2233 73.0208 
15.8010 25.9224 73.0165 
15.8220 26.6216 73.0122 
15.8440 27.3208 73.0080 
15.8650 28.0200 73.0037 
15.0820 28.7590 72.4034 
15.1040 29.4597 72.3991 
15.1250 30.1605 72.3949 
15.1460 30.8613 72.3906 
14.3640 31.6082 71.7903 
13.5820 32.3584 71.1899 
12.8000 33.1117 70.5895 
12.8210 33.8172 70.5852 
12.0390 34.5753 69.9848 
11.2580 35.3366 69.3843 
11.2790 36.0454 69.3800 
10.4980 36.8114 68.7796 
10.5190 37.5218 68.7752 
9.73798 38.2926 68.1747 
9.75897 39.0045 68.1704 
9.78101 39.7164 68.1660 
9.80298 40.4284 68.1617 
9.82397 41.1403 68.1574 
11.8000 11.9300 69.5754 
12.6250 12.6339 70.1682 
13.4500 13.3347 70.7609 
14.2970 14.7347 71.3494 
15.1220 15.4276 71.9422 
15.9460 16.1172 72.5351 
15.9680 16.8164 72.5308 
15.9890 17.5156 72.5265 
16.0100 18.2147 72.5223 
16.8350 18.8964 73.1152 
16.8560 19.5940 73.1109 
16.8770 20.2916 73.1067 
16.8980 20.9892 73.1024 
16.9200 21.6868 73.0982 
16.9410 22.3843 73.0939 
16.1590 23.1090 72.4925 
16.1800 23.8082 72.4882 
16.2010 24.5073 72.4839 
16.2230 25.2065 72.4797 
16.2440 25.9057 72.4754 
16.2650 26.6048 72.4712 
16.2860 27.3040 72.4669 
16.3080 28.0032 72.4626 
16.3290 28.7024 72.4584 
16.3500 29.4016 72.4541 
16.3720 30.1007 72.4499 
15.5900 30.8445 71.8483 
14.8090 31.5914 71.2467 
14.8300 32.2937 71.2424 
14.0490 33.0454 70.6408 
13.2680 33.8003 70.0392 
13.2900 34.5059 70.0349 
12.5090 35.2655 69.4332 
11.7280 36.0284 68.8315 
11.7500 36.7371 68.8272 
10.9690 37.5047 68.2255 
10.9910 38.2150 68.2212 
11.0130 38.9254 68.2169 
11.0340 39.6357 68.2125 
11.0560 40.3460 68.2082 
11.0770 41.0563 68.2039 
11.0990 41.7667 68.1995 
12.2260 11.2059 69.0325 
12.2480 11.9130 69.0282 
13.0720 12.6170 69.6222 
15.5440 14.7100 71.4042 
15.5660 15.4108 71.3999 
16.3890 16.1005 71.9940 
16.4110 16.7996 71.9897 
16.4320 17.4988 71.9855 
17.2560 18.1821 72.5796 
17.2770 18.8797 72.5753 
17.2980 19.5773 72.5711 
17.3190 20.2749 72.5668 
17.3400 20.9725 72.5626 
17.3620 21.6700 72.5583 
17.3830 22.3676 72.5541 
16.6020 23.0922 71.9514 
16.6230 23.7914 71.9471 
16.6450 24.4906 71.9429 
16.6660 25.1897 71.9386 
16.6870 25.8889 71.9343 
16.7080 26.5881 71.9301 
16.7290 27.2873 71.9258 
16.7510 27.9864 71.9215 
16.7720 28.6856 71.9173 
16.7930 29.3848 71.9130 
16.8150 30.0840 71.9088 
16.0340 30.8277 71.3060 
16.0560 31.5284 71.3017 
15.2750 32.2769 70.6989 
15.2970 32.9793 70.6946 
14.5170 33.7325 70.0917 
13.7370 34.4890 69.4889 
13.7580 35.1945 69.4846 
12.9790 35.9557 68.8817 
12.1990 36.7201 68.2787 
13.0220 37.3700 68.8730 
12.2420 38.1376 68.2701 
12.2640 38.8463 68.2658 
11.4840 39.6187 67.6628 
11.5060 40.3290 67.6585 
11.5270 41.0393 67.6542 
11.5490 41.7496 67.6498 
11.5710 42.4600 67.6455 
12.6740 11.1889 68.4852 
13.4980 11.8946 69.0804 
13.5190 12.6001 69.0761 
15.1650 13.9987 70.2666 
15.9880 14.6932 70.8619 
16.8110 15.3845 71.4572 
16.8330 16.0837 71.4529 
16.8540 16.7829 71.4486 
16.8750 17.4820 71.4444 
17.6980 18.1654 72.0397 
17.7190 18.8630 72.0355 
17.7400 19.5606 72.0312 
17.7610 20.2582 72.0270 
17.7820 20.9557 72.0227 
17.8040 21.6533 72.0185 
17.8250 22.3509 72.0142 
17.0450 23.0754 71.4103 
17.0660 23.7746 71.4060 
17.0870 24.4738 71.4018 
17.1090 25.1730 71.3975 
17.1300 25.8721 71.3932 
17.1510 26.5713 71.3890 
17.1730 27.2705 71.3847 
17.1940 27.9697 71.3805 
17.2150 28.6688 71.3762 
17.2360 29.3680 71.3719 
17.2580 30.0672 71.3677 
16.4780 30.8109 70.7636 
16.5000 31.5116 70.7594 
16.5210 32.2124 70.7551 
15.7420 32.9624 70.1510 
15.7630 33.6648 70.1468 
14.9840 34.4196 69.5427 
14.2050 35.1776 68.9386 
14.2270 35.8831 68.9343 
14.2480 36.5887 68.9300 
13.4700 37.3530 68.3258 
13.4910 38.0602 68.3215 
12.7130 38.8293 67.7173 
12.7340 39.5380 67.7130 
12.7560 40.2468 67.7087 
11.9780 41.0223 67.1045 
11.9990 41.7326 67.1001 
12.0210 42.4429 67.0958 
13.1010 10.4648 67.9423 
13.1220 11.1720 67.9380 
13.9450 11.8776 68.5344 
15.6100 13.9818 69.7231 
16.4320 14.6764 70.3195 
16.4540 15.3772 70.3153 
17.2750 16.0669 70.9118 
17.2970 16.7661 70.9076 
17.3180 17.4653 70.9033 
17.3390 18.1645 70.8990 
18.1610 18.8463 71.4956 
17.3820 19.5628 70.8905 
17.4030 20.2620 70.8863 
17.4240 20.9612 70.8820 
17.4460 21.6603 70.8777 
17.4670 22.3595 70.8735 
17.4880 23.0587 70.8692 
17.5090 23.7579 70.8649 
17.5310 24.4570 70.8607 
17.5520 25.1562 70.8564 
17.5730 25.8554 70.8522 
17.5940 26.5546 70.8479 
17.6160 27.2537 70.8436 
17.6370 27.9529 70.8394 
17.6580 28.6521 70.8351 
17.6790 29.3513 70.8309 
17.7010 30.0504 70.8266 
17.7220 30.7496 70.8223 
16.9440 31.4948 70.2171 
16.9650 32.1956 70.2128 
16.1870 32.9456 69.6075 
16.2080 33.6479 69.6032 
16.2300 34.3503 69.5989 
15.4520 35.1067 68.9936 
15.4730 35.8106 68.9893 
14.6950 36.5718 68.3839 
14.7170 37.2773 68.3796 
13.9390 38.0432 67.7742 
13.9610 38.7504 67.7699 
13.1830 39.5210 67.1645 
13.2050 40.2298 67.1602 
13.2260 40.9385 67.1559 
13.2480 41.6472 67.1516 
12.4710 42.4259 66.5461 
13.5490 10.4479 67.3950 
14.3700 11.1552 67.9927 
15.2340 13.2672 68.5818 
16.0550 13.9650 69.1795 
16.8760 14.6596 69.7772 
17.6970 15.3510 70.3750 
17.7190 16.0502 70.3707 
17.7400 16.7493 70.3665 
17.7610 17.4485 70.3622 
17.7820 18.1477 70.3579 
17.8040 18.8469 70.3537 
17.8250 19.5460 70.3494 
17.8460 20.2452 70.3452 
17.8670 20.9444 70.3409 
17.8880 21.6436 70.3366 
17.9100 22.3427 70.3324 
17.9310 23.0419 70.3281 
17.9520 23.7411 70.3239 
17.9740 24.4403 70.3196 
17.9950 25.1395 70.3153 
18.0160 25.8386 70.3111 
18.0370 26.5378 70.3068 
18.0590 27.2370 70.3026 
18.0800 27.9361 70.2983 
18.1010 28.6353 70.2940 
18.1220 29.3345 70.2898 
18.1440 30.0337 70.2855 
18.1650 30.7328 70.2813 
17.3880 31.4780 69.6747 
17.4090 32.1788 69.6705 
17.4300 32.8796 69.6662 
16.6530 33.6311 69.0597 
16.6750 34.3335 69.0554 
16.6960 35.0358 69.0511 
15.9190 35.7937 68.4445 
15.9400 36.4977 68.4402 
15.9620 37.2016 68.4359 
15.1850 37.9659 67.8293 
15.2070 38.6715 67.8250 
14.4300 39.4405 67.2184 
14.4520 40.1477 67.2141 
14.4730 40.8548 67.2097 
14.4950 41.5620 67.2054 
13.7190 42.3390 66.5987 
14.7960 10.4327 67.4510 
14.8170 11.1383 67.4467 
15.6380 11.8425 68.0456 
15.6590 12.5464 68.0413 
16.4790 13.2458 68.6402 
16.5000 13.9482 68.6360 
17.3200 14.6428 69.2349 
17.3420 15.3436 69.2306 
17.3630 16.0443 69.2264 
18.1830 16.7326 69.8254 
18.2040 17.4318 69.8211 
18.2250 18.1309 69.8169 
18.2470 18.8301 69.8126 
18.2680 19.5293 69.8083 
18.2890 20.2285 69.8041 
18.3100 20.9276 69.7998 
18.3320 21.6268 69.7956 
18.3530 22.3260 69.7913 
18.3740 23.0252 69.7870 
18.3950 23.7243 69.7828 
18.4170 24.4235 69.7785 
18.4380 25.1227 69.7743 
18.4590 25.8219 69.7700 
18.4800 26.5210 69.7657 
18.5020 27.2202 69.7615 
18.5230 27.9194 69.7572 
18.5440 28.6186 69.7530 
18.5650 29.3177 69.7487 
17.7890 30.0597 69.1410 
17.8100 30.7605 69.1367 
17.8320 31.4612 69.1324 
17.8530 32.1620 69.1282 
17.8740 32.8628 69.1239 
17.8960 33.5635 69.1196 
17.1200 34.3166 68.5118 
17.1410 35.0190 68.5076 
17.1620 35.7213 68.5033 
17.1840 36.4237 68.4990 
16.4080 37.1848 67.8912 
16.4290 37.8887 67.8869 
15.6540 38.6546 67.2790 
15.6750 39.3601 67.2747 
14.9000 40.1307 66.6668 
14.9210 40.8379 66.6625 
14.9430 41.5450 66.6582 
14.9640 42.2521 66.6539 
15.2220 9.71030 66.9093 
15.2430 10.4158 66.9050 
16.0620 11.1216 67.5051 
16.0840 11.8256 67.5008 
16.1050 12.5295 67.4965 
16.9240 13.2290 68.0967 
16.9450 13.9313 68.0924 
17.7640 14.6260 68.6926 
17.7860 15.3268 68.6883 
17.8070 16.0275 68.6841 
17.8280 16.7283 68.6798 
17.8500 17.4291 68.6755 
17.8710 18.1298 68.6712 
17.8920 18.8306 68.6670 
17.9140 19.5314 68.6627 
17.9350 20.2321 68.6584 
17.9560 20.9329 68.6542 
17.9770 21.6337 68.6499 
17.9990 22.3344 68.6456 
18.0200 23.0352 68.6414 
18.0410 23.7360 68.6371 
18.0630 24.4367 68.6328 
18.0840 25.1375 68.6285 
18.1050 25.8383 68.6243 
18.1270 26.5390 68.6200 
18.1480 27.2398 68.6157 
18.1690 27.9406 68.6115 
18.1900 28.6413 68.6072 
18.2120 29.3421 68.6029 
18.2330 30.0429 68.5986 
18.2540 30.7437 68.5944 
18.2760 31.4444 68.5901 
18.2970 32.1452 68.5858 
18.3180 32.8460 68.5816 
18.3400 33.5467 68.5773 
18.3610 34.2475 68.5730 
17.5860 35.0021 67.9640 
17.6070 35.7045 67.9597 
17.6290 36.4069 67.9555 
17.6500 37.1092 67.9512 
16.8750 37.8718 67.3421 
16.8970 38.5758 67.3378 
16.1220 39.3432 66.7287 
16.1440 40.0487 66.7244 
16.1650 40.7543 66.7201 
16.1870 41.4598 66.7158 
16.2080 42.1654 66.7115 
15.4340 42.9423 66.1023 
16.4870 10.4008 66.9646 
16.5080 11.1047 66.9603 
16.5300 11.8087 66.9560 
16.5510 12.5127 66.9517 
17.3690 13.2121 67.5531 
17.3910 13.9145 67.5489 
17.4120 14.6168 67.5446 
18.2300 15.3100 68.1460 
18.2510 16.0107 68.1417 
18.2720 16.7115 68.1375 
18.2940 17.4123 68.1332 
18.3150 18.1130 68.1289 
18.3360 18.8138 68.1247 
18.3580 19.5146 68.1204 
18.3790 20.2153 68.1161 
18.4000 20.9161 68.1118 
18.4220 21.6169 68.1076 
18.4430 22.3176 68.1033 
18.4640 23.0184 68.0990 
18.4850 23.7192 68.0948 
18.5070 24.4199 68.0905 
18.5280 25.1207 68.0862 
18.5490 25.8215 68.0820 
18.5710 26.5222 68.0777 
18.5920 27.2230 68.0734 
18.6130 27.9238 68.0691 
18.6340 28.6245 68.0649 
18.6560 29.3253 68.0606 
18.6770 30.0261 68.0563 
18.6980 30.7269 68.0521 
18.7200 31.4276 68.0478 
18.7410 32.1284 68.0435 
18.7620 32.8292 68.0393 
18.7840 33.5299 68.0350 
18.0100 34.2829 67.4247 
18.0310 34.9853 67.4205 
18.0520 35.6877 67.4162 
18.0740 36.3900 67.4119 
18.0950 37.0924 67.4076 
17.3210 37.8550 66.7973 
17.3430 38.5589 66.7930 
17.3640 39.2629 66.7887 
16.5910 40.0318 66.1784 
16.6120 40.7374 66.1741 
16.6340 41.4429 66.1698 
15.8600 42.2182 65.5594 
15.8820 42.9254 65.5551 
16.9330 10.3839 66.4198 
16.9540 11.0879 66.4155 
16.9760 11.7918 66.4112 
17.7930 12.4929 67.0139 
17.8140 13.1953 67.0096 
17.8360 13.8977 67.0053 
18.6530 14.5924 67.6080 
17.8780 15.3024 66.9967 
17.9000 16.0047 66.9925 
17.9210 16.7071 66.9882 
18.7380 17.3955 67.5909 
18.7590 18.0962 67.5866 
18.7800 18.7970 67.5823 
18.0060 19.5165 66.9711 
18.0280 20.2189 66.9668 
18.0490 20.9213 66.9625 
18.0700 21.6236 66.9582 
18.0920 22.3260 66.9539 
18.1130 23.0283 66.9497 
18.1350 23.7307 66.9454 
18.1560 24.4331 66.9411 
18.1770 25.1354 66.9368 
18.1990 25.8378 66.9325 
18.2200 26.5401 66.9283 
18.2410 27.2425 66.9240 
18.2630 27.9449 66.9197 
18.2840 28.6472 66.9154 
18.3050 29.3496 66.9112 
18.3270 30.0519 66.9069 
18.3480 30.7543 66.9026 
18.3690 31.4567 66.8983 
18.3910 32.1590 66.8940 
18.4120 32.8614 66.8897 
18.4330 33.5637 66.8855 
18.4550 34.2661 66.8812 
18.4760 34.9685 66.8769 
18.4970 35.6708 66.8726 
18.5190 36.3732 66.8683 
18.5400 37.0756 66.8641 
17.7670 37.8381 66.2525 
17.7890 38.5420 66.2482 
17.8100 39.2460 66.2439 
17.0380 40.0149 65.6324 
17.0590 40.7205 65.6281 
17.0810 41.4260 65.6238 
17.1020 42.1315 65.6195 
16.3300 42.9084 65.0078 
17.3580 9.66310 65.8793 
17.3790 10.3670 65.8750 
17.4000 11.0710 65.8708 
17.4220 11.7749 65.8665 
17.4430 12.4789 65.8622 
18.2590 13.1785 66.4660 
18.2810 13.8808 66.4618 
18.3020 14.5832 66.4575 
18.3230 15.2855 66.4532 
18.3450 15.9879 66.4489 
18.3660 16.6903 66.4446 
18.3870 17.3926 66.4404 
18.4090 18.0950 66.4361 
18.4300 18.7973 66.4318 
18.4510 19.4997 66.4275 
18.4730 20.2021 66.4232 
18.4940 20.9044 66.4190 
18.5160 21.6068 66.4147 
18.5370 22.3091 66.4104 
18.5580 23.0115 66.4061 
18.5800 23.7139 66.4018 
18.6010 24.4162 66.3976 
18.6220 25.1186 66.3933 
18.6440 25.8209 66.3890 
18.6650 26.5233 66.3847 
18.6860 27.2257 66.3804 
18.7080 27.9280 66.3762 
18.7290 28.6304 66.3719 
18.7500 29.3327 66.3676 
18.7720 30.0351 66.3633 
18.7930 30.7375 66.3590 
18.8140 31.4398 66.3548 
18.8360 32.1422 66.3505 
18.8570 32.8445 66.3462 
18.8780 33.5469 66.3419 
18.9000 34.2493 66.3376 
18.9210 34.9516 66.3334 
18.9420 35.6540 66.3291 
18.1710 36.4133 65.7163 
18.1920 37.1173 65.7120 
18.2140 37.8212 65.7077 
18.2350 38.5252 65.7035 
17.4640 39.2924 65.0907 
17.4850 39.9980 65.0864 
17.5060 40.7035 65.0821 
17.5280 41.4091 65.0778 
16.7570 42.1843 64.4649 
16.7780 42.8915 64.4606 
17.8040 9.64620 65.3345 
17.8250 10.3502 65.3303 
17.8460 11.0541 65.3260 
17.8680 11.7581 65.3217 
17.8890 12.4620 65.3174 
17.9110 13.1660 65.3131 
18.7260 13.8640 65.9182 
18.7470 14.5663 65.9139 
18.7680 15.2687 65.9097 
18.7900 15.9711 65.9054 
18.8110 16.6734 65.9011 
18.8320 17.3758 65.8968 
18.8540 18.0781 65.8925 
18.8750 18.7805 65.8883 
18.8960 19.4829 65.8840 
18.9180 20.1852 65.8797 
18.1460 20.9095 65.2659 
18.1670 21.6134 65.2616 
18.1890 22.3174 65.2573 
18.2100 23.0213 65.2530 
18.2320 23.7253 65.2487 
18.2530 24.4292 65.2445 
18.2740 25.1332 65.2402 
18.2960 25.8371 65.2359 
18.3170 26.5411 65.2316 
18.3390 27.2450 65.2273 
18.3600 27.9490 65.2230 
18.3810 28.6529 65.2187 
18.4030 29.3569 65.2144 
18.4240 30.0609 65.2101 
18.4460 30.7648 65.2059 
18.4670 31.4688 65.2016 
18.4880 32.1727 65.1973 
18.5100 32.8767 65.1930 
18.5310 33.5806 65.1887 
18.5530 34.2846 65.1844 
18.5740 34.9885 65.1801 
18.5950 35.6925 65.1758 
18.6170 36.3964 65.1715 
18.6380 37.1004 65.1673 
18.6600 37.8043 65.1630 
17.8890 38.5700 64.5489 
17.9110 39.2755 64.5446 
17.9320 39.9811 64.5403 
17.1620 40.7531 63.9263 
17.1830 41.4602 63.9220 
17.2050 42.1674 63.9177 
16.4350 42.9458 63.3036 
17.4350 8.92010 64.1835 
18.2500 9.62930 64.7898 
18.2710 10.3333 64.7855 
18.2930 11.0372 64.7812 
18.3140 11.7412 64.7769 
18.3350 12.4451 64.7726 
18.3570 13.1491 64.7683 
18.3780 13.8530 64.7640 
18.4000 14.5570 64.7597 
18.4210 15.2610 64.7554 
18.4420 15.9649 64.7512 
18.4640 16.6689 64.7469 
18.4850 17.3728 64.7426 
18.5060 18.0768 64.7383 
18.5280 18.7807 64.7340 
18.5490 19.4847 64.7297 
18.5710 20.1886 64.7254 
18.5920 20.8926 64.7211 
18.6130 21.5965 64.7168 
18.6350 22.3005 64.7125 
18.6560 23.0044 64.7083 
18.6780 23.7084 64.7040 
18.6990 24.4123 64.6997 
18.7200 25.1163 64.6954 
18.7420 25.8203 64.6911 
18.7630 26.5242 64.6868 
18.7850 27.2282 64.6825 
18.8060 27.9321 64.6782 
18.8270 28.6361 64.6739 
18.8490 29.3400 64.6697 
18.8700 30.0440 64.6654 
18.8920 30.7479 64.6611 
18.9130 31.4519 64.6568 
18.9340 32.1558 64.6525 
18.9560 32.8598 64.6482 
18.9770 33.5637 64.6439 
18.9990 34.2677 64.6396 
19.0200 34.9716 64.6353 
19.0410 35.6756 64.6310 
18.2720 36.4364 64.0158 
18.2930 37.1420 64.0115 
18.3150 37.8475 64.0072 
18.3360 38.5531 64.0029 
18.3580 39.2586 63.9986 
18.3790 39.9642 63.9943 
17.6100 40.7361 63.3790 
16.8410 41.5113 62.7637 
16.8620 42.2200 62.7594 
16.0930 43.0000 62.1441 
16.1150 43.7103 62.1397 
17.8820 8.90320 63.6375 
17.9040 9.60880 63.6332 
17.9250 10.3143 63.6289 
17.9470 11.0199 63.6246 
17.9680 11.7254 63.6203 
18.7810 12.4283 64.2278 
18.8030 13.1322 64.2235 
18.8240 13.8362 64.2192 
18.8460 14.5401 64.2150 
18.8670 15.2441 64.2107 
18.8880 15.9480 64.2064 
18.9100 16.6520 64.2021 
18.9310 17.3559 64.1978 
18.9530 18.0599 64.1935 
18.9740 18.7638 64.1892 
18.9950 19.4678 64.1849 
19.0170 20.1718 64.1806 
19.0380 20.8757 64.1763 
18.2680 21.6031 63.5601 
18.2900 22.3086 63.5558 
18.3110 23.0141 63.5515 
18.3330 23.7197 63.5472 
18.3540 24.4252 63.5429 
18.3760 25.1308 63.5386 
18.3970 25.8363 63.5343 
18.4190 26.5419 63.5300 
18.4400 27.2474 63.5257 
18.4610 27.9530 63.5214 
18.4830 28.6585 63.5171 
18.5040 29.3641 63.5128 
18.5260 30.0696 63.5085 
18.5470 30.7752 63.5042 
18.5690 31.4807 63.4999 
18.5900 32.1862 63.4956 
18.6120 32.8918 63.4913 
18.6330 33.5973 63.4870 
18.6540 34.3029 63.4827 
18.6760 35.0084 63.4784 
18.6970 35.7140 63.4741 
18.7190 36.4195 63.4698 
18.7400 37.1251 63.4655 
18.7620 37.8306 63.4612 
18.7830 38.5362 63.4569 
18.0150 39.3049 62.8404 
18.0360 40.0121 62.8361 
17.2680 40.7856 62.2196 
16.5000 41.5623 61.6030 
16.5210 42.2726 61.5987 
15.7530 43.0541 60.9821 
14.9860 43.8388 60.3655 
18.3080 8.18080 63.0958 
18.3300 8.88630 63.0915 
18.3510 9.59190 63.0872 
18.3720 10.2974 63.0829 
18.3940 11.0030 63.0786 
18.4150 11.7085 63.0743 
18.4370 12.4140 63.0700 
18.4580 13.1196 63.0657 
18.4800 13.8251 63.0614 
18.5010 14.5307 63.0571 
18.5230 15.2362 63.0528 
18.5440 15.9418 63.0485 
18.5650 16.6473 63.0442 
18.5870 17.3529 63.0399 
18.6080 18.0584 63.0356 
18.6300 18.7640 63.0313 
18.6510 19.4695 63.0270 
18.6730 20.1750 63.0227 
18.6940 20.8806 63.0184 
18.7160 21.5861 63.0141 
18.7370 22.2917 63.0098 
18.7580 22.9972 63.0055 
18.7800 23.7028 63.0012 
18.8010 24.4083 62.9969 
18.8230 25.1139 62.9926 
18.8440 25.8194 62.9883 
18.8660 26.5250 62.9840 
18.8870 27.2305 62.9797 
18.9090 27.9361 62.9754 
18.9300 28.6416 62.9711 
18.9510 29.3471 62.9668 
18.9730 30.0527 62.9625 
18.9940 30.7582 62.9582 
19.0160 31.4638 62.9539 
19.0370 32.1693 62.9496 
19.0590 32.8749 62.9453 
19.0800 33.5804 62.9410 
19.1020 34.2860 62.9367 
19.1230 34.9915 62.9324 
19.1440 35.6971 62.9281 
19.1660 36.4026 62.9238 
18.3980 37.1665 62.3061 
18.4200 37.8737 62.3018 
18.4410 38.5808 62.2975 
18.4630 39.2880 62.2931 
17.6960 40.0599 61.6754 
17.7170 40.7686 61.6711 
16.9500 41.5453 61.0533 
15.3940 42.3947 59.8220 
14.6270 43.1793 59.2041 
14.6490 43.8944 59.1998 
13.0940 44.7582 57.9684 
17.9440 7.44980 61.9398 
17.9650 8.15690 61.9355 
17.9870 8.86400 61.9312 
18.0080 9.57120 61.9269 
18.8190 10.2805 62.5369 
18.8410 10.9860 62.5326 
18.8620 11.6916 62.5283 
18.8840 12.3971 62.5240 
18.9050 13.1027 62.5197 
18.9270 13.8082 62.5154 
18.9480 14.5138 62.5111 
18.9700 15.2193 62.5068 
18.9910 15.9249 62.5025 
19.0120 16.6304 62.4982 
19.0340 17.3359 62.4939 
19.0550 18.0415 62.4896 
19.0770 18.7470 62.4853 
19.0980 19.4526 62.4810 
19.1200 20.1581 62.4767 
19.1410 20.8637 62.4724 
19.1630 21.5692 62.4681 
19.1840 22.2748 62.4638 
19.2060 22.9803 62.4595 
19.2270 23.6859 62.4552 
18.4600 24.4211 61.8364 
18.4810 25.1282 61.8321 
18.5030 25.8354 61.8278 
18.5240 26.5425 61.8235 
18.5450 27.2496 61.8192 
18.5670 27.9568 61.8148 
18.5880 28.6639 61.8105 
18.6100 29.3711 61.8062 
18.6310 30.0782 61.8019 
18.6530 30.7853 61.7976 
18.6740 31.4925 61.7933 
18.6960 32.1996 61.7890 
18.7170 32.9068 61.7847 
18.7390 33.6139 61.7804 
18.7600 34.3210 61.7761 
18.7820 35.0282 61.7718 
18.8030 35.7353 61.7674 
18.8250 36.4424 61.7631 
18.8460 37.1496 61.7588 
18.8680 37.8567 61.7545 
18.8890 38.5639 61.7502 
18.1230 39.3341 61.1312 
18.1450 40.0429 61.1269 
17.3780 40.8179 60.5079 
15.8250 41.6641 59.2742 
15.0590 42.4471 58.6551 
14.2930 43.2333 58.0360 
13.5270 44.0227 57.4169 
12.7610 44.8153 56.7978 
17.5810 6.71550 60.7814 
17.6030 7.42420 60.7771 
18.4130 8.14000 61.3883 
18.4350 8.84710 61.3839 
18.4560 9.55420 61.3796 
18.4780 10.2614 61.3753 
18.4990 10.9685 61.3710 
18.5210 11.6756 61.3667 
18.5420 12.3828 61.3624 
18.5640 13.0899 61.3581 
18.5850 13.7971 61.3538 
18.6070 14.5042 61.3495 
18.6280 15.2113 61.3452 
18.6500 15.9185 61.3409 
18.6710 16.6256 61.3365 
18.6930 17.3328 61.3322 
18.7140 18.0399 61.3279 
18.7360 18.7470 61.3236 
18.7570 19.4542 61.3193 
18.7790 20.1613 61.3150 
18.8000 20.8685 61.3107 
18.8220 21.5756 61.3064 
18.8430 22.2827 61.3021 
18.8650 22.9899 61.2978 
18.8860 23.6970 61.2935 
18.9080 24.4041 61.2891 
18.9290 25.1113 61.2848 
18.9510 25.8184 61.2805 
18.9720 26.5256 61.2762 
18.9940 27.2327 61.2719 
19.0150 27.9398 61.2676 
19.0370 28.6470 61.2633 
19.0580 29.3541 61.2590 
19.0800 30.0612 61.2547 
19.1010 30.7684 61.2504 
19.1220 31.4755 61.2461 
19.1440 32.1827 61.2417 
19.1650 32.8898 61.2374 
19.1870 33.5969 61.2331 
19.2080 34.3041 61.2288 
19.2300 35.0112 61.2245 
19.2510 35.7184 61.2202 
19.2730 36.4255 61.2159 
18.5080 37.1910 60.5957 
18.5290 37.8997 60.5914 
18.5510 38.6084 60.5871 
18.5720 39.3171 60.5827 
17.8070 40.0906 59.9625 
17.0420 40.8672 59.3423 
16.2770 41.6470 58.7220 
14.7250 42.4994 57.4857 
13.9600 43.2872 56.8654 
13.1960 44.0781 56.2451 
11.6450 44.9465 55.0087 
10.0940 45.8212 53.7724 
9.33002 46.6249 53.1519 
18.0090 5.98980 60.2373 
18.0300 6.69850 60.2329 
18.0520 7.40730 60.2286 
18.0730 8.11600 60.2243 
18.0950 8.82470 60.2200 
18.1160 9.53340 60.2157 
18.1380 10.2422 60.2113 
18.1600 10.9509 60.2070 
18.9690 11.6587 60.8195 
18.9900 12.3658 60.8152 
19.0120 13.0730 60.8108 
19.0330 13.7801 60.8065 
19.0550 14.4872 60.8022 
19.0760 15.1944 60.7979 
19.0980 15.9015 60.7936 
19.1190 16.6087 60.7893 
19.1410 17.3158 60.7850 
19.1620 18.0229 60.7807 
19.1840 18.7301 60.7764 
19.2050 19.4372 60.7721 
19.2270 20.1444 60.7677 
19.2480 20.8515 60.7634 
19.2700 21.5586 60.7591 
19.2910 22.2658 60.7548 
19.3130 22.9729 60.7505 
19.3340 23.6800 60.7462 
19.3560 24.3872 60.7419 
19.3770 25.0943 60.7376 
19.3990 25.8015 60.7333 
18.6330 26.5430 60.1120 
18.6550 27.2517 60.1077 
18.6770 27.9605 60.1034 
18.6980 28.6692 60.0991 
18.7200 29.3779 60.0947 
18.7410 30.0867 60.0904 
18.7630 30.7954 60.0861 
18.7840 31.5041 60.0818 
18.8060 32.2128 60.0775 
18.8270 32.9216 60.0731 
18.8490 33.6303 60.0688 
18.8700 34.3390 60.0645 
18.8920 35.0478 60.0602 
18.9140 35.7565 60.0559 
18.9350 36.4652 60.0515 
18.9570 37.1740 60.0472 
18.9780 37.8827 60.0429 
19.0000 38.5914 60.0386 
18.2350 39.3632 59.4171 
17.4710 40.1382 58.7957 
16.7070 40.9164 58.1742 
15.9430 41.6977 57.5526 
14.3940 42.5517 56.3139 
13.6300 43.3410 55.6924 
12.0810 44.2061 54.4536 
11.3170 45.0034 53.8320 
9.76898 45.8796 52.5931 
9.00500 46.6849 51.9714 
17.6710 5.96100 59.0709 
17.6920 6.67130 59.0665 
17.7140 7.38160 59.0622 
18.5220 8.09900 59.6758 
18.5440 8.80770 59.6715 
18.5650 9.51650 59.6672 
18.5870 10.2252 59.6629 
18.6090 10.9339 59.6585 
18.6300 11.6426 59.6542 
18.6520 12.3514 59.6499 
18.6730 13.0601 59.6456 
18.6950 13.7688 59.6413 
18.7160 14.4776 59.6370 
18.7380 15.1863 59.6326 
18.7590 15.8950 59.6283 
18.7810 16.6038 59.6240 
18.8020 17.3125 59.6197 
18.8240 18.0212 59.6154 
18.8460 18.7300 59.6110 
18.8670 19.4387 59.6067 
18.8890 20.1474 59.6024 
18.9100 20.8562 59.5981 
18.9320 21.5649 59.5938 
18.9530 22.2736 59.5894 
18.9750 22.9823 59.5851 
18.9960 23.6911 59.5808 
19.0180 24.3998 59.5765 
19.0390 25.1085 59.5722 
19.0610 25.8173 59.5678 
19.0830 26.5260 59.5635 
19.1040 27.2347 59.5592 
19.1260 27.9435 59.5549 
19.1470 28.6522 59.5506 
19.1690 29.3609 59.5463 
19.1900 30.0697 59.5419 
19.2120 30.7784 59.5376 
19.2330 31.4871 59.5333 
19.2550 32.1959 59.5290 
19.2760 32.9046 59.5247 
19.2980 33.6133 59.5203 
19.3200 34.3220 59.5160 
19.3410 35.0308 59.5117 
19.3630 35.7395 59.5074 
19.3840 36.4482 59.5031 
19.4060 37.1570 59.4987 
18.6420 37.9255 58.8761 
18.6640 38.6359 58.8718 
18.6850 39.3462 58.8674 
17.1380 40.1857 57.6263 
16.3750 40.9655 57.0036 
15.6120 41.7484 56.3808 
14.0640 42.6038 55.1396 
12.5170 43.4657 53.8984 
11.7550 44.2613 53.2756 
10.9920 45.0602 52.6527 
9.44501 45.9379 51.4114 
8.68298 46.7447 50.7885 
17.3350 5.93210 57.9020 
18.1420 6.65430 58.5168 
18.1640 7.36460 58.5125 
18.1860 8.07490 58.5082 
18.2070 8.78520 58.5038 
18.2290 9.49560 58.4995 
18.2500 10.2059 58.4952 
19.0580 10.9169 59.1101 
19.0790 11.6257 59.1057 
19.1010 12.3344 59.1014 
19.1220 13.0431 59.0971 
19.1440 13.7519 59.0928 
19.1650 14.4606 59.0885 
19.1870 15.1693 59.0842 
19.2080 15.8780 59.0798 
19.2300 16.5868 59.0755 
19.2520 17.2955 59.0712 
19.2730 18.0042 59.0669 
19.2950 18.7130 59.0626 
19.3160 19.4217 59.0582 
19.3380 20.1304 59.0539 
19.3590 20.8392 59.0496 
19.3810 21.5479 59.0453 
19.4020 22.2566 59.0410 
19.4240 22.9654 59.0366 
19.4450 23.6741 59.0323 
19.4670 24.3828 59.0280 
19.4890 25.0915 59.0237 
19.5100 25.8003 59.0194 
19.5320 26.5090 59.0150 
19.5530 27.2177 59.0107 
19.5750 27.9265 59.0064 
19.5960 28.6352 59.0021 
19.6180 29.3439 58.9978 
19.6390 30.0527 58.9935 
19.6610 30.7614 58.9891 
19.6820 31.4701 58.9848 
19.7040 32.1789 58.9805 
18.9410 32.9362 58.3567 
18.9630 33.6466 58.3523 
18.9840 34.3569 58.3480 
19.0060 35.0672 58.3437 
19.0280 35.7775 58.3394 
19.0490 36.4879 58.3350 
19.0710 37.1982 58.3307 
19.0920 37.9085 58.3264 
19.1140 38.6188 58.3220 
18.3520 39.3921 57.6981 
17.5900 40.1686 57.0742 
16.0440 41.0145 55.8306 
15.2820 41.7989 55.2065 
13.7370 42.6559 53.9629 
12.9750 43.4483 53.3388 
11.4300 44.3165 52.0951 
10.6690 45.1169 51.4710 
9.90802 45.9204 50.8469 
8.36298 46.8045 49.6031 
8.38501 47.5371 49.5986 
17.7860 5.91500 57.3511 
17.8070 6.62690 57.3467 
17.8290 7.33880 57.3424 
18.6360 8.05790 57.9585 
18.6570 8.76820 57.9541 
18.6790 9.47850 57.9498 
18.7000 10.1888 57.9455 
18.7220 10.8992 57.9411 
18.7440 11.6095 57.9368 
18.7650 12.3198 57.9325 
18.7870 13.0301 57.9282 
18.8080 13.7405 57.9238 
18.8300 14.4508 57.9195 
18.8520 15.1611 57.9152 
18.8730 15.8714 57.9108 
18.8950 16.5818 57.9065 
18.9160 17.2921 57.9022 
18.9380 18.0024 57.8979 
18.9600 18.7127 57.8935 
18.9810 19.4231 57.8892 
19.0030 20.1334 57.8849 
19.0240 20.8437 57.8805 
19.0460 21.5540 57.8762 
19.0680 22.2644 57.8719 
19.0890 22.9747 57.8676 
19.1110 23.6850 57.8632 
19.1320 24.3953 57.8589 
19.1540 25.1056 57.8546 
19.1750 25.8160 57.8502 
19.1970 26.5263 57.8459 
19.2190 27.2366 57.8416 
19.2400 27.9469 57.8373 
19.2620 28.6573 57.8329 
19.2830 29.3676 57.8286 
19.3050 30.0779 57.8243 
19.3270 30.7882 57.8199 
19.3480 31.4986 57.8156 
19.3700 32.2089 57.8113 
19.3910 32.9192 57.8070 
19.4130 33.6295 57.8026 
19.4350 34.3399 57.7983 
19.4560 35.0502 57.7940 
19.4780 35.7605 57.7896 
19.4990 36.4708 57.7853 
18.7380 37.2393 57.1602 
18.7600 37.9512 57.1558 
18.7810 38.6632 57.1515 
18.8030 39.3751 57.1472 
17.2590 40.2161 55.9011 
16.4980 40.9973 55.2759 
14.9550 41.8494 54.0298 
14.1940 42.6386 53.4046 
12.6510 43.5019 52.1584 
11.8900 44.2991 51.5331 
11.1300 45.0994 50.9077 
10.3700 45.9030 50.2824 
9.60999 46.7097 49.6570 
9.63202 47.4407 49.6526 
17.4310 5.17250 56.1828 
17.4530 5.88600 56.1785 
17.4750 6.59950 56.1742 
17.4960 7.31300 56.1698 
18.3020 8.03370 56.7871 
18.3230 8.74560 56.7828 
18.3450 9.45750 56.7784 
18.3670 10.1694 56.7741 
18.3880 10.8813 56.7697 
19.1940 11.5925 57.3871 
19.2150 12.3028 57.3828 
19.2370 13.0131 57.3784 
19.2580 13.7234 57.3741 
19.2800 14.4338 57.3698 
19.3020 15.1441 57.3655 
19.3230 15.8544 57.3611 
19.3450 16.5647 57.3568 
19.3660 17.2751 57.3525 
19.3880 17.9854 57.3481 
19.4100 18.6957 57.3438 
19.4310 19.4060 57.3395 
19.4530 20.1164 57.3352 
19.4740 20.8267 57.3308 
19.4960 21.5370 57.3265 
19.5180 22.2473 57.3222 
19.5390 22.9576 57.3178 
19.5610 23.6680 57.3135 
19.5820 24.3783 57.3092 
19.6040 25.0886 57.3049 
19.6250 25.7989 57.3005 
19.6470 26.5093 57.2962 
19.6690 27.2196 57.2919 
19.6900 27.9299 57.2875 
19.7120 28.6402 57.2832 
19.7330 29.3506 57.2789 
19.7550 30.0609 57.2746 
19.7770 30.7712 57.2702 
19.7980 31.4815 57.2659 
19.8200 32.1919 57.2616 
19.0590 32.9508 56.6353 
19.0810 33.6627 56.6309 
19.1020 34.3746 56.6266 
19.1240 35.0865 56.6222 
19.1460 35.7984 56.6179 
19.1670 36.5103 56.6136 
19.1890 37.2223 56.6092 
19.2110 37.9342 56.6049 
18.4510 38.7074 55.9785 
18.4720 39.4209 55.9741 
17.7120 40.1989 55.3477 
16.9520 40.9801 54.7213 
15.4110 41.8322 53.4727 
14.6510 42.6213 52.8462 
13.8920 43.4137 52.2197 
12.3510 44.2817 50.9710 
11.5910 45.0820 50.3445 
10.8320 45.8855 49.7179 
10.8540 46.6149 49.7134 
10.0950 47.4232 49.0868 
17.0780 4.42670 55.0122 
17.1000 5.14180 55.0078 
17.1220 5.85690 55.0035 
17.9270 6.58240 55.6220 
17.9480 7.29590 55.6176 
17.9700 8.00940 55.6133 
17.9920 8.72290 55.6089 
18.0130 9.43640 55.6046 
18.8180 10.1524 56.2231 
18.8390 10.8643 56.2188 
18.8610 11.5762 56.2145 
18.8830 12.2881 56.2101 
18.9040 13.0000 56.2058 
18.9260 13.7119 56.2014 
18.9480 14.4239 56.1971 
18.9690 15.1358 56.1928 
18.9910 15.8477 56.1884 
19.0130 16.5596 56.1841 
19.0340 17.2715 56.1798 
19.0560 17.9834 56.1754 
19.0780 18.6954 56.1711 
19.0990 19.4073 56.1667 
19.1210 20.1192 56.1624 
19.1420 20.8311 56.1581 
19.1640 21.5430 56.1537 
19.1860 22.2549 56.1494 
19.2070 22.9669 56.1450 
19.2290 23.6788 56.1407 
19.2510 24.3907 56.1364 
19.2720 25.1026 56.1320 
19.2940 25.8145 56.1277 
19.3160 26.5264 56.1234 
19.3370 27.2384 56.1190 
19.3590 27.9503 56.1147 
19.3800 28.6622 56.1103 
19.4020 29.3741 56.1060 
19.4240 30.0860 56.1017 
19.4450 30.7979 56.0973 
19.4670 31.5099 56.0930 
19.4890 32.2218 56.0886 
19.5100 32.9337 56.0843 
19.5320 33.6456 56.0800 
19.5540 34.3575 56.0756 
19.5750 35.0694 56.0713 
18.8160 35.8363 55.4437 
18.8380 36.5498 55.4394 
18.8590 37.2633 55.4350 
18.8810 37.9768 55.4307 
18.9030 38.6903 55.4263 
18.9240 39.4038 55.4220 
18.1650 40.1818 54.7943 
17.4060 40.9629 54.1666 
15.8670 41.8149 52.9156 
15.1080 42.6040 52.2879 
14.3500 43.3963 51.6601 
13.5910 44.1918 51.0324 
12.8330 44.9905 50.4046 
12.0750 45.7924 49.7768 
11.3160 46.5974 49.1489 
11.3390 47.3269 49.1445 
16.7500 4.39430 53.8347 
16.7710 5.11100 53.8304 
17.5750 5.83970 54.4501 
17.5970 6.55480 54.4457 
17.6190 7.26990 54.4413 
18.4220 7.99230 55.0611 
18.4440 8.70580 55.0568 
18.4660 9.41930 55.0524 
18.4870 10.1328 55.0481 
18.5090 10.8463 55.0437 
18.5310 11.5598 55.0394 
18.5520 12.2733 55.0350 
19.3560 12.9830 55.6548 
19.3770 13.6949 55.6505 
19.3990 14.4068 55.6462 
19.4200 15.1187 55.6418 
19.4420 15.8306 55.6375 
18.6820 16.5544 55.0089 
18.7040 17.2679 55.0046 
18.7260 17.9814 55.0002 
18.7470 18.6949 54.9959 
18.7690 19.4084 54.9915 
18.7910 20.1220 54.9872 
18.8130 20.8355 54.9828 
18.8340 21.5490 54.9785 
19.6370 22.2379 55.5984 
19.6580 22.9498 55.5941 
19.6800 23.6617 55.5898 
19.7020 24.3736 55.5854 
18.9430 25.1165 54.9568 
18.9640 25.8300 54.9524 
18.9860 26.5435 54.9481 
19.0080 27.2570 54.9437 
19.0290 27.9706 54.9394 
19.0510 28.6841 54.9350 
19.0730 29.3976 54.9307 
19.0940 30.1111 54.9263 
19.1160 30.8246 54.9220 
19.1380 31.5381 54.9176 
19.1600 32.2516 54.9133 
19.1810 32.9651 54.9089 
19.2030 33.6786 54.9046 
19.2250 34.3921 54.9002 
19.2460 35.1056 54.8959 
19.2680 35.8192 54.8915 
19.2900 36.5327 54.8872 
19.3110 37.2462 54.8828 
19.3330 37.9597 54.8785 
18.5750 38.7344 54.2496 
18.5970 39.4495 54.2452 
17.8390 40.2291 53.6164 
17.0810 41.0118 52.9874 
16.3230 41.7977 52.3585 
15.5650 42.5867 51.7295 
14.8080 43.3790 51.1005 
14.8300 44.1021 51.0961 
14.0720 44.8991 50.4671 
13.3150 45.6993 49.8381 
13.3370 46.4256 49.8337 
12.6020 47.9584 49.2002 
16.4010 3.64360 52.6592 
17.2040 4.37710 53.2801 
17.2250 5.09380 53.2757 
17.2470 5.81050 53.2713 
18.0500 6.53770 53.8923 
18.0720 7.25280 53.8879 
18.0930 7.96790 53.8836 
18.1150 8.68300 53.8792 
18.1370 9.39810 53.8749 
18.9390 10.1157 54.4959 
18.9610 10.8292 54.4915 
18.9830 11.5427 54.4872 
19.0040 12.2562 54.4828 
19.0260 12.9698 54.4785 
19.0480 13.6833 54.4741 
19.0690 14.3968 54.4698 
19.0910 15.1103 54.4654 
19.1130 15.8238 54.4611 
19.1350 16.5373 54.4568 
19.1560 17.2508 54.4524 
19.1780 17.9643 54.4481 
19.2000 18.6778 54.4437 
19.2210 19.3913 54.4394 
19.2430 20.1048 54.4350 
19.2650 20.8184 54.4307 
19.2860 21.5319 54.4263 
19.3080 22.2454 54.4220 
19.3300 22.9589 54.4176 
19.3510 23.6724 54.4133 
19.3730 24.3859 54.4089 
19.3950 25.0994 54.4046 
19.4170 25.8129 54.4002 
19.4380 26.5264 54.3959 
19.4600 27.2399 54.3915 
19.4820 27.9534 54.3872 
19.5030 28.6670 54.3828 
19.5250 29.3805 54.3785 
19.5470 30.0940 54.3741 
19.5680 30.8075 54.3698 
19.5900 31.5210 54.3654 
19.6120 32.2345 54.3611 
19.6330 32.9480 54.3568 
19.6550 33.6615 54.3524 
19.6770 34.3750 54.3481 
18.9190 35.1418 53.7180 
18.9410 35.8569 53.7136 
18.9630 36.5720 53.7093 
18.9850 37.2871 53.7049 
19.0060 38.0022 53.7006 
19.0280 38.7173 53.6962 
19.0500 39.4324 53.6918 
18.2930 40.2119 53.0617 
17.5360 40.9945 52.4315 
16.7790 41.7804 51.8014 
16.0230 42.5694 51.1712 
16.0450 43.2909 51.1668 
15.2880 44.0847 50.5366 
15.3100 44.8078 50.5322 
14.5540 45.6064 49.9019 
13.7970 46.4082 49.2716 
14.5980 47.0557 49.8931 
13.8410 47.8607 49.2628 
15.2740 2.87120 50.8547 
16.0760 3.60950 51.4768 
16.8780 4.34470 52.0989 
16.8990 5.06300 52.0945 
17.7010 5.79340 52.7167 
17.7230 6.51000 52.7123 
17.7450 7.22670 52.7080 
17.7670 7.94340 52.7036 
18.5680 8.66590 53.3258 
18.5900 9.38100 53.3214 
18.6120 10.0961 53.3171 
18.6330 10.8112 53.3127 
18.6550 11.5263 53.3084 
18.6770 12.2414 53.3040 
18.6990 12.9565 53.2997 
19.5000 13.6662 53.9220 
19.5220 14.3797 53.9176 
18.7640 15.1018 53.2866 
18.7860 15.8169 53.2822 
18.8070 16.5320 53.2779 
18.8290 17.2471 53.2735 
18.8510 17.9622 53.2692 
18.8730 18.6773 53.2648 
18.8940 19.3924 53.2604 
18.9160 20.1075 53.2561 
18.9380 20.8226 53.2517 
18.9590 21.5377 53.2474 
18.9810 22.2528 53.2430 
19.0030 22.9679 53.2387 
19.0250 23.6830 53.2343 
19.0460 24.3981 53.2299 
19.0680 25.1132 53.2256 
19.0900 25.8283 53.2212 
19.1120 26.5434 53.2169 
19.1330 27.2585 53.2125 
19.1550 27.9736 53.2081 
19.1770 28.6887 53.2038 
19.1990 29.4038 53.1994 
19.2200 30.1189 53.1951 
19.2420 30.8340 53.1907 
19.2640 31.5491 53.1864 
19.2860 32.2642 53.1820 
19.3070 32.9793 53.1776 
19.3290 33.6944 53.1733 
19.3510 34.4095 53.1689 
19.3720 35.1246 53.1646 
19.3940 35.8397 53.1602 
19.4160 36.5548 53.1559 
19.4380 37.2699 53.1515 
18.6820 38.0446 52.5202 
18.7030 38.7613 52.5158 
18.7250 39.4780 52.5114 
18.7470 40.1947 52.5071 
17.9910 40.9773 51.8757 
17.2350 41.7631 51.2443 
17.2570 42.4830 51.2399 
16.5020 43.2736 50.6085 
16.5240 43.9951 50.6041 
15.7680 44.7905 49.9726 
15.7900 45.5135 49.9682 
15.8120 46.2366 49.9638 
15.8340 46.9597 49.9594 
15.0790 47.7630 49.3279 
15.7310 2.85390 50.2963 
15.7530 3.57530 50.2919 
16.5540 4.31210 50.9153 
16.5760 5.03200 50.9109 
17.3760 5.76400 51.5343 
18.1770 6.49290 52.1577 
18.1990 7.20960 52.1533 
18.2210 7.92630 52.1490 
18.2430 8.64290 52.1446 
18.2640 9.35960 52.1402 
18.2860 10.0763 52.1359 
19.0870 10.7940 52.7593 
19.1080 11.5091 52.7550 
19.1300 12.2242 52.7506 
19.1520 12.9393 52.7463 
19.1730 13.6544 52.7419 
19.1950 14.3695 52.7375 
19.2170 15.0846 52.7332 
19.2390 15.7997 52.7288 
19.2600 16.5148 52.7245 
19.2820 17.2299 52.7201 
19.3040 17.9450 52.7157 
19.3260 18.6601 52.7114 
19.3470 19.3752 52.7070 
19.3690 20.0903 52.7027 
19.3910 20.8054 52.6983 
19.4130 21.5205 52.6940 
19.4340 22.2357 52.6896 
19.4560 22.9508 52.6852 
19.4780 23.6659 52.6809 
19.5000 24.3810 52.6765 
19.5210 25.0961 52.6722 
19.5430 25.8112 52.6678 
19.5650 26.5263 52.6635 
19.5860 27.2414 52.6591 
19.6080 27.9565 52.6547 
19.6300 28.6716 52.6504 
19.6520 29.3867 52.6460 
19.6730 30.1018 52.6417 
19.6950 30.8169 52.6373 
18.9400 31.5772 52.0048 
18.9610 32.2939 52.0005 
18.9830 33.0106 51.9961 
19.0050 33.7273 51.9917 
19.0270 34.4440 51.9874 
19.0490 35.1606 51.9830 
19.0700 35.8773 51.9786 
19.0920 36.5940 51.9743 
19.1140 37.3107 51.9699 
19.1360 38.0274 51.9655 
19.1570 38.7441 51.9612 
19.1790 39.4608 51.9568 
18.4240 40.2418 51.3242 
18.4460 40.9601 51.3198 
18.4680 41.6784 51.3154 
17.7130 42.4658 50.6828 
16.9590 43.2563 50.0501 
16.9810 43.9778 50.0457 
17.0030 44.6993 50.0413 
17.0250 45.4207 50.0369 
17.0470 46.1422 50.0325 
16.2920 46.9423 49.3998 
17.0900 47.5852 50.0237 
13.8310 2.05470 47.8555 
15.4100 2.81800 49.1090 
16.2100 3.55800 49.7336 
16.2320 4.27950 49.7292 
17.0320 5.01480 50.3538 
17.0540 5.73460 50.3494 
17.8530 6.46510 50.9740 
17.8750 7.18340 50.9696 
17.8970 7.90170 50.9653 
18.6970 8.62580 51.5899 
18.7180 9.34250 51.5856 
18.7400 10.0592 51.5812 
18.7620 10.7759 51.5768 
18.7840 11.4925 51.5725 
18.8060 12.2092 51.5681 
18.8270 12.9259 51.5637 
18.8490 13.6426 51.5594 
18.8710 14.3593 51.5550 
18.8930 15.0760 51.5506 
18.9140 15.7927 51.5463 
18.9360 16.5094 51.5419 
18.9580 17.2261 51.5375 
18.9800 17.9428 51.5332 
19.0020 18.6595 51.5288 
19.0230 19.3762 51.5244 
19.0450 20.0929 51.5201 
19.0670 20.8096 51.5157 
19.0890 21.5263 51.5113 
19.1110 22.2430 51.5070 
19.1320 22.9597 51.5026 
19.1540 23.6763 51.4982 
19.1760 24.3930 51.4939 
19.1980 25.1097 51.4895 
19.2190 25.8264 51.4851 
19.2410 26.5431 51.4808 
19.2630 27.2598 51.4764 
19.2850 27.9765 51.4720 
19.3070 28.6932 51.4677 
19.3280 29.4099 51.4633 
19.3500 30.1266 51.4589 
19.3720 30.8433 51.4546 
19.3940 31.5600 51.4502 
19.4160 32.2767 51.4458 
19.4370 32.9934 51.4415 
19.4590 33.7101 51.4371 
19.4810 34.4268 51.4327 
19.5030 35.1435 51.4284 
19.5240 35.8602 51.4240 
19.5460 36.5768 51.4196 
19.5680 37.2935 51.4153 
19.5900 38.0102 51.4109 
19.6120 38.7269 51.4065 
18.8580 39.5063 50.7727 
18.8800 40.2246 50.7683 
18.9010 40.9429 50.7639 
18.9230 41.6612 50.7595 
18.1690 42.4485 50.1257 
18.1910 43.1684 50.1213 
18.2130 43.8883 50.1169 
17.4600 44.6820 49.4830 
17.4820 45.4034 49.4786 
17.5040 46.1249 49.4742 
17.5260 46.8464 49.4698 
17.5480 47.5679 49.4654 
17.5690 48.2893 49.4610 
17.5910 49.0108 49.4566 
7.96100 -1.81912 42.2744 
8.76099 -1.05358 42.9001 
10.3380 -0.266270 44.1559 
15.0910 2.78210 47.9192 
15.8900 3.52380 48.5450 
16.6890 4.26220 49.1708 
16.7110 4.98370 49.1665 
17.5100 5.71740 49.7923 
17.5320 6.43730 49.7879 
18.3300 7.16620 50.4138 
18.3520 7.88450 50.4094 
18.3740 8.60270 50.4050 
18.3960 9.32100 50.4006 
19.1940 10.0420 51.0266 
19.2160 10.7587 51.0222 
19.2380 11.4754 51.0178 
19.2600 12.1921 51.0135 
19.2810 12.9087 51.0091 
19.3030 13.6254 51.0047 
19.3250 14.3421 51.0004 
19.3470 15.0588 50.9960 
19.3690 15.7755 50.9916 
19.3900 16.4922 50.9873 
19.4120 17.2089 50.9829 
19.4340 17.9256 50.9785 
19.4560 18.6423 50.9742 
19.4780 19.3590 50.9698 
19.4990 20.0757 50.9654 
19.5210 20.7924 50.9611 
19.5430 21.5091 50.9567 
19.5650 22.2258 50.9523 
19.5860 22.9425 50.9480 
19.6080 23.6592 50.9436 
19.6300 24.3759 50.9392 
19.6520 25.0926 50.9349 
19.6740 25.8092 50.9305 
19.6950 26.5259 50.9261 
19.7170 27.2426 50.9218 
19.7390 27.9593 50.9174 
19.7610 28.6760 50.9130 
19.7830 29.3927 50.9087 
19.8040 30.1094 50.9043 
19.8260 30.8261 50.8999 
19.0730 31.5879 50.2649 
19.0940 32.3062 50.2606 
19.1160 33.0245 50.2562 
19.1380 33.7428 50.2518 
19.1600 34.4611 50.2474 
19.1820 35.1794 50.2431 
19.2040 35.8976 50.2387 
19.2250 36.6159 50.2343 
19.2470 37.3342 50.2299 
19.2690 38.0525 50.2256 
19.2910 38.7708 50.2212 
19.3130 39.4891 50.2168 
19.3350 40.2074 50.2124 
19.3560 40.9257 50.2080 
19.3780 41.6439 50.2037 
18.6260 42.4312 49.5686 
18.6480 43.1511 49.5642 
18.6690 43.8710 49.5598 
18.6910 44.5909 49.5554 
17.9390 45.3861 48.9202 
18.7350 46.0306 49.5466 
17.9830 46.8291 48.9115 
18.0050 47.5506 48.9071 
18.0270 48.2720 48.9027 
18.0490 48.9935 48.8983 
18.0700 49.7150 48.8939 
18.0920 50.4364 48.8895 
8.40698 -2.57583 41.7070 
9.20599 -1.80866 42.3339 
9.22900 -1.07126 42.3294 
10.8040 -0.283870 43.5877 
12.3790 0.497100 44.8460 
13.1770 1.25000 45.4730 
14.7520 2.01980 46.7314 
15.5500 2.76470 47.3584 
16.3480 3.50640 47.9855 
17.1460 4.24490 48.6125 
17.1680 4.96640 48.6081 
17.1900 5.68790 48.6037 
17.9880 6.42000 49.2308 
18.0100 7.13990 49.2264 
18.0310 7.85980 49.2220 
18.8290 8.58550 49.8491 
18.8510 9.30380 49.8448 
18.8730 10.0221 49.8404 
18.8950 10.7404 49.8360 
18.9160 11.4587 49.8316 
18.9380 12.1770 49.8273 
18.9600 12.8952 49.8229 
18.9820 13.6135 49.8185 
19.0040 14.3318 49.8141 
19.0260 15.0501 49.8097 
19.0470 15.7684 49.8054 
19.0690 16.4867 49.8010 
19.0910 17.2050 49.7966 
19.1130 17.9233 49.7922 
19.1350 18.6415 49.7879 
19.1570 19.3598 49.7835 
19.1780 20.0781 49.7791 
19.2000 20.7964 49.7747 
19.2220 21.5147 49.7704 
19.2440 22.2330 49.7660 
19.2660 22.9513 49.7616 
19.2880 23.6695 49.7572 
19.3090 24.3878 49.7528 
19.3310 25.1061 49.7485 
19.3530 25.8244 49.7441 
19.3750 26.5427 49.7397 
19.3970 27.2610 49.7353 
19.4190 27.9793 49.7310 
19.4400 28.6976 49.7266 
19.4620 29.4158 49.7222 
19.4840 30.1341 49.7178 
19.5060 30.8524 49.7135 
19.5280 31.5707 49.7091 
19.5500 32.2890 49.7047 
19.5710 33.0073 49.7003 
19.5930 33.7256 49.6959 
19.6150 34.4439 49.6916 
19.6370 35.1621 49.6872 
19.6590 35.8804 49.6828 
19.6810 36.5987 49.6784 
19.7020 37.3170 49.6741 
19.7240 38.0353 49.6697 
19.7460 38.7536 49.6653 
19.7680 39.4719 49.6609 
19.7900 40.1902 49.6566 
19.0380 40.9742 49.0202 
19.0600 41.6941 49.0158 
19.0820 42.4140 49.0115 
19.1040 43.1339 49.0071 
19.1260 43.8537 49.0027 
19.1470 44.5736 48.9983 
19.1690 45.2935 48.9939 
19.1910 46.0134 48.9895 
19.2130 46.7333 48.9851 
18.4620 47.5333 48.3487 
18.4840 48.2547 48.3443 
18.5060 48.9762 48.3399 
18.5280 49.6977 48.3355 
18.5500 50.4192 48.3311 
8.85303 -3.33254 41.1396 
8.87500 -2.59355 41.1351 
9.67297 -1.82634 41.7632 
10.4710 -1.06231 42.3914 
11.2690 -0.301480 43.0195 
12.8420 0.479600 44.2803 
13.6390 1.23250 44.9085 
14.4370 1.98220 45.5367 
15.2340 2.72870 46.1649 
16.0310 3.47200 46.7932 
16.8280 4.21210 47.4215 
17.6250 4.94910 48.0498 
17.6470 5.67060 48.0454 
17.6690 6.39200 48.0410 
18.4660 7.12260 48.6693 
18.4880 7.84250 48.6649 
18.5090 8.56240 48.6605 
18.5310 9.28230 48.6561 
18.5530 10.0021 48.6518 
19.3500 10.7232 49.2801 
19.3720 11.4414 49.2758 
19.3930 12.1597 49.2714 
19.4150 12.8780 49.2670 
19.4370 13.5963 49.2626 
19.4590 14.3146 49.2583 
19.4810 15.0329 49.2539 
19.5030 15.7512 49.2495 
19.5240 16.4695 49.2451 
19.5460 17.1877 49.2407 
19.5680 17.9060 49.2364 
19.5900 18.6243 49.2320 
19.6120 19.3426 49.2276 
19.6340 20.0609 49.2232 
19.6550 20.7792 49.2189 
19.6770 21.4975 49.2145 
19.6990 22.2158 49.2101 
19.7210 22.9340 49.2057 
19.7430 23.6523 49.2013 
19.7650 24.3706 49.1970 
19.7860 25.0889 49.1926 
19.8080 25.8072 49.1882 
19.8300 26.5255 49.1838 
19.8520 27.2438 49.1795 
19.8740 27.9620 49.1751 
19.8960 28.6803 49.1707 
19.1440 29.4389 48.5333 
19.1660 30.1588 48.5289 
19.1880 30.8787 48.5245 
19.2100 31.5985 48.5202 
19.2320 32.3184 48.5158 
19.2530 33.0383 48.5114 
19.2750 33.7582 48.5070 
19.2970 34.4780 48.5026 
19.3190 35.1979 48.4982 
19.3410 35.9178 48.4938 
19.3630 36.6377 48.4894 
19.3850 37.3576 48.4851 
19.4070 38.0774 48.4807 
19.4290 38.7973 48.4763 
19.4500 39.5172 48.4719 
19.4720 40.2371 48.4675 
19.4940 40.9570 48.4631 
19.5160 41.6768 48.4587 
19.5380 42.3967 48.4544 
19.5600 43.1166 48.4500 
19.5820 43.8365 48.4456 
19.6040 44.5564 48.4412 
18.8530 45.3515 47.8036 
19.6470 45.9961 48.4324 
18.8970 46.7945 47.7948 
18.9190 47.5160 47.7904 
18.9410 48.2374 47.7860 
18.9630 48.9589 47.7816 
18.9850 49.6804 47.7772 
19.0070 50.4019 47.7728 
19.0290 51.1233 47.7684 
9.29901 -4.08925 40.5722 
9.32098 -3.35026 40.5677 
10.1180 -2.58142 41.1971 
10.9150 -1.81576 41.8264 
10.9370 -1.07995 41.8219 
11.7340 -0.319080 42.4513 
13.3050 0.462100 43.7146 
14.1010 1.21500 44.3440 
14.8980 1.96470 44.9734 
15.6940 2.71130 45.6029 
16.4900 3.45460 46.2324 
16.5120 4.17930 46.2280 
17.3080 4.91790 46.8575 
17.3300 5.64090 46.8531 
18.1260 6.37470 47.4826 
18.1480 7.09620 47.4782 
18.1700 7.81770 47.4738 
18.9660 8.54510 48.1034 
18.9870 9.26500 48.0990 
19.0090 9.98490 48.0947 
19.0310 10.7048 48.0903 
19.0530 11.4246 48.0859 
19.0750 12.1445 48.0815 
19.0970 12.8644 48.0771 
19.1190 13.5843 48.0727 
19.1410 14.3042 48.0683 
19.1630 15.0240 48.0639 
19.1840 15.7439 48.0596 
19.2060 16.4638 48.0552 
19.2280 17.1837 48.0508 
19.2500 17.9036 48.0464 
19.2720 18.6234 48.0420 
19.2940 19.3433 48.0376 
19.3160 20.0632 48.0332 
19.3380 20.7831 48.0288 
19.3590 21.5030 48.0245 
19.3810 22.2228 48.0201 
19.4030 22.9427 48.0157 
19.4250 23.6626 48.0113 
19.4470 24.3825 48.0069 
19.4690 25.1024 48.0025 
19.4910 25.8222 47.9981 
19.5130 26.5421 47.9938 
19.5350 27.2620 47.9894 
19.5560 27.9819 47.9850 
19.5780 28.7018 47.9806 
19.6000 29.4216 47.9762 
19.6220 30.1415 47.9718 
19.6440 30.8614 47.9674 
19.6660 31.5813 47.9630 
19.6880 32.3011 47.9587 
19.7100 33.0210 47.9543 
19.7320 33.7409 47.9499 
19.7530 34.4608 47.9455 
19.7750 35.1807 47.9411 
19.7970 35.9005 47.9367 
19.8190 36.6204 47.9323 
19.8410 37.3403 47.9279 
19.8630 38.0602 47.9236 
19.8850 38.7801 47.9192 
19.9060 39.4999 47.9148 
19.9280 40.2198 47.9104 
19.9500 40.9397 47.9060 
19.2010 41.7269 47.2672 
19.2230 42.4484 47.2628 
19.2450 43.1698 47.2584 
19.2660 43.8913 47.2540 
19.2880 44.6128 47.2496 
19.3100 45.3342 47.2452 
19.3320 46.0557 47.2408 
19.3540 46.7772 47.2364 
19.3760 47.4987 47.2320 
19.3980 48.2201 47.2276 
19.4200 48.9416 47.2232 
19.4420 49.6631 47.2189 
18.6930 50.4710 46.5799 
18.7150 51.1940 46.5755 
10.5630 -3.33650 40.6309 
11.3590 -2.56921 41.2615 
11.3810 -1.83340 41.2570 
12.1770 -1.07090 41.8876 
12.9730 -0.311570 42.5182 
13.7680 0.444600 43.1488 
13.7900 1.17560 43.1444 
14.5860 1.92700 43.7750 
16.1540 2.69390 45.0409 
16.1760 3.42010 45.0364 
16.9710 4.16190 45.6672 
16.9930 4.88660 45.6628 
17.7880 5.62360 46.2935 
17.8100 6.34670 46.2891 
18.6050 7.07890 46.9199 
18.6270 7.80040 46.9155 
18.6490 8.52190 46.9111 
18.6710 9.24330 46.9067 
18.6930 9.96480 46.9023 
18.7150 10.6863 46.8979 
18.7370 11.4077 46.8935 
19.5310 12.1273 47.5244 
19.5530 12.8471 47.5200 
19.5750 13.5670 47.5156 
19.5970 14.2869 47.5112 
19.6190 15.0068 47.5068 
19.6410 15.7267 47.5024 
19.6620 16.4465 47.4981 
19.6840 17.1664 47.4937 
19.7060 17.8863 47.4893 
19.7280 18.6062 47.4849 
19.7500 19.3261 47.4805 
19.7720 20.0459 47.4761 
19.7940 20.7658 47.4717 
19.8160 21.4857 47.4674 
19.8380 22.2056 47.4630 
19.8590 22.9255 47.4586 
19.8810 23.6453 47.4542 
19.1310 24.3943 46.8144 
19.1530 25.1157 46.8100 
19.1750 25.8372 46.8056 
19.1970 26.5587 46.8012 
19.2190 27.2801 46.7968 
19.2410 28.0016 46.7924 
19.2630 28.7231 46.7880 
19.2850 29.4446 46.7836 
19.3070 30.1660 46.7792 
19.3290 30.8875 46.7748 
19.3510 31.6090 46.7704 
19.3730 32.3305 46.7660 
19.3950 33.0519 46.7616 
19.4170 33.7734 46.7572 
19.4380 34.4949 46.7528 
19.4600 35.2163 46.7484 
19.4820 35.9378 46.7440 
19.5040 36.6593 46.7397 
19.5260 37.3808 46.7353 
19.5480 38.1022 46.7309 
19.5700 38.8237 46.7265 
19.5920 39.5452 46.7221 
19.6140 40.2666 46.7177 
19.6360 40.9881 46.7133 
19.6580 41.7096 46.7089 
19.6800 42.4311 46.7045 
19.7020 43.1525 46.7001 
19.7240 43.8740 46.6957 
19.7450 44.5955 46.6913 
19.7670 45.3170 46.6869 
19.7890 46.0384 46.6825 
19.8110 46.7599 46.6781 
19.0630 47.5614 46.0380 
19.8550 48.2028 46.6693 
19.1070 49.0075 46.0291 
19.1290 49.7306 46.0247 
19.1510 50.4536 46.0203 
19.1730 51.1767 46.0159 
11.8030 -3.32266 40.6965 
11.8250 -2.58685 40.6920 
12.6200 -1.82271 41.3239 
13.4150 -1.06176 41.9557 
13.4370 -0.329140 41.9512 
14.2310 0.427000 42.5831 
15.0260 1.18000 43.2150 
15.8200 1.92980 43.8469 
15.8420 2.65770 43.8425 
16.6360 3.40270 44.4744 
16.6590 4.12900 44.4700 
17.4530 4.86920 45.1020 
17.4750 5.59390 45.0975 
18.2680 6.32930 45.7295 
18.2900 7.05240 45.7251 
18.3120 7.77550 45.7207 
19.1060 8.50460 46.3528 
19.1280 9.22600 46.3484 
19.1500 9.94750 46.3440 
19.1720 10.6690 46.3396 
19.1940 11.3905 46.3352 
19.2160 12.1119 46.3308 
19.2380 12.8334 46.3264 
19.2600 13.5549 46.3220 
19.2820 14.2763 46.3176 
19.3040 14.9978 46.3132 
19.3250 15.7193 46.3088 
19.3470 16.4408 46.3044 
19.3690 17.1622 46.3000 
19.3910 17.8837 46.2956 
19.4130 18.6052 46.2912 
19.4350 19.3266 46.2868 
19.4570 20.0481 46.2824 
19.4790 20.7696 46.2780 
19.5010 21.4911 46.2736 
19.5230 22.2125 46.2692 
19.5450 22.9340 46.2648 
19.5670 23.6555 46.2604 
19.5890 24.3770 46.2561 
19.6110 25.0984 46.2517 
19.6330 25.8199 46.2473 
19.6540 26.5414 46.2429 
19.6760 27.2628 46.2385 
19.6980 27.9843 46.2341 
19.7200 28.7058 46.2297 
19.7420 29.4273 46.2253 
19.7640 30.1487 46.2209 
19.7860 30.8702 46.2165 
19.8080 31.5917 46.2121 
19.8300 32.3132 46.2077 
19.8520 33.0346 46.2033 
19.8740 33.7561 46.1989 
19.8960 34.4776 46.1945 
19.9180 35.1990 46.1901 
19.9400 35.9205 46.1857 
19.9610 36.6420 46.1813 
19.9830 37.3635 46.1769 
20.0050 38.0849 46.1725 
20.0270 38.8064 46.1681 
20.0490 39.5279 46.1637 
20.0710 40.2493 46.1593 
20.0930 40.9708 46.1549 
20.1150 41.6923 46.1505 
20.1370 42.4138 46.1461 
20.1590 43.1352 46.1417 
20.1810 43.8567 46.1373 
19.4330 44.6518 45.4960 
19.4550 45.3748 45.4916 
19.4770 46.0979 45.4872 
19.4990 46.8210 45.4828 
19.5210 47.5440 45.4784 
19.5430 48.2671 45.4740 
18.7960 49.0733 44.8326 
18.8180 49.7980 44.8282 
18.8400 50.5226 44.8238 
18.8620 51.2473 44.8193 
12.2470 -4.07610 40.1316 
12.2690 -3.34030 40.1271 
13.0630 -2.57453 40.7601 
13.0850 -1.84031 40.7557 
13.8790 -1.07932 41.3887 
14.6720 -0.321520 42.0218 
14.6950 0.409500 42.0174 
