ply
format ascii 1.0
comment Created by CloudCompare v2.11 alpha (Anoia)
comment Created 17/05/2019 19:19
obj_info Generated by CloudCompare!
element vertex 1936
property float x
property float y
property float z
end_header
611.064 100.808 38.4143 
611.086 101.543 38.4098 
611.109 102.279 38.4053 
611.131 103.015 38.4008 
611.154 103.751 38.3964 
611.176 104.487 38.3919 
611.198 105.222 38.3874 
611.221 105.958 38.3829 
611.243 106.694 38.3784 
611.265 107.43 38.3739 
611.288 108.166 38.3695 
611.31 108.901 38.365 
611.333 109.637 38.3605 
611.355 110.373 38.356 
611.377 111.109 38.3515 
611.4 111.845 38.347 
602.162 19.8243 32.5655 
604.487 20.5786 34.4852 
606.045 21.3236 35.7635 
609.949 23.5254 38.9571 
610.739 24.253 39.5941 
611.529 24.9775 40.2311 
612.318 25.6988 40.8681 
612.34 26.4282 40.8636 
612.362 27.1577 40.8592 
612.385 27.8871 40.8547 
612.407 28.6165 40.8503 
612.429 29.346 40.8459 
612.451 30.0754 40.8414 
612.473 30.8048 40.837 
612.495 31.5343 40.8325 
612.517 32.2637 40.8281 
612.54 32.9931 40.8236 
612.562 33.7226 40.8192 
612.584 34.452 40.8147 
613.373 35.151 41.4519 
613.395 35.8789 41.4475 
613.417 36.6067 41.443 
613.439 37.3345 41.4386 
613.461 38.0624 41.4342 
613.483 38.7902 41.4297 
613.506 39.5181 41.4253 
613.528 40.2459 41.4209 
613.55 40.9738 41.4164 
613.572 41.7016 41.412 
613.594 42.4294 41.4075 
613.616 43.1573 41.4031 
613.638 43.8851 41.3987 
613.66 44.613 41.3942 
613.682 45.3408 41.3898 
613.705 46.0687 41.3854 
613.727 46.7965 41.3809 
613.749 47.5243 41.3765 
613.771 48.2522 41.3721 
613.793 48.98 41.3676 
613.815 49.7079 41.3632 
613.837 50.4357 41.3588 
613.859 51.1636 41.3543 
613.882 51.8914 41.3499 
613.904 52.6192 41.3455 
613.926 53.3471 41.341 
613.948 54.0749 41.3366 
613.97 54.8028 41.3321 
613.992 55.5306 41.3277 
614.014 56.2585 41.3233 
614.036 56.9863 41.3188 
614.059 57.7141 41.3144 
614.081 58.442 41.31 
614.103 59.1698 41.3055 
614.125 59.8977 41.3011 
614.147 60.6255 41.2967 
614.169 61.3534 41.2922 
614.191 62.0812 41.2878 
614.213 62.8091 41.2834 
614.236 63.5369 41.2789 
614.258 64.2647 41.2745 
614.28 64.9926 41.2701 
614.302 65.7204 41.2656 
614.324 66.4483 41.2612 
614.346 67.1761 41.2567 
613.604 68.0061 40.6103 
613.626 68.7355 40.6058 
613.648 69.4649 40.6014 
613.67 70.1944 40.5969 
613.693 70.9238 40.5925 
613.715 71.6532 40.588 
613.737 72.3827 40.5836 
613.759 73.1121 40.5792 
613.017 73.9564 39.9326 
613.039 74.6874 39.9282 
613.062 75.4185 39.9237 
613.084 76.1495 39.9192 
613.106 76.8805 39.9148 
613.128 77.6115 39.9103 
613.151 78.3426 39.9059 
613.173 79.0736 39.9014 
612.431 79.9322 39.2548 
612.454 80.6648 39.2503 
612.476 81.3975 39.2459 
612.498 82.1301 39.2414 
612.52 82.8627 39.2369 
612.543 83.5953 39.2325 
612.565 84.3279 39.228 
612.587 85.0606 39.2235 
612.61 85.7932 39.2191 
612.632 86.5258 39.2146 
611.891 87.402 38.5678 
611.913 88.1362 38.5634 
611.936 88.8704 38.5589 
611.958 89.6046 38.5544 
611.98 90.3388 38.55 
612.003 91.073 38.5455 
612.025 91.8072 38.541 
612.047 92.5415 38.5365 
611.307 93.4319 37.8897 
611.329 94.1677 37.8852 
611.351 94.9035 37.8807 
611.374 95.6393 37.8762 
611.396 96.3752 37.8718 
611.419 97.1109 37.8673 
611.441 97.8468 37.8628 
611.463 98.5826 37.8583 
611.486 99.3184 37.8538 
611.508 100.054 37.8493 
611.53 100.79 37.8449 
611.553 101.526 37.8404 
611.575 102.262 37.8359 
611.597 102.997 37.8314 
611.62 103.733 37.8269 
611.642 104.469 37.8224 
611.665 105.205 37.818 
611.687 105.941 37.8135 
611.709 106.676 37.809 
611.732 107.412 37.8045 
611.754 108.148 37.8 
611.776 108.884 37.7955 
611.037 109.811 37.1485 
611.821 110.355 37.7866 
611.843 111.091 37.7821 
611.866 111.827 37.7776 
602.637 19.8063 31.985 
604.96 20.5608 33.9083 
606.515 21.3058 35.1891 
609.648 23.5127 37.7462 
611.203 24.2355 39.0271 
611.992 24.96 39.6653 
612.014 25.691 39.6609 
612.802 26.4107 40.2991 
612.825 27.1402 40.2947 
612.847 27.8696 40.2902 
612.869 28.599 40.2858 
612.891 29.3285 40.2814 
612.913 30.0579 40.2769 
612.935 30.7873 40.2725 
612.958 31.5168 40.268 
612.98 32.2462 40.2636 
613.002 32.9757 40.2591 
613.024 33.7051 40.2547 
613.046 34.4345 40.2502 
613.068 35.164 40.2458 
613.091 35.8934 40.2413 
613.113 36.6228 40.2369 
613.135 37.3523 40.2325 
613.157 38.0817 40.228 
613.179 38.8111 40.2236 
613.201 39.5406 40.2191 
613.224 40.27 40.2147 
613.246 40.9995 40.2102 
613.268 41.7289 40.2058 
613.29 42.4583 40.2013 
613.312 43.1878 40.1969 
613.334 43.9172 40.1925 
613.357 44.6466 40.188 
613.379 45.3761 40.1836 
613.401 46.1055 40.1791 
613.423 46.8349 40.1747 
613.445 47.5644 40.1702 
613.467 48.2938 40.1658 
613.49 49.0232 40.1613 
613.512 49.7527 40.1569 
613.534 50.4821 40.1524 
613.556 51.2116 40.148 
613.578 51.941 40.1436 
613.6 52.6704 40.1391 
613.623 53.3999 40.1347 
613.645 54.1293 40.1302 
613.667 54.8587 40.1258 
613.689 55.5882 40.1213 
613.711 56.3176 40.1169 
613.734 57.047 40.1124 
613.756 57.7765 40.108 
613.778 58.5059 40.1035 
613.8 59.2353 40.0991 
613.822 59.9648 40.0947 
613.844 60.6942 40.0902 
613.867 61.4237 40.0858 
613.889 62.1531 40.0813 
613.911 62.8825 40.0769 
613.933 63.612 40.0724 
613.955 64.3414 40.068 
613.977 65.0708 40.0635 
614 65.8003 40.0591 
614.022 66.5297 40.0547 
614.044 67.2591 40.0502 
614.066 67.9886 40.0458 
614.088 68.718 40.0413 
614.11 69.4474 40.0369 
613.369 70.2837 39.3891 
613.392 71.0148 39.3847 
613.414 71.7458 39.3802 
613.436 72.4768 39.3758 
613.458 73.2078 39.3713 
613.48 73.9389 39.3669 
613.503 74.6699 39.3624 
613.525 75.4009 39.358 
613.547 76.132 39.3535 
612.807 76.9842 38.7057 
612.829 77.7168 38.7012 
612.851 78.4494 38.6968 
612.873 79.182 38.6923 
612.896 79.9146 38.6878 
612.918 80.6473 38.6834 
612.94 81.3799 38.6789 
612.962 82.1125 38.6744 
612.985 82.8451 38.67 
612.245 83.7133 38.022 
612.267 84.4475 38.0175 
612.289 85.1817 38.0131 
612.312 85.9159 38.0086 
612.334 86.6501 38.0041 
612.356 87.3844 37.9996 
612.378 88.1186 37.9952 
612.401 88.8528 37.9907 
612.423 89.587 37.9862 
611.683 90.4711 37.3382 
611.706 91.2069 37.3337 
611.728 91.9427 37.3292 
611.751 92.6785 37.3248 
611.773 93.4143 37.3203 
611.795 94.1501 37.3158 
611.818 94.8859 37.3113 
611.84 95.6217 37.3068 
611.101 96.5201 36.6587 
611.123 97.2575 36.6542 
611.146 97.9949 36.6497 
611.168 98.7323 36.6452 
611.19 99.4697 36.6407 
611.213 100.207 36.6362 
611.235 100.944 36.6317 
611.258 101.682 36.6272 
611.28 102.419 36.6227 
611.303 103.157 36.6182 
611.325 103.894 36.6138 
611.347 104.632 36.6093 
611.37 105.369 36.6048 
611.392 106.106 36.6003 
611.415 106.844 36.5958 
611.437 107.581 36.5913 
611.459 108.318 36.5868 
611.482 109.056 36.5823 
611.504 109.793 36.5778 
611.527 110.531 36.5733 
611.549 111.268 36.5688 
611.571 112.005 36.5643 
603.878 19.7914 32.0483 
605.432 20.5429 33.3315 
606.985 21.288 34.6147 
610.114 23.495 37.1768 
610.902 24.2244 37.8162 
611.69 24.9505 38.4557 
612.477 25.6735 39.0951 
612.499 26.4045 39.0907 
612.522 27.1355 39.0862 
612.544 27.8666 39.0818 
612.566 28.5976 39.0773 
612.588 29.3286 39.0729 
612.61 30.0596 39.0684 
612.633 30.7907 39.064 
612.655 31.5217 39.0595 
612.677 32.2527 39.0551 
612.699 32.9838 39.0506 
612.722 33.7148 39.0461 
612.744 34.4458 39.0417 
612.766 35.1768 39.0372 
612.788 35.9079 39.0328 
612.81 36.6389 39.0283 
612.833 37.3699 39.0239 
613.619 38.0642 39.6635 
613.641 38.7937 39.6591 
612.899 39.563 39.0105 
612.922 40.294 39.0061 
612.944 41.0251 39.0016 
612.966 41.7561 38.9971 
612.988 42.4871 38.9927 
613.01 43.2182 38.9882 
613.033 43.9492 38.9838 
613.055 44.6802 38.9793 
613.077 45.4112 38.9749 
613.099 46.1423 38.9704 
613.122 46.8733 38.966 
613.144 47.6043 38.9615 
613.166 48.3354 38.9571 
613.188 49.0664 38.9526 
613.21 49.7974 38.9481 
613.233 50.5284 38.9437 
613.255 51.2595 38.9392 
613.277 51.9905 38.9348 
613.299 52.7215 38.9303 
613.321 53.4526 38.9259 
613.344 54.1836 38.9214 
613.366 54.9146 38.917 
613.388 55.6456 38.9125 
613.41 56.3767 38.9081 
613.433 57.1077 38.9036 
613.455 57.8387 38.8991 
613.477 58.5697 38.8947 
613.499 59.3008 38.8902 
613.522 60.0318 38.8858 
613.544 60.7628 38.8813 
614.329 61.4062 39.5213 
614.351 62.1356 39.5168 
614.373 62.865 39.5124 
614.395 63.5945 39.5079 
614.417 64.3239 39.5035 
613.677 65.149 38.8546 
613.699 65.88 38.8501 
613.721 66.6111 38.8457 
613.744 67.3421 38.8412 
613.766 68.0731 38.8368 
613.788 68.8042 38.8323 
613.81 69.5352 38.8279 
613.833 70.2662 38.8234 
613.855 70.9972 38.819 
613.877 71.7283 38.8145 
613.899 72.4593 38.81 
613.159 73.3035 38.161 
613.182 74.0361 38.1566 
613.204 74.7687 38.1521 
613.226 75.5014 38.1476 
613.248 76.234 38.1432 
613.271 76.9666 38.1387 
613.293 77.6992 38.1342 
613.315 78.4318 38.1298 
612.576 79.2904 37.4807 
612.598 80.0246 37.4762 
612.621 80.7588 37.4717 
612.643 81.493 37.4672 
612.665 82.2272 37.4628 
612.687 82.9615 37.4583 
612.71 83.6957 37.4538 
612.732 84.4299 37.4493 
612.754 85.1641 37.4449 
612.777 85.8983 37.4404 
612.038 86.7744 36.7912 
612.06 87.5102 36.7867 
612.083 88.246 36.7822 
612.105 88.9818 36.7777 
612.127 89.7176 36.7733 
612.15 90.4534 36.7688 
612.172 91.1892 36.7643 
612.194 91.925 36.7598 
611.456 92.8154 36.1105 
611.478 93.5528 36.106 
611.501 94.2902 36.1015 
611.523 95.0276 36.097 
611.546 95.765 36.0925 
611.568 96.5024 36.088 
611.591 97.2398 36.0835 
611.613 97.9772 36.079 
611.635 98.7146 36.0745 
611.658 99.452 36.07 
611.68 100.189 36.0656 
611.703 100.927 36.0611 
611.725 101.664 36.0566 
611.747 102.402 36.0521 
611.77 103.139 36.0476 
611.792 103.876 36.0431 
611.815 104.614 36.0386 
611.837 105.351 36.0341 
611.859 106.089 36.0296 
611.882 106.826 36.0251 
611.904 107.563 36.0206 
611.927 108.301 36.0161 
611.949 109.038 36.0116 
611.212 109.967 35.3621 
611.234 110.706 35.3576 
611.257 111.445 35.3531 
611.279 112.184 35.3486 
611.302 112.923 35.3441 
608.243 22.0108 34.681 
609.03 22.7481 35.3216 
610.581 23.4774 36.6074 
611.367 24.2068 37.248 
611.39 24.941 37.2435 
612.176 25.6656 37.8843 
612.198 26.3982 37.8798 
612.985 27.118 38.5205 
613.007 27.849 38.516 
613.029 28.5801 38.5116 
613.051 29.3111 38.5071 
613.074 30.0421 38.5027 
613.096 30.7731 38.4982 
613.118 31.5042 38.4938 
613.14 32.2352 38.4893 
613.163 32.9662 38.4849 
613.185 33.6973 38.4804 
613.207 34.4283 38.476 
613.229 35.1593 38.4715 
613.251 35.8903 38.467 
613.274 36.6214 38.4626 
613.296 37.3524 38.4581 
613.318 38.0834 38.4537 
613.34 38.8145 38.4492 
613.363 39.5455 38.4448 
613.385 40.2765 38.4403 
613.407 41.0075 38.4359 
613.429 41.7386 38.4314 
613.451 42.4696 38.427 
613.474 43.2006 38.4225 
613.496 43.9317 38.418 
613.518 44.6627 38.4136 
613.54 45.3937 38.4091 
613.562 46.1247 38.4047 
613.585 46.8558 38.4002 
613.607 47.5868 38.3958 
613.629 48.3178 38.3913 
613.651 49.0489 38.3869 
613.674 49.7799 38.3824 
613.696 50.5109 38.378 
613.718 51.2419 38.3735 
613.74 51.973 38.369 
613.763 52.704 38.3646 
613.785 53.435 38.3601 
613.807 54.1661 38.3557 
613.829 54.8971 38.3512 
613.851 55.6281 38.3468 
613.874 56.3591 38.3423 
613.896 57.0902 38.3379 
613.918 57.8212 38.3334 
613.94 58.5522 38.3289 
613.962 59.2833 38.3245 
613.985 60.0143 38.32 
614.007 60.7453 38.3156 
614.029 61.4763 38.3111 
614.051 62.2074 38.3067 
614.074 62.9384 38.3022 
614.096 63.6694 38.2978 
614.118 64.4005 38.2933 
614.14 65.1315 38.2889 
614.162 65.8625 38.2844 
614.185 66.5935 38.2799 
614.207 67.3246 38.2755 
614.229 68.0556 38.271 
613.49 68.8902 37.6209 
613.512 69.6228 37.6164 
613.535 70.3555 37.6119 
613.557 71.0881 37.6075 
613.579 71.8207 37.603 
613.601 72.5533 37.5985 
613.624 73.2859 37.5941 
613.646 74.0186 37.5896 
613.668 74.7512 37.5851 
612.93 75.6017 36.9348 
612.952 76.3359 36.9304 
612.974 77.0702 36.9259 
612.996 77.8044 36.9214 
613.019 78.5386 36.9169 
613.041 79.2728 36.9125 
613.063 80.007 36.908 
613.086 80.7412 36.9035 
613.108 81.4754 36.899 
612.37 82.3419 36.2487 
612.392 83.0777 36.2442 
612.415 83.8135 36.2397 
612.437 84.5493 36.2352 
612.459 85.2851 36.2307 
612.482 86.0209 36.2262 
612.504 86.7567 36.2218 
612.526 87.4925 36.2173 
612.549 88.2284 36.2128 
611.811 89.1108 35.5623 
611.834 89.8482 35.5578 
611.856 90.5855 35.5533 
611.878 91.323 35.5488 
611.901 92.0603 35.5443 
611.923 92.7978 35.5398 
611.946 93.5351 35.5353 
611.968 94.2726 35.5308 
611.99 95.0099 35.5263 
612.013 95.7474 35.5219 
611.276 96.6473 34.8713 
611.298 97.3863 34.8668 
611.321 98.1253 34.8623 
611.343 98.8642 34.8578 
611.366 99.6032 34.8533 
611.388 100.342 34.8488 
611.411 101.081 34.8442 
611.433 101.82 34.8397 
611.456 102.559 34.8352 
611.478 103.298 34.8307 
611.5 104.037 34.8262 
611.523 104.776 34.8217 
611.545 105.515 34.8172 
611.568 106.254 34.8127 
611.59 106.993 34.8082 
611.613 107.732 34.8037 
611.635 108.471 34.7992 
611.658 109.21 34.7947 
611.68 109.949 34.7902 
611.703 110.688 34.7857 
611.725 111.427 34.7812 
611.747 112.166 34.7767 
611.77 112.905 34.7722 
609.498 22.7304 34.7497 
610.284 23.4646 35.3915 
611.069 24.1956 36.0334 
611.855 24.9234 36.6753 
611.877 25.6576 36.6709 
612.663 26.3806 37.3128 
612.685 27.1132 37.3084 
612.707 27.8459 37.3039 
612.729 28.5785 37.2994 
612.752 29.3111 37.295 
612.774 30.0437 37.2905 
612.796 30.7764 37.286 
612.819 31.509 37.2816 
612.841 32.2416 37.2771 
612.863 32.9742 37.2726 
612.885 33.7068 37.2682 
613.67 34.4108 37.9102 
613.692 35.1418 37.9058 
613.715 35.8728 37.9013 
613.737 36.6038 37.8969 
613.759 37.3349 37.8924 
613.781 38.0659 37.8879 
613.804 38.7969 37.8835 
613.063 39.5678 37.2325 
613.086 40.3004 37.228 
613.108 41.033 37.2235 
613.13 41.7657 37.2191 
613.153 42.4983 37.2146 
613.175 43.2309 37.2101 
613.197 43.9635 37.2057 
613.219 44.6962 37.2012 
613.242 45.4288 37.1967 
613.264 46.1614 37.1923 
613.286 46.894 37.1878 
613.308 47.6266 37.1834 
613.331 48.3593 37.1789 
613.353 49.0919 37.1744 
613.375 49.8245 37.17 
613.397 50.5571 37.1655 
613.42 51.2897 37.161 
613.442 52.0224 37.1566 
613.464 52.755 37.1521 
613.487 53.4876 37.1476 
613.509 54.2202 37.1432 
613.531 54.9528 37.1387 
613.553 55.6855 37.1342 
613.576 56.4181 37.1298 
613.598 57.1507 37.1253 
613.62 57.8833 37.1208 
613.642 58.6159 37.1164 
613.665 59.3486 37.1119 
613.687 60.0812 37.1075 
613.709 60.8138 37.103 
613.732 61.5464 37.0985 
613.754 62.2791 37.0941 
613.776 63.0117 37.0896 
613.798 63.7443 37.0851 
613.821 64.4769 37.0807 
613.843 65.2095 37.0762 
613.865 65.9422 37.0717 
613.887 66.6748 37.0673 
613.91 67.4074 37.0628 
613.932 68.14 37.0583 
613.954 68.8726 37.0539 
613.977 69.6053 37.0494 
613.999 70.3379 37.045 
613.261 71.1788 36.3935 
613.283 71.9131 36.389 
613.305 72.6473 36.3845 
613.328 73.3815 36.3801 
613.35 74.1157 36.3756 
613.372 74.8499 36.3711 
613.395 75.5841 36.3666 
613.417 76.3183 36.3622 
613.439 77.0526 36.3577 
612.702 77.9094 35.7061 
612.724 78.6452 35.7016 
612.747 79.381 35.6972 
612.769 80.1168 35.6927 
612.791 80.8527 35.6882 
612.814 81.5885 35.6837 
612.836 82.3243 35.6792 
612.859 83.0601 35.6747 
612.881 83.7959 35.6703 
612.903 84.5317 35.6658 
612.926 85.2675 35.6613 
612.189 86.1435 35.0096 
612.211 86.8809 35.0051 
612.234 87.6183 35.0006 
612.256 88.3557 34.9961 
612.278 89.0931 34.9916 
612.301 89.8305 34.9871 
612.323 90.5679 34.9826 
611.587 91.4566 34.3309 
611.609 92.1956 34.3264 
611.632 92.9346 34.3219 
611.654 93.6736 34.3174 
611.677 94.4126 34.3129 
611.699 95.1516 34.3084 
611.722 95.8905 34.3039 
611.744 96.6295 34.2994 
611.766 97.3685 34.2949 
611.789 98.1075 34.2904 
611.811 98.8465 34.2859 
611.834 99.5855 34.2814 
611.856 100.324 34.2769 
611.879 101.063 34.2723 
611.901 101.802 34.2678 
611.924 102.541 34.2633 
611.946 103.28 34.2588 
611.969 104.019 34.2543 
611.991 104.758 34.2498 
612.014 105.497 34.2453 
612.036 106.236 34.2408 
612.058 106.975 34.2363 
611.323 107.901 33.5843 
611.346 108.641 33.5798 
611.368 109.382 33.5753 
611.391 110.123 33.5708 
611.413 110.863 33.5663 
611.436 111.604 33.5618 
611.458 112.344 33.5573 
611.481 113.085 33.5527 
609.181 21.9753 33.5347 
609.966 22.7127 34.1778 
610.751 23.4469 34.8209 
611.536 24.1779 35.464 
611.558 24.9137 35.4595 
612.342 25.64 36.1027 
612.365 26.3742 36.0982 
613.149 27.0957 36.7414 
613.171 27.8283 36.7369 
613.194 28.5609 36.7325 
613.216 29.2935 36.728 
613.238 30.0262 36.7235 
613.26 30.7588 36.7191 
613.283 31.4914 36.7146 
613.305 32.224 36.7101 
613.327 32.9567 36.7057 
613.35 33.6893 36.7012 
613.372 34.4219 36.6967 
613.394 35.1545 36.6923 
613.416 35.8871 36.6878 
613.439 36.6198 36.6833 
613.461 37.3524 36.6789 
613.483 38.085 36.6744 
613.505 38.8176 36.67 
613.528 39.5502 36.6655 
613.55 40.2829 36.661 
613.572 41.0155 36.6566 
613.594 41.7481 36.6521 
613.617 42.4807 36.6476 
613.639 43.2133 36.6432 
612.9 43.9953 35.9908 
612.923 44.7295 35.9863 
612.945 45.4638 35.9819 
612.967 46.198 35.9774 
612.99 46.9322 35.9729 
613.012 47.6664 35.9684 
613.034 48.4006 35.964 
613.057 49.1348 35.9595 
613.079 49.869 35.955 
613.101 50.6033 35.9506 
613.123 51.3375 35.9461 
613.146 52.0717 35.9416 
613.168 52.8059 35.9371 
613.19 53.5401 35.9327 
613.213 54.2743 35.9282 
613.235 55.0085 35.9237 
613.257 55.7427 35.9192 
613.28 56.477 35.9148 
613.302 57.2112 35.9103 
613.324 57.9454 35.9058 
613.347 58.6796 35.9013 
613.369 59.4138 35.8969 
613.391 60.148 35.8924 
613.414 60.8822 35.8879 
613.436 61.6165 35.8834 
613.458 62.3507 35.879 
613.481 63.0849 35.8745 
613.503 63.8191 35.87 
613.525 64.5533 35.8655 
613.547 65.2875 35.8611 
613.57 66.0217 35.8566 
613.592 66.756 35.8521 
613.614 67.4902 35.8476 
613.637 68.2244 35.8432 
613.659 68.9586 35.8387 
613.681 69.6928 35.8342 
613.704 70.427 35.8298 
613.726 71.1612 35.8253 
613.748 71.8954 35.8208 
613.771 72.6297 35.8163 
613.034 73.477 35.1636 
613.056 74.2128 35.1591 
613.079 74.9486 35.1546 
613.101 75.6844 35.1501 
613.123 76.4202 35.1457 
613.146 77.156 35.1412 
613.168 77.8918 35.1367 
613.191 78.6276 35.1322 
613.213 79.3634 35.1277 
613.235 80.0992 35.1232 
613.258 80.835 35.1188 
613.28 81.5708 35.1143 
612.544 82.4388 34.4614 
612.566 83.1762 34.4569 
612.589 83.9136 34.4524 
612.611 84.651 34.4479 
612.634 85.3884 34.4434 
612.656 86.1258 34.4389 
612.678 86.8632 34.4344 
612.701 87.6006 34.4299 
611.965 88.4829 33.777 
611.988 89.2219 33.7725 
612.01 89.9609 33.768 
612.033 90.6999 33.7635 
612.055 91.4389 33.759 
612.077 92.1779 33.7545 
612.1 92.9169 33.75 
611.365 93.8119 33.0969 
611.387 94.5525 33.0924 
611.41 95.2931 33.0879 
611.432 96.0337 33.0834 
611.455 96.7743 33.0789 
611.477 97.5149 33.0744 
611.5 98.2554 33.0699 
611.522 98.996 33.0654 
611.545 99.7366 33.0608 
611.567 100.477 33.0563 
611.59 101.218 33.0518 
611.612 101.958 33.0473 
611.635 102.699 33.0428 
611.657 103.44 33.0383 
611.68 104.18 33.0338 
611.702 104.921 33.0293 
611.725 105.661 33.0247 
611.747 106.402 33.0202 
611.77 107.142 33.0157 
611.792 107.883 33.0112 
611.815 108.624 33.0067 
611.837 109.364 33.0022 
611.103 110.296 32.3489 
611.126 111.038 32.3444 
611.148 111.78 32.3399 
611.927 112.327 32.9841 
611.194 113.265 32.3308 
609.628 21.2169 32.9661 
610.412 21.956 33.6104 
610.434 22.6949 33.6059 
611.218 23.4292 34.2502 
611.24 24.1666 34.2457 
612.024 24.8961 34.8901 
612.047 25.6319 34.8856 
612.83 26.3566 35.53 
612.852 27.0908 35.5255 
612.875 27.825 35.521 
612.897 28.5592 35.5166 
612.919 29.2935 35.5121 
612.942 30.0277 35.5076 
612.964 30.7619 35.5032 
612.986 31.4961 35.4987 
613.008 32.2303 35.4942 
613.031 32.9645 35.4897 
613.053 33.6987 35.4853 
613.075 34.433 35.4808 
613.098 35.1672 35.4763 
613.12 35.9014 35.4718 
613.142 36.6356 35.4674 
613.165 37.3698 35.4629 
613.187 38.104 35.4584 
613.209 38.8382 35.4539 
613.232 39.5724 35.4495 
613.254 40.3067 35.445 
613.276 41.0409 35.4405 
613.299 41.7751 35.436 
613.321 42.5093 35.4316 
613.343 43.2435 35.4271 
613.366 43.9777 35.4226 
613.388 44.7119 35.4181 
613.41 45.4462 35.4137 
613.433 46.1804 35.4092 
613.455 46.9146 35.4047 
613.477 47.6488 35.4002 
613.499 48.383 35.3958 
613.522 49.1172 35.3913 
613.544 49.8514 35.3868 
613.566 50.5857 35.3824 
613.589 51.3199 35.3779 
613.611 52.0541 35.3734 
613.633 52.7883 35.3689 
612.896 53.5925 34.7152 
612.919 54.3283 34.7107 
612.941 55.0641 34.7063 
612.963 55.8 34.7018 
612.986 56.5358 34.6973 
613.008 57.2716 34.6928 
613.031 58.0074 34.6883 
613.053 58.7432 34.6838 
613.075 59.479 34.6794 
613.098 60.2148 34.6749 
613.12 60.9506 34.6704 
613.142 61.6864 34.6659 
613.165 62.4222 34.6614 
613.187 63.158 34.6569 
613.209 63.8938 34.6525 
613.232 64.6296 34.648 
614.013 65.2699 35.2929 
613.277 66.1012 34.639 
613.299 66.8371 34.6345 
613.321 67.5729 34.63 
613.344 68.3087 34.6256 
613.366 69.0445 34.6211 
613.388 69.7803 34.6166 
613.411 70.5161 34.6121 
613.433 71.2519 34.6076 
613.455 71.9877 34.6031 
613.478 72.7235 34.5987 
613.5 73.4593 34.5942 
613.523 74.1951 34.5897 
613.545 74.9309 34.5852 
613.567 75.6667 34.5807 
612.832 76.5219 33.9267 
612.854 77.2593 33.9222 
612.877 77.9967 33.9177 
612.899 78.7341 33.9132 
612.921 79.4715 33.9087 
612.944 80.2089 33.9042 
612.966 80.9463 33.8997 
612.989 81.6837 33.8952 
613.011 82.4211 33.8907 
613.034 83.1585 33.8862 
613.056 83.8959 33.8817 
613.078 84.6333 33.8773 
612.344 85.5092 33.2231 
612.366 86.2482 33.2186 
612.388 86.9872 33.2141 
612.411 87.7262 33.2096 
612.433 88.4652 33.2051 
612.456 89.2042 33.2006 
611.721 90.0913 32.5464 
611.744 90.8318 32.5419 
611.766 91.5724 32.5374 
611.789 92.313 32.5328 
611.811 93.0536 32.5283 
611.834 93.7942 32.5238 
611.856 94.5348 32.5193 
611.879 95.2753 32.5148 
611.901 96.0159 32.5103 
611.924 96.7565 32.5058 
611.19 97.6611 31.8515 
611.213 98.4033 31.8469 
611.235 99.1454 31.8424 
611.258 99.8876 31.8379 
611.28 100.63 31.8334 
611.303 101.372 31.8288 
611.325 102.114 31.8243 
611.348 102.856 31.8198 
611.37 103.599 31.8153 
611.393 104.341 31.8107 
611.416 105.083 31.8062 
611.438 105.825 31.8017 
611.461 106.567 31.7972 
611.483 107.309 31.7927 
611.506 108.052 31.7881 
611.528 108.794 31.7836 
611.551 109.536 31.7791 
611.574 110.278 31.7746 
611.596 111.02 31.77 
611.619 111.762 31.7655 
611.641 112.505 31.761 
611.664 113.247 31.7565 
610.858 21.1992 33.043 
610.88 21.9382 33.0385 
611.663 22.6741 33.684 
611.685 23.4115 33.6796 
611.708 24.1489 33.6751 
611.73 24.8863 33.6706 
612.513 25.6143 34.3162 
612.535 26.3501 34.3117 
612.557 27.0859 34.3072 
612.58 27.8217 34.3027 
612.602 28.5575 34.2982 
612.625 29.2933 34.2938 
613.407 30.0101 34.9394 
613.429 30.7443 34.935 
613.451 31.4785 34.9305 
613.474 32.2127 34.926 
613.496 32.9469 34.9215 
613.518 33.6811 34.9171 
613.541 34.4153 34.9126 
613.563 35.1496 34.9081 
613.585 35.8838 34.9036 
613.608 36.618 34.8992 
613.63 37.3522 34.8947 
613.652 38.0864 34.8902 
613.674 38.8206 34.8857 
613.697 39.5548 34.8813 
613.719 40.2891 34.8768 
613.742 41.0233 34.8723 
613.005 41.802 34.2175 
613.027 42.5378 34.2131 
613.049 43.2736 34.2086 
613.072 44.0094 34.2041 
613.094 44.7452 34.1996 
613.117 45.481 34.1951 
613.139 46.2168 34.1906 
613.161 46.9526 34.1861 
613.184 47.6884 34.1817 
613.206 48.4243 34.1772 
613.228 49.1601 34.1727 
613.251 49.8959 34.1682 
613.273 50.6317 34.1637 
613.295 51.3675 34.1593 
613.318 52.1033 34.1548 
613.34 52.8391 34.1503 
613.363 53.5749 34.1458 
613.385 54.3107 34.1413 
613.407 55.0465 34.1368 
613.43 55.7823 34.1323 
613.452 56.5181 34.1279 
613.474 57.2539 34.1234 
613.497 57.9897 34.1189 
613.519 58.7255 34.1144 
613.542 59.4613 34.1099 
613.564 60.1972 34.1054 
613.586 60.933 34.101 
613.609 61.6688 34.0965 
613.631 62.4046 34.092 
613.653 63.1404 34.0875 
613.676 63.8762 34.083 
613.698 64.612 34.0785 
613.72 65.3478 34.0741 
613.743 66.0836 34.0696 
613.765 66.8194 34.0651 
613.788 67.5552 34.0606 
613.053 68.3929 33.4054 
613.075 69.1303 33.401 
613.097 69.8677 33.3965 
613.12 70.6051 33.392 
613.142 71.3425 33.3875 
613.165 72.0799 33.383 
613.187 72.8173 33.3785 
613.209 73.5547 33.374 
613.232 74.2921 33.3695 
613.254 75.0295 33.365 
613.277 75.7669 33.3605 
613.299 76.5043 33.356 
613.321 77.2417 33.3515 
613.344 77.9791 33.347 
613.366 78.7165 33.3425 
613.389 79.4539 33.338 
613.411 80.1913 33.3336 
613.434 80.9286 33.3291 
612.7 81.7966 32.6737 
612.722 82.5356 32.6692 
612.744 83.2745 32.6647 
612.767 84.0135 32.6602 
612.789 84.7525 32.6557 
612.812 85.4915 32.6512 
612.834 86.2305 32.6467 
612.857 86.9695 32.6422 
612.123 87.8517 31.9868 
612.146 88.5923 31.9823 
612.168 89.3329 31.9778 
612.191 90.0735 31.9732 
612.213 90.8141 31.9687 
611.48 91.7059 31.3133 
611.502 92.4481 31.3087 
611.525 93.1902 31.3042 
611.548 93.9324 31.2997 
611.57 94.6746 31.2952 
611.593 95.4168 31.2907 
611.615 96.1589 31.2861 
611.638 96.9011 31.2816 
611.66 97.6433 31.2771 
611.683 98.3855 31.2726 
611.705 99.1277 31.268 
611.728 99.8698 31.2635 
611.751 100.612 31.259 
611.773 101.354 31.2545 
611.796 102.096 31.25 
611.818 102.839 31.2454 
611.841 103.581 31.2409 
611.863 104.323 31.2364 
611.886 105.065 31.2319 
611.908 105.807 31.2273 
611.931 106.549 31.2228 
611.954 107.292 31.2183 
611.221 108.22 30.5626 
611.244 108.964 30.5581 
611.267 109.708 30.5535 
611.289 110.451 30.549 
611.312 111.195 30.5445 
611.334 111.939 30.5399 
611.357 112.683 30.5354 
611.38 113.426 30.5309 
610.566 21.1814 31.8198 
611.348 21.9205 32.4666 
611.371 22.6595 32.4621 
611.393 23.3985 32.4576 
612.175 24.1313 33.1044 
612.197 24.8686 33.0999 
612.22 25.606 33.0954 
612.242 26.3434 33.0909 
613.024 27.0682 33.7378 
613.046 27.804 33.7333 
613.068 28.5398 33.7288 
613.091 29.2756 33.7243 
613.113 30.0115 33.7198 
613.135 30.7473 33.7154 
613.158 31.4831 33.7109 
613.18 32.2189 33.7064 
613.203 32.9547 33.7019 
613.225 33.6905 33.6974 
613.247 34.4263 33.6929 
613.27 35.1621 33.6885 
613.292 35.8979 33.684 
613.314 36.6337 33.6795 
613.337 37.3695 33.675 
613.359 38.1053 33.6705 
613.382 38.8411 33.666 
613.404 39.5769 33.6616 
613.426 40.3127 33.6571 
613.449 41.0485 33.6526 
613.471 41.7844 33.6481 
613.493 42.5202 33.6436 
613.516 43.256 33.6391 
613.538 43.9918 33.6347 
613.56 44.7276 33.6302 
613.583 45.4634 33.6257 
613.605 46.1992 33.6212 
613.628 46.935 33.6167 
612.892 47.728 32.9606 
612.915 48.4654 32.9561 
612.937 49.2028 32.9516 
612.959 49.9402 32.9471 
612.982 50.6776 32.9426 
613.004 51.415 32.9381 
613.027 52.1524 32.9336 
613.049 52.8898 32.9291 
613.071 53.6272 32.9247 
613.094 54.3646 32.9202 
613.116 55.102 32.9157 
613.139 55.8394 32.9112 
613.161 56.5768 32.9067 
613.184 57.3142 32.9022 
613.206 58.0516 32.8977 
613.228 58.789 32.8932 
613.251 59.5264 32.8887 
613.273 60.2638 32.8842 
613.296 61.0012 32.8797 
613.318 61.7386 32.8752 
613.34 62.476 32.8707 
613.363 63.2134 32.8662 
613.385 63.9508 32.8617 
613.408 64.6882 32.8573 
613.43 65.4256 32.8528 
613.453 66.163 32.8483 
613.475 66.9004 32.8438 
613.497 67.6378 32.8393 
613.52 68.3752 32.8348 
613.542 69.1126 32.8303 
613.565 69.85 32.8258 
612.831 70.694 32.1694 
612.853 71.433 32.1649 
612.876 72.172 32.1604 
612.898 72.9109 32.1559 
612.921 73.6499 32.1514 
612.943 74.3889 32.1469 
612.966 75.1279 32.1424 
612.988 75.8669 32.1379 
613.01 76.6059 32.1334 
613.033 77.3449 32.1289 
613.055 78.0839 32.1244 
613.078 78.8229 32.1199 
613.1 79.5619 32.1154 
613.123 80.3009 32.1108 
613.145 81.0399 32.1063 
613.168 81.7788 32.1018 
613.19 82.5178 32.0973 
613.213 83.2568 32.0928 
613.235 83.9958 32.0883 
612.502 84.8717 31.4317 
612.525 85.6122 31.4272 
612.547 86.3528 31.4227 
612.57 87.0934 31.4182 
612.592 87.834 31.4137 
612.615 88.5746 31.4091 
611.882 89.4616 30.7525 
611.905 90.2037 30.748 
611.927 90.9459 30.7434 
611.95 91.6881 30.7389 
611.973 92.4303 30.7344 
611.995 93.1724 30.7299 
612.018 93.9146 30.7253 
612.04 94.6568 30.7208 
612.063 95.399 30.7163 
612.085 96.1412 30.7118 
611.354 97.0457 30.055 
611.376 97.7894 30.0505 
611.399 98.5332 30.0459 
611.421 99.277 30.0414 
611.444 100.021 30.0369 
611.467 100.764 30.0323 
611.489 101.508 30.0278 
611.512 102.252 30.0233 
611.534 102.996 30.0187 
611.557 103.74 30.0142 
611.58 104.483 30.0097 
611.602 105.227 30.0051 
611.625 105.971 30.0006 
611.647 106.715 29.9961 
611.67 107.458 29.9915 
611.693 108.202 29.987 
610.961 109.134 29.33 
610.984 109.879 29.3255 
611.007 110.625 29.321 
611.029 111.37 29.3164 
611.052 112.115 29.3119 
611.075 112.861 29.3073 
611.097 113.606 29.3028 
611.12 114.351 29.2983 
611.036 21.1637 31.2467 
611.817 21.9028 31.8947 
611.839 22.6418 31.8902 
611.862 23.3808 31.8857 
611.884 24.1198 31.8812 
612.665 24.851 32.5292 
612.687 25.5884 32.5247 
612.709 26.3258 32.5202 
612.732 27.0632 32.5158 
612.754 27.8006 32.5113 
612.777 28.538 32.5068 
612.799 29.2754 32.5023 
612.822 30.0128 32.4978 
612.844 30.7502 32.4933 
612.866 31.4876 32.4888 
613.646 32.2012 33.137 
613.669 32.937 33.1325 
613.691 33.6728 33.128 
613.714 34.4086 33.1235 
613.736 35.1445 33.119 
613.758 35.8803 33.1145 
613.781 36.6161 33.1101 
613.803 37.3519 33.1056 
613.825 38.0877 33.1011 
613.848 38.8235 33.0966 
613.87 39.5593 33.0921 
613.892 40.2951 33.0876 
613.158 41.0737 32.4304 
613.18 41.8111 32.4259 
613.203 42.5485 32.4214 
613.225 43.2859 32.4169 
613.247 44.0233 32.4124 
613.27 44.7607 32.4079 
613.292 45.4981 32.4034 
613.315 46.2355 32.3989 
613.337 46.9729 32.3944 
613.359 47.7103 32.3899 
613.382 48.4477 32.3854 
613.404 49.1851 32.381 
613.427 49.9225 32.3765 
613.449 50.6599 32.372 
613.471 51.3973 32.3675 
613.494 52.1347 32.363 
613.516 52.8721 32.3585 
613.539 53.6095 32.354 
612.805 54.4184 31.6966 
612.827 55.1574 31.6921 
612.85 55.8964 31.6876 
612.872 56.6354 31.6831 
612.895 57.3744 31.6786 
612.917 58.1134 31.674 
612.94 58.8524 31.6695 
612.962 59.5914 31.665 
612.985 60.3304 31.6605 
613.007 61.0694 31.656 
613.03 61.8083 31.6515 
613.052 62.5473 31.647 
613.074 63.2863 31.6425 
613.097 64.0253 31.638 
613.119 64.7643 31.6335 
613.142 65.5033 31.629 
613.164 66.2423 31.6245 
613.187 66.9813 31.62 
613.209 67.7203 31.6155 
613.232 68.4593 31.611 
613.254 69.1983 31.6065 
613.277 69.9373 31.602 
613.299 70.6763 31.5975 
613.322 71.4152 31.593 
613.344 72.1542 31.5885 
613.366 72.8932 31.584 
613.389 73.6322 31.5795 
613.411 74.3712 31.575 
613.434 75.1102 31.5705 
613.456 75.8492 31.566 
612.724 76.7075 30.9082 
612.746 77.4481 30.9037 
612.769 78.1886 30.8992 
612.792 78.9292 30.8947 
612.814 79.6698 30.8902 
612.837 80.4104 30.8857 
612.859 81.151 30.8811 
612.882 81.8916 30.8766 
612.904 82.6321 30.8721 
612.927 83.3727 30.8676 
612.949 84.1133 30.8631 
612.972 84.8539 30.8586 
612.994 85.5945 30.8541 
613.017 86.3351 30.8496 
612.285 87.2172 30.1917 
612.308 87.9594 30.1872 
612.33 88.7016 30.1826 
612.353 89.4438 30.1781 
612.375 90.186 30.1736 
612.398 90.9281 30.1691 
611.667 91.8214 29.5111 
611.689 92.5652 29.5066 
611.712 93.309 29.5021 
611.734 94.0527 29.4975 
611.757 94.7965 29.493 
611.78 95.5403 29.4885 
611.802 96.2841 29.4839 
611.825 97.0278 29.4794 
611.847 97.7716 29.4749 
611.87 98.5154 29.4703 
611.893 99.2591 29.4658 
611.915 100.003 29.4613 
611.938 100.747 29.4567 
611.207 101.662 28.7986 
611.23 102.408 28.7941 
611.253 103.153 28.7896 
611.275 103.898 28.785 
611.298 104.644 28.7805 
611.32 105.389 28.7759 
611.343 106.134 28.7714 
611.366 106.88 28.7668 
611.388 107.625 28.7623 
611.411 108.371 28.7578 
610.681 109.304 28.0996 
610.704 110.051 28.095 
610.727 110.798 28.0905 
610.749 111.545 28.0859 
610.772 112.292 28.0814 
610.795 113.038 28.0768 
610.817 113.785 28.0723 
610.84 114.532 28.0677 
612.285 21.8851 31.3228 
612.307 22.6241 31.3183 
612.33 23.3631 31.3138 
612.352 24.1021 31.3093 
612.375 24.8411 31.3048 
613.154 25.5707 31.9541 
613.177 26.3081 31.9496 
613.199 27.0455 31.9451 
613.221 27.7829 31.9406 
613.244 28.5203 31.9361 
613.266 29.2577 31.9316 
613.289 29.9951 31.9271 
613.311 30.7325 31.9226 
613.334 31.4699 31.9181 
613.356 32.2073 31.9136 
613.378 32.9447 31.9091 
613.401 33.6821 31.9046 
613.423 34.4195 31.9002 
613.446 35.1569 31.8957 
613.468 35.8943 31.8912 
613.49 36.6317 31.8867 
613.513 37.3691 31.8822 
613.535 38.1065 31.8777 
613.558 38.8439 31.8732 
613.58 39.5813 31.8687 
613.603 40.3187 31.8642 
613.625 41.0561 31.8597 
613.647 41.7935 31.8552 
613.67 42.5309 31.8507 
613.692 43.2683 31.8462 
613.715 44.0057 31.8417 
613.737 44.7431 31.8372 
613.759 45.4805 31.8328 
613.782 46.2179 31.8283 
613.804 46.9553 31.8238 
613.827 47.6927 31.8193 
613.093 48.4888 31.1607 
613.116 49.2278 31.1562 
613.138 49.9668 31.1517 
613.161 50.7058 31.1472 
613.183 51.4448 31.1427 
613.206 52.1837 31.1382 
613.228 52.9227 31.1337 
613.251 53.6617 31.1292 
613.273 54.4007 31.1247 
613.296 55.1397 31.1202 
613.318 55.8787 31.1157 
613.341 56.6177 31.1112 
613.363 57.3567 31.1067 
613.385 58.0957 31.1021 
613.408 58.8347 31.0976 
612.675 59.6563 30.4389 
612.698 60.3969 30.4344 
612.72 61.1374 30.4299 
612.743 61.878 30.4254 
612.766 62.6186 30.4208 
612.788 63.3592 30.4163 
612.811 64.0998 30.4118 
612.833 64.8404 30.4073 
612.856 65.581 30.4028 
612.878 66.3215 30.3983 
612.901 67.0621 30.3938 
612.923 67.8027 30.3892 
612.946 68.5433 30.3847 
612.968 69.2839 30.3802 
612.991 70.0245 30.3757 
613.013 70.765 30.3712 
613.036 71.5056 30.3667 
613.058 72.2462 30.3622 
613.081 72.9868 30.3577 
613.103 73.7274 30.3531 
613.126 74.468 30.3486 
613.148 75.2085 30.3441 
613.171 75.9491 30.3396 
613.193 76.6897 30.3351 
613.216 77.4303 30.3306 
613.238 78.1709 30.3261 
613.261 78.9115 30.3216 
613.283 79.6521 30.317 
613.306 80.3926 30.3125 
613.328 81.1332 30.308 
613.351 81.8738 30.3035 
613.373 82.6144 30.299 
612.642 83.4886 29.6399 
612.665 84.2307 29.6354 
612.688 84.9729 29.6309 
612.71 85.7151 29.6264 
612.733 86.4573 29.6218 
612.755 87.1994 29.6173 
612.778 87.9416 29.6128 
612.047 88.8285 28.9537 
612.07 89.5723 28.9491 
612.093 90.3161 28.9446 
612.115 91.0598 28.9401 
612.138 91.8036 28.9355 
612.16 92.5474 28.931 
612.183 93.2911 28.9265 
611.453 94.1908 28.2672 
611.476 94.9362 28.2627 
611.498 95.6815 28.2581 
611.521 96.4269 28.2536 
611.544 97.1723 28.2491 
611.566 97.9176 28.2445 
611.589 98.663 28.24 
611.612 99.4083 28.2354 
611.634 100.154 28.2309 
611.657 100.899 28.2264 
611.68 101.644 28.2218 
611.702 102.39 28.2173 
611.725 103.135 28.2127 
611.747 103.881 28.2082 
611.018 104.804 27.5488 
611.041 105.551 27.5443 
611.064 106.298 27.5397 
611.086 107.045 27.5352 
611.109 107.792 27.5306 
611.132 108.539 27.5261 
611.154 109.286 27.5215 
611.177 110.033 27.517 
611.2 110.78 27.5124 
611.223 111.527 27.5079 
610.494 112.468 26.8484 
610.516 113.216 26.8438 
610.539 113.965 26.8393 
610.562 114.713 26.8347 
612.776 22.6064 30.7464 
612.798 23.3454 30.7419 
612.82 24.0843 30.7374 
612.843 24.8233 30.7329 
612.865 25.5623 30.7284 
612.888 26.3013 30.7239 
612.91 27.0403 30.7194 
612.933 27.7793 30.7149 
612.955 28.5183 30.7104 
612.978 29.2573 30.7059 
613 29.9963 30.7014 
613.023 30.7353 30.6969 
613.045 31.4743 30.6924 
613.068 32.2133 30.6879 
613.09 32.9522 30.6834 
613.112 33.6912 30.6789 
613.135 34.4302 30.6744 
613.157 35.1692 30.6698 
613.18 35.9082 30.6653 
613.202 36.6472 30.6608 
613.225 37.3862 30.6563 
613.247 38.1252 30.6518 
613.27 38.8642 30.6473 
613.292 39.6032 30.6428 
613.315 40.3422 30.6383 
613.337 41.0812 30.6338 
613.36 41.8201 30.6293 
613.382 42.5591 30.6248 
613.404 43.2981 30.6203 
613.427 44.0371 30.6158 
613.449 44.7761 30.6113 
613.472 45.5151 30.6068 
613.494 46.2541 30.6023 
613.517 46.9931 30.5978 
613.539 47.7321 30.5933 
613.562 48.4711 30.5888 
613.584 49.2101 30.5843 
613.607 49.9491 30.5798 
613.629 50.688 30.5753 
613.652 51.427 30.5708 
613.674 52.166 30.5663 
613.696 52.905 30.5618 
613.719 53.644 30.5573 
612.987 54.4544 29.8973 
613.01 55.195 29.8928 
613.032 55.9356 29.8883 
613.055 56.6762 29.8838 
613.077 57.4168 29.8793 
613.1 58.1574 29.8748 
613.122 58.8979 29.8703 
613.145 59.6385 29.8658 
613.167 60.3791 29.8612 
613.19 61.1197 29.8567 
613.212 61.8603 29.8522 
613.235 62.6009 29.8477 
613.257 63.3414 29.8432 
613.28 64.082 29.8387 
613.302 64.8226 29.8342 
613.325 65.5632 29.8297 
613.347 66.3038 29.8251 
613.37 67.0444 29.8206 
613.392 67.785 29.8161 
613.415 68.5255 29.8116 
612.684 69.3694 29.1515 
612.707 70.1116 29.147 
612.729 70.8538 29.1425 
612.752 71.5959 29.1379 
612.774 72.3381 29.1334 
612.797 73.0803 29.1289 
612.82 73.8225 29.1244 
612.842 74.5646 29.1198 
612.865 75.3068 29.1153 
612.887 76.049 29.1108 
612.91 76.7912 29.1063 
612.932 77.5333 29.1017 
612.955 78.2755 29.0972 
612.977 79.0177 29.0927 
613 79.7599 29.0882 
613.023 80.5021 29.0837 
613.045 81.2442 29.0791 
613.068 81.9864 29.0746 
613.09 82.7286 29.0701 
613.113 83.4708 29.0656 
613.135 84.2129 29.061 
613.158 84.9551 29.0565 
613.18 85.6973 29.052 
612.451 86.5794 28.3917 
612.473 87.3232 28.3871 
612.496 88.0669 28.3826 
612.519 88.8107 28.3781 
612.541 89.5545 28.3735 
611.812 90.4461 27.7131 
611.835 91.1915 27.7086 
611.857 91.9368 27.704 
611.88 92.6822 27.6995 
611.903 93.4276 27.6949 
611.925 94.1729 27.6904 
611.948 94.9183 27.6859 
611.971 95.6636 27.6813 
611.993 96.409 27.6768 
612.016 97.1544 27.6722 
611.287 98.0635 27.0117 
611.31 98.8105 27.0072 
611.333 99.5574 27.0026 
611.355 100.304 26.9981 
611.378 101.051 26.9935 
611.401 101.798 26.989 
611.423 102.545 26.9844 
611.446 103.292 26.9799 
611.469 104.039 26.9753 
611.491 104.786 26.9708 
611.514 105.533 26.9662 
611.537 106.28 26.9617 
611.56 107.027 26.9571 
611.582 107.774 26.9526 
611.605 108.521 26.948 
610.877 109.456 26.2873 
610.9 110.204 26.2828 
610.922 110.953 26.2782 
610.945 111.701 26.2736 
610.968 112.45 26.2691 
610.991 113.198 26.2645 
611.013 113.947 26.26 
613.266 23.3276 30.17 
613.289 24.0666 30.1655 
613.311 24.8056 30.161 
613.334 25.5446 30.1565 
613.356 26.2836 30.152 
613.379 27.0226 30.1475 
613.401 27.7616 30.143 
613.423 28.5006 30.1385 
613.446 29.2396 30.134 
612.714 29.9974 29.4731 
613.491 30.7176 30.125 
612.759 31.4786 29.4641 
612.781 32.2192 29.4596 
612.804 32.9597 29.4551 
613.581 33.6735 30.107 
613.603 34.4125 30.1025 
613.626 35.1515 30.098 
613.648 35.8905 30.0935 
613.671 36.6295 30.0889 
613.693 37.3685 30.0844 
613.715 38.1075 30.0799 
613.738 38.8465 30.0754 
613.76 39.5855 30.0709 
613.783 40.3244 30.0664 
613.805 41.0634 30.0619 
613.828 41.8024 30.0574 
613.85 42.5414 30.0529 
613.873 43.2804 30.0484 
613.895 44.0194 30.0439 
613.918 44.7584 30.0394 
613.94 45.4974 30.0349 
613.963 46.2364 30.0304 
613.985 46.9754 30.0259 
614.007 47.7144 30.0214 
614.03 48.4534 30.0169 
614.052 49.1923 30.0124 
614.075 49.9313 30.0079 
613.344 50.7338 29.3468 
613.366 51.4743 29.3423 
613.389 52.2149 29.3378 
613.411 52.9555 29.3332 
613.434 53.6961 29.3287 
613.456 54.4367 29.3242 
613.479 55.1773 29.3197 
613.501 55.9178 29.3152 
613.524 56.6584 29.3107 
613.546 57.399 29.3062 
613.569 58.1396 29.3017 
612.839 58.9611 28.6405 
612.861 59.7033 28.6359 
612.884 60.4455 28.6314 
612.906 61.1877 28.6269 
612.929 61.9298 28.6224 
612.951 62.672 28.6178 
612.974 63.4142 28.6133 
612.996 64.1564 28.6088 
613.019 64.8986 28.6043 
613.042 65.6407 28.5997 
613.064 66.3829 28.5952 
613.087 67.1251 28.5907 
613.109 67.8673 28.5862 
613.132 68.6094 28.5817 
613.154 69.3516 28.5771 
613.177 70.0938 28.5726 
613.2 70.836 28.5681 
613.222 71.5781 28.5636 
613.245 72.3203 28.559 
613.267 73.0625 28.5545 
613.29 73.8047 28.55 
613.312 74.5469 28.5455 
613.335 75.289 28.541 
613.357 76.0312 28.5364 
613.38 76.7734 28.5319 
613.403 77.5156 28.5274 
613.425 78.2577 28.5229 
613.448 78.9999 28.5183 
613.47 79.7421 28.5138 
613.493 80.4843 28.5093 
613.515 81.2264 28.5048 
613.538 81.9686 28.5002 
612.809 82.8427 27.8387 
612.832 83.5865 27.8342 
612.854 84.3302 27.8297 
612.877 85.074 27.8251 
612.899 85.8178 27.8206 
612.922 86.5616 27.8161 
612.945 87.3053 27.8115 
612.216 88.1922 27.1499 
612.239 88.9375 27.1454 
612.262 89.6829 27.1408 
612.284 90.4282 27.1363 
612.307 91.1736 27.1317 
612.33 91.919 27.1272 
611.602 92.8169 26.4655 
611.624 93.5639 26.461 
611.647 94.3109 26.4564 
611.67 95.0578 26.4519 
611.692 95.8048 26.4473 
611.715 96.5517 26.4428 
611.738 97.2987 26.4382 
611.76 98.0456 26.4337 
611.783 98.7926 26.4291 
611.806 99.5395 26.4246 
611.828 100.286 26.42 
611.851 101.033 26.4155 
611.874 101.78 26.4109 
611.897 102.527 26.4064 
611.919 103.274 26.4018 
611.942 104.021 26.3973 
611.965 104.768 26.3927 
611.987 105.515 26.3882 
611.26 106.443 25.7263 
611.283 107.192 25.7217 
611.306 107.941 25.7172 
611.329 108.689 25.7126 
611.351 109.438 25.708 
611.374 110.186 25.7035 
611.397 110.935 25.6989 
610.67 111.876 25.037 
610.693 112.626 25.0324 
610.716 113.376 25.0278 
613.003 24.055 28.9361 
613.025 24.7956 28.9316 
613.048 25.5361 28.9271 
613.07 26.2767 28.9226 
613.093 27.0173 28.9181 
613.115 27.7579 28.9136 
613.138 28.4985 28.909 
613.16 29.2391 28.9045 
613.183 29.9796 28.9 
613.205 30.7202 28.8955 
613.228 31.4608 28.891 
613.25 32.2014 28.8865 
613.273 32.942 28.882 
613.295 33.6826 28.8775 
613.318 34.4231 28.8729 
613.34 35.1637 28.8684 
613.363 35.9043 28.8639 
613.385 36.6449 28.8594 
613.408 37.3855 28.8549 
613.43 38.1261 28.8504 
613.453 38.8667 28.8459 
613.475 39.6072 28.8413 
613.498 40.3478 28.8368 
613.521 41.0884 28.8323 
613.543 41.829 28.8278 
613.565 42.5696 28.8233 
613.588 43.3102 28.8188 
613.611 44.0507 28.8143 
613.633 44.7913 28.8098 
613.656 45.5319 28.8052 
613.678 46.2725 28.8007 
613.701 47.0131 28.7962 
613.723 47.7537 28.7917 
613.746 48.4943 28.7872 
613.768 49.2348 28.7827 
613.791 49.9754 28.7782 
613.813 50.716 28.7737 
613.836 51.4566 28.7691 
613.858 52.1972 28.7646 
613.881 52.9378 28.7601 
613.903 53.6783 28.7556 
613.173 54.4903 28.0932 
613.196 55.2325 28.0887 
613.219 55.9746 28.0842 
613.241 56.7168 28.0797 
613.264 57.459 28.0751 
613.286 58.2012 28.0706 
613.309 58.9433 28.0661 
613.331 59.6855 28.0616 
613.354 60.4277 28.057 
613.377 61.1699 28.0525 
613.399 61.912 28.048 
613.422 62.6542 28.0435 
613.444 63.3964 28.039 
613.467 64.1386 28.0344 
613.489 64.8808 28.0299 
613.512 65.6229 28.0254 
613.534 66.3651 28.0209 
613.557 67.1073 28.0163 
613.58 67.8495 28.0118 
613.602 68.5916 28.0073 
612.873 69.437 27.3447 
612.896 70.1808 27.3402 
612.919 70.9246 27.3356 
612.941 71.6683 27.3311 
612.964 72.4121 27.3266 
612.986 73.1559 27.3221 
613.009 73.8996 27.3175 
613.032 74.6434 27.313 
613.054 75.3872 27.3085 
613.077 76.131 27.3039 
613.099 76.8747 27.2994 
613.122 77.6185 27.2949 
613.145 78.3623 27.2903 
613.167 79.106 27.2858 
613.19 79.8498 27.2813 
613.213 80.5936 27.2767 
613.235 81.3373 27.2722 
613.258 82.0811 27.2677 
613.28 82.8249 27.2631 
613.303 83.5686 27.2586 
613.326 84.3124 27.2541 
612.598 85.1928 26.5913 
612.621 85.9382 26.5867 
612.643 86.6836 26.5822 
612.666 87.4289 26.5776 
612.689 88.1743 26.5731 
612.711 88.9196 26.5685 
611.984 89.8112 25.9057 
612.007 90.5582 25.9011 
612.029 91.3051 25.8966 
612.052 92.0521 25.892 
612.075 92.799 25.8875 
612.097 93.546 25.8829 
612.12 94.293 25.8784 
612.143 95.0399 25.8738 
612.166 95.7869 25.8693 
612.188 96.5338 25.8647 
612.211 97.2808 25.8602 
611.484 98.1915 25.1972 
612.256 98.7747 25.8511 
611.53 99.6886 25.188 
611.553 100.437 25.1835 
611.575 101.186 25.1789 
611.598 101.934 25.1744 
611.621 102.683 25.1698 
611.644 103.431 25.1652 
611.666 104.18 25.1607 
611.689 104.928 25.1561 
611.712 105.677 25.1516 
611.735 106.425 25.147 
611.757 107.174 25.1424 
611.78 107.923 25.1379 
611.803 108.671 25.1333 
611.826 109.42 25.1287 
611.1 110.357 24.4656 
611.122 111.108 24.461 
611.145 111.858 24.4565 
611.168 112.608 24.4519 
611.191 113.358 24.4473 
613.495 24.7778 28.3585 
613.517 25.5184 28.354 
613.539 26.259 28.3494 
613.562 26.9995 28.3449 
613.585 27.7401 28.3404 
613.607 28.4807 28.3359 
613.63 29.2213 28.3314 
613.652 29.9619 28.3269 
612.922 30.7228 27.6636 
612.944 31.465 27.6591 
612.967 32.2072 27.6545 
612.99 32.9494 27.65 
613.012 33.6915 27.6455 
613.035 34.4337 27.641 
613.057 35.1759 27.6364 
613.08 35.9181 27.6319 
613.102 36.6602 27.6274 
613.125 37.4024 27.6229 
613.147 38.1446 27.6184 
613.922 38.8489 28.2727 
613.945 39.5895 28.2682 
613.967 40.3301 28.2637 
613.99 41.0707 28.2592 
614.012 41.8112 28.2547 
614.035 42.5518 28.2502 
614.057 43.2924 28.2457 
614.08 44.033 28.2411 
614.102 44.7736 28.2366 
614.125 45.5142 28.2321 
614.147 46.2547 28.2276 
614.17 46.9953 28.2231 
614.192 47.7359 28.2186 
614.215 48.4765 28.2141 
614.237 49.2171 28.2095 
613.508 50.0194 27.546 
613.531 50.7616 27.5415 
613.554 51.5038 27.537 
613.576 52.246 27.5324 
613.599 52.9881 27.5279 
613.621 53.7303 27.5234 
613.644 54.4725 27.5189 
613.666 55.2147 27.5143 
613.689 55.9568 27.5098 
613.711 56.699 27.5053 
613.734 57.4412 27.5008 
613.757 58.1834 27.4962 
613.779 58.9255 27.4917 
613.802 59.6677 27.4872 
613.073 60.494 26.8235 
613.096 61.2377 26.819 
613.119 61.9815 26.8144 
613.141 62.7253 26.8099 
613.164 63.469 26.8054 
613.186 64.2128 26.8008 
613.209 64.9566 26.7963 
613.232 65.7003 26.7918 
613.254 66.4441 26.7872 
613.277 67.1879 26.7827 
613.299 67.9317 26.7782 
613.322 68.6754 26.7737 
613.345 69.4192 26.7691 
613.367 70.163 26.7646 
613.39 70.9067 26.7601 
613.412 71.6505 26.7555 
613.435 72.3943 26.751 
613.458 73.138 26.7465 
613.48 73.8818 26.7419 
613.503 74.6256 26.7374 
613.526 75.3694 26.7329 
613.548 76.1131 26.7283 
613.571 76.8569 26.7238 
612.844 77.7214 26.0598 
612.866 78.4667 26.0553 
612.889 79.2121 26.0508 
612.912 79.9574 26.0462 
612.934 80.7028 26.0417 
612.957 81.4482 26.0371 
612.98 82.1935 26.0326 
613.002 82.9389 26.0281 
613.025 83.6842 26.0235 
613.048 84.4296 26.019 
613.07 85.175 26.0144 
613.093 85.9203 26.0099 
612.366 86.8055 25.3458 
612.389 87.5525 25.3413 
612.412 88.2994 25.3367 
612.435 89.0464 25.3322 
612.457 89.7933 25.3276 
612.48 90.5403 25.3231 
612.503 91.2872 25.3185 
611.777 92.1851 24.6544 
611.799 92.9337 24.6498 
611.822 93.6822 24.6452 
611.845 94.4308 24.6407 
611.868 95.1793 24.6361 
611.89 95.9279 24.6316 
611.913 96.6764 24.627 
611.936 97.425 24.6224 
611.959 98.1735 24.6179 
611.981 98.9221 24.6133 
612.004 99.6706 24.6088 
612.027 100.419 24.6042 
612.05 101.168 24.5996 
612.072 101.916 24.5951 
612.095 102.665 24.5905 
612.118 103.413 24.5859 
612.141 104.162 24.5814 
612.163 104.91 24.5768 
612.186 105.659 24.5723 
612.209 106.408 24.5677 
612.232 107.156 24.5631 
611.507 108.089 23.8988 
611.529 108.839 23.8942 
611.552 109.589 23.8896 
611.575 110.339 23.8851 
610.85 111.28 23.2207 
610.873 112.032 23.2161 
613.964 24.76 27.7853 
613.986 25.5006 27.7808 
614.009 26.2412 27.7763 
614.031 26.9818 27.7718 
613.302 27.7363 27.1073 
613.324 28.4785 27.1028 
613.347 29.2207 27.0983 
613.37 29.9629 27.0937 
613.392 30.705 27.0892 
613.415 31.4472 27.0847 
613.437 32.1894 27.0802 
613.46 32.9316 27.0757 
613.482 33.6737 27.0711 
613.505 34.4159 27.0666 
613.527 35.1581 27.0621 
613.55 35.9003 27.0576 
613.573 36.6424 27.053 
613.595 37.3846 27.0485 
613.618 38.1268 27.044 
613.64 38.869 27.0395 
613.663 39.6112 27.035 
613.685 40.3533 27.0304 
613.708 41.0955 27.0259 
613.73 41.8377 27.0214 
613.753 42.5799 27.0169 
613.776 43.322 27.0123 
613.798 44.0642 27.0078 
613.821 44.8064 27.0033 
613.843 45.5486 26.9988 
613.866 46.2907 26.9942 
613.888 47.0329 26.9897 
613.911 47.7751 26.9852 
613.934 48.5173 26.9807 
613.956 49.2594 26.9762 
613.979 50.0016 26.9716 
614.001 50.7438 26.9671 
614.024 51.486 26.9626 
614.046 52.2282 26.9581 
614.069 52.9703 26.9535 
614.091 53.7125 26.949 
614.114 54.4547 26.9445 
613.386 55.2697 26.2796 
613.409 56.0135 26.2751 
613.432 56.7573 26.2706 
613.454 57.501 26.266 
613.477 58.2448 26.2615 
613.499 58.9886 26.257 
613.522 59.7324 26.2524 
613.545 60.4761 26.2479 
613.567 61.2199 26.2434 
613.59 61.9637 26.2388 
613.612 62.7074 26.2343 
613.635 63.4512 26.2298 
613.658 64.195 26.2253 
613.68 64.9387 26.2207 
613.703 65.6825 26.2162 
612.976 66.523 25.5511 
612.999 67.2684 25.5466 
613.021 68.0138 25.5421 
613.044 68.7591 25.5375 
613.067 69.5045 25.533 
613.089 70.2499 25.5284 
613.112 70.9952 25.5239 
613.135 71.7406 25.5194 
613.157 72.4859 25.5148 
613.18 73.2313 25.5103 
613.203 73.9767 25.5057 
613.225 74.722 25.5012 
