ply
format ascii 1.0
comment Created by CloudCompare v2.11 alpha (Anoia)
comment Created 17/05/2019 19:21
obj_info Generated by CloudCompare!
element vertex 1936
property float x
property float y
property float z
end_header
611.768 109.133 42.5475 
611.79 109.864 42.543 
611.812 110.595 42.5385 
611.834 111.326 42.5341 
611.857 112.058 42.5296 
611.879 112.789 42.5252 
611.901 113.52 42.5207 
611.923 114.251 42.5163 
611.946 114.982 42.5118 
611.968 115.713 42.5074 
611.99 116.444 42.5029 
611.246 117.384 41.8619 
611.268 118.116 41.8575 
611.291 118.849 41.853 
611.313 119.582 41.8485 
611.335 120.314 41.8441 
611.357 121.047 41.8396 
611.38 121.779 41.8352 
611.402 122.512 41.8307 
611.424 123.245 41.8262 
611.446 123.977 41.8218 
611.469 124.71 41.8173 
611.491 125.443 41.8128 
610.748 126.403 41.1717 
610.77 127.137 41.1672 
610.792 127.872 41.1628 
610.815 128.606 41.1583 
610.071 129.575 40.5172 
610.094 130.31 40.5127 
610.116 131.046 40.5082 
601.065 71.7629 33.9351 
601.088 72.5147 33.9305 
601.879 73.1562 34.5631 
602.67 73.7945 35.1957 
603.461 74.4296 35.8283 
604.252 75.0616 36.4609 
605.043 75.6903 37.0936 
605.833 76.3159 37.7262 
606.624 76.9383 38.3589 
606.646 77.6789 38.3544 
608.204 78.1735 39.6243 
608.227 78.9109 39.6199 
609.017 79.5222 40.2526 
609.039 80.258 40.2481 
609.829 80.8644 40.8809 
609.852 81.5987 40.8764 
609.874 82.3329 40.872 
609.896 83.0671 40.8675 
610.686 83.6656 41.5003 
610.708 84.3982 41.4959 
610.73 85.1308 41.4914 
610.753 85.8634 41.4869 
610.775 86.5961 41.4825 
610.797 87.3287 41.478 
610.82 88.0613 41.4735 
610.842 88.7939 41.4691 
611.631 89.3781 42.102 
611.653 90.1091 42.0975 
611.676 90.8402 42.0931 
611.698 91.5712 42.0886 
611.72 92.3022 42.0842 
611.742 93.0332 42.0797 
611.764 93.7643 42.0753 
611.787 94.4953 42.0708 
611.809 95.2263 42.0664 
611.831 95.9574 42.0619 
611.853 96.6884 42.0574 
611.876 97.4194 42.053 
611.898 98.1504 42.0485 
611.92 98.8815 42.0441 
611.942 99.6125 42.0396 
611.964 100.344 42.0352 
611.987 101.075 42.0307 
612.009 101.806 42.0263 
612.031 102.537 42.0218 
612.053 103.268 42.0174 
612.076 103.999 42.0129 
612.098 104.73 42.0084 
612.12 105.461 42.004 
612.142 106.192 41.9995 
612.164 106.923 41.9951 
612.187 107.654 41.9906 
612.209 108.385 41.9862 
611.465 109.307 41.3441 
611.488 110.04 41.3396 
611.51 110.773 41.3352 
611.532 111.505 41.3307 
611.554 112.238 41.3262 
611.577 112.97 41.3218 
611.599 113.703 41.3173 
611.621 114.436 41.3128 
611.643 115.168 41.3084 
611.666 115.901 41.3039 
611.688 116.634 41.2994 
611.71 117.366 41.295 
611.733 118.099 41.2905 
611.755 118.831 41.286 
611.777 119.564 41.2816 
611.799 120.297 41.2771 
611.822 121.029 41.2727 
611.844 121.762 41.2682 
611.866 122.494 41.2637 
611.888 123.227 41.2593 
611.146 124.183 40.6169 
611.168 124.917 40.6125 
611.191 125.651 40.608 
611.213 126.386 40.6035 
611.235 127.12 40.599 
611.258 127.854 40.5946 
610.515 128.821 39.9522 
610.538 129.557 39.9477 
610.56 130.293 39.9432 
610.582 131.029 39.9388 
609.076 132.243 38.6584 
601.519 70.9932 33.3579 
602.309 71.6379 33.9917 
602.332 72.388 33.9871 
602.355 73.1382 33.9826 
603.145 73.7765 34.6164 
603.167 74.5251 34.6118 
604.724 75.0437 35.8841 
605.514 75.6725 36.518 
605.536 76.4163 36.5134 
606.326 77.0403 37.1474 
607.115 77.6611 37.7813 
607.138 78.4017 37.7768 
607.927 79.0178 38.4107 
608.716 79.6306 39.0447 
609.505 80.2403 39.6787 
609.528 80.9761 39.6742 
609.55 81.7119 39.6697 
610.339 82.3153 40.3038 
610.361 83.0495 40.2993 
610.384 83.7837 40.2948 
610.406 84.5179 40.2903 
610.428 85.2521 40.2859 
610.451 85.9863 40.2814 
611.239 86.5785 40.9155 
611.261 87.3111 40.911 
611.284 88.0437 40.9066 
611.306 88.7764 40.9021 
611.328 89.509 40.8977 
611.351 90.2416 40.8932 
611.373 90.9742 40.8887 
611.395 91.7068 40.8843 
611.417 92.4395 40.8798 
611.44 93.1721 40.8753 
611.462 93.9047 40.8709 
611.484 94.6373 40.8664 
611.506 95.3699 40.8619 
611.529 96.1026 40.8575 
611.551 96.8352 40.853 
611.573 97.5678 40.8485 
611.596 98.3004 40.8441 
611.618 99.0331 40.8396 
611.64 99.7657 40.8352 
611.662 100.498 40.8307 
611.685 101.231 40.8262 
611.707 101.964 40.8218 
611.729 102.696 40.8173 
611.751 103.429 40.8128 
611.774 104.161 40.8084 
611.796 104.894 40.8039 
611.818 105.627 40.7994 
611.84 106.359 40.795 
611.863 107.092 40.7905 
611.885 107.825 40.786 
611.907 108.557 40.7816 
611.93 109.29 40.7771 
611.952 110.022 40.7727 
611.974 110.755 40.7682 
611.996 111.488 40.7637 
612.019 112.22 40.7593 
612.041 112.953 40.7548 
612.063 113.685 40.7503 
612.085 114.418 40.7459 
612.108 115.151 40.7414 
611.366 116.089 40.098 
611.388 116.823 40.0935 
611.41 117.558 40.089 
611.433 118.292 40.0845 
611.455 119.026 40.0801 
611.477 119.76 40.0756 
611.5 120.494 40.0711 
611.522 121.229 40.0666 
611.544 121.963 40.0622 
611.566 122.697 40.0577 
611.589 123.431 40.0532 
611.611 124.165 40.0487 
611.633 124.9 40.0443 
611.656 125.634 40.0398 
611.678 126.368 40.0353 
610.937 127.332 39.3917 
610.959 128.068 39.3873 
610.982 128.804 39.3828 
611.004 129.539 39.3783 
610.263 130.511 38.7346 
610.285 131.249 38.7302 
609.544 132.225 38.0865 
601.972 70.2234 32.7807 
602.762 70.8698 33.4158 
602.784 71.6199 33.4112 
602.807 72.3701 33.4066 
603.596 73.01 34.0416 
603.619 73.7586 34.0371 
604.408 74.3938 34.6722 
604.43 75.1408 34.6676 
605.219 75.7712 35.3027 
606.008 76.3984 35.9379 
606.796 77.0225 36.573 
606.819 77.7647 36.5685 
607.607 78.3839 37.2036 
608.395 79 37.8388 
608.418 79.739 37.8343 
609.206 80.3504 38.4695 
609.228 81.0878 38.465 
610.016 81.6943 39.1003 
610.039 82.4301 39.0958 
610.061 83.1659 39.0913 
610.083 83.9017 39.0869 
610.871 84.5003 39.7221 
610.894 85.2345 39.7177 
610.916 85.9687 39.7132 
610.938 86.7029 39.7087 
610.961 87.4372 39.7042 
610.983 88.1714 39.6998 
611.005 88.9056 39.6953 
611.027 89.6398 39.6908 
611.05 90.374 39.6864 
611.072 91.1082 39.6819 
611.094 91.8424 39.6774 
611.117 92.5767 39.6729 
611.139 93.3109 39.6685 
611.161 94.0451 39.664 
611.184 94.7793 39.6595 
611.971 95.3524 40.295 
611.993 96.085 40.2905 
612.015 96.8176 40.286 
612.037 97.5503 40.2816 
612.06 98.2829 40.2771 
612.082 99.0155 40.2726 
612.104 99.7481 40.2682 
612.127 100.481 40.2637 
612.149 101.213 40.2593 
612.171 101.946 40.2548 
612.193 102.679 40.2503 
612.216 103.411 40.2459 
612.238 104.144 40.2414 
612.26 104.876 40.2369 
612.282 105.609 40.2325 
611.541 106.527 39.5879 
611.563 107.261 39.5834 
611.585 107.995 39.579 
611.608 108.729 39.5745 
611.63 109.464 39.57 
611.652 110.198 39.5656 
611.675 110.932 39.5611 
611.697 111.666 39.5566 
611.719 112.4 39.5521 
611.742 113.135 39.5477 
611.764 113.869 39.5432 
611.786 114.603 39.5387 
611.809 115.337 39.5342 
611.831 116.071 39.5298 
611.853 116.806 39.5253 
611.875 117.54 39.5208 
611.898 118.274 39.5163 
611.92 119.008 39.5119 
611.942 119.743 39.5074 
611.965 120.477 39.5029 
611.987 121.211 39.4984 
612.009 121.945 39.494 
612.032 122.679 39.4895 
611.291 123.635 38.8447 
611.314 124.371 38.8402 
611.336 125.107 38.8358 
611.358 125.843 38.8313 
611.381 126.578 38.8268 
611.403 127.314 38.8223 
611.425 128.05 38.8178 
611.448 128.786 38.8133 
610.708 129.756 38.1685 
610.73 130.493 38.164 
609.99 131.468 37.5191 
609.25 132.447 36.8742 
608.511 133.428 36.2293 
603.237 70.8518 32.8352 
604.025 71.495 33.4715 
604.048 72.2435 33.4669 
604.07 72.9921 33.4624 
604.093 73.7406 33.4578 
604.881 74.3759 34.0941 
604.904 75.1228 34.0896 
605.691 75.7533 34.7259 
606.479 76.3806 35.3623 
606.502 77.1244 35.3577 
607.289 77.7469 35.9941 
608.076 78.3662 36.6305 
608.099 79.1068 36.626 
608.886 79.7213 37.2624 
609.673 80.3327 37.8989 
609.696 81.0701 37.8944 
609.718 81.8075 37.8899 
609.74 82.5449 37.8854 
610.527 83.1483 38.5219 
610.55 83.8841 38.5174 
610.572 84.6199 38.5129 
610.594 85.3557 38.5085 
610.617 86.0915 38.504 
610.639 86.8273 38.4995 
610.662 87.5631 38.495 
610.684 88.2989 38.4905 
611.47 88.888 39.1271 
611.493 89.6222 39.1226 
611.515 90.3564 39.1182 
611.537 91.0906 39.1137 
611.56 91.8248 39.1092 
611.582 92.5591 39.1047 
611.604 93.2933 39.1003 
611.627 94.0275 39.0958 
611.649 94.7617 39.0913 
611.671 95.4959 39.0868 
611.693 96.2301 39.0824 
611.716 96.9643 39.0779 
611.738 97.6985 39.0734 
611.76 98.4328 39.0689 
611.783 99.167 39.0645 
611.805 99.9012 39.06 
611.827 100.635 39.0555 
611.85 101.37 39.051 
611.872 102.104 39.0466 
611.894 102.838 39.0421 
611.917 103.572 39.0376 
611.939 104.306 39.0331 
611.961 105.041 39.0287 
611.984 105.775 39.0242 
612.006 106.509 39.0197 
612.028 107.243 39.0152 
612.051 107.978 39.0108 
612.073 108.712 39.0063 
612.095 109.446 39.0018 
612.118 110.18 38.9974 
612.14 110.914 38.9929 
612.162 111.649 38.9884 
612.184 112.383 38.9839 
611.444 113.316 38.3381 
611.467 114.052 38.3336 
611.489 114.788 38.3291 
611.511 115.524 38.3246 
611.534 116.26 38.3201 
611.556 116.995 38.3157 
611.579 117.731 38.3112 
611.601 118.467 38.3067 
611.623 119.203 38.3022 
611.646 119.939 38.2977 
611.668 120.674 38.2932 
611.69 121.41 38.2887 
611.713 122.146 38.2843 
611.735 122.882 38.2798 
611.757 123.618 38.2753 
611.78 124.353 38.2708 
611.802 125.089 38.2663 
611.825 125.825 38.2618 
611.085 126.789 37.6158 
611.108 127.526 37.6113 
611.13 128.264 37.6068 
611.153 129.001 37.6023 
611.175 129.738 37.5978 
610.436 130.712 36.9517 
610.458 131.451 36.9472 
609.72 132.429 36.3011 
608.22 133.651 35.0133 
607.481 134.637 34.3671 
605.982 135.87 33.0792 
603.721 137.355 31.1496 
602.222 138.603 29.8617 
600.723 139.856 28.5737 
604.477 70.7285 32.8968 
604.499 71.4771 32.8922 
604.522 72.2256 32.8876 
604.545 72.9741 32.8831 
604.568 73.7227 32.8785 
605.354 74.358 33.5161 
606.141 74.9901 34.1536 
606.164 75.7354 34.1491 
606.95 76.3628 34.7867 
606.973 77.1065 34.7821 
607.759 77.7291 35.4197 
607.782 78.4713 35.4152 
608.568 79.089 36.0529 
609.354 79.7036 36.6905 
609.377 80.4426 36.686 
609.399 81.1816 36.6815 
610.185 81.7898 37.3192 
610.208 82.5272 37.3147 
610.23 83.2646 37.3102 
610.253 84.002 37.3057 
611.038 84.6022 37.9435 
611.061 85.3381 37.939 
611.083 86.0739 37.9345 
611.105 86.8097 37.9301 
611.128 87.5455 37.9256 
611.15 88.2813 37.9211 
611.172 89.0171 37.9166 
611.195 89.7529 37.9121 
611.217 90.4887 37.9076 
611.24 91.2245 37.9032 
611.262 91.9603 37.8987 
611.284 92.6961 37.8942 
611.307 93.4319 37.8897 
611.329 94.1677 37.8852 
611.351 94.9035 37.8807 
611.374 95.6393 37.8762 
611.396 96.3752 37.8718 
611.419 97.1109 37.8673 
611.441 97.8468 37.8628 
611.463 98.5826 37.8583 
611.486 99.3184 37.8538 
611.508 100.054 37.8493 
611.53 100.79 37.8449 
611.553 101.526 37.8404 
611.575 102.262 37.8359 
611.597 102.997 37.8314 
611.62 103.733 37.8269 
611.642 104.469 37.8224 
611.665 105.205 37.818 
611.687 105.941 37.8135 
611.709 106.676 37.809 
611.732 107.412 37.8045 
611.754 108.148 37.8 
611.776 108.884 37.7955 
611.799 109.62 37.7911 
611.821 110.355 37.7866 
611.843 111.091 37.7821 
611.866 111.827 37.7776 
611.888 112.563 37.7731 
611.911 113.299 37.7686 
611.933 114.035 37.7642 
611.955 114.77 37.7597 
611.978 115.506 37.7552 
612 116.242 37.7507 
612.022 116.978 37.7462 
612.045 117.714 37.7417 
612.067 118.449 37.7373 
612.09 119.185 37.7328 
612.112 119.921 37.7283 
612.134 120.657 37.7238 
612.157 121.393 37.7193 
612.179 122.128 37.7148 
611.44 123.084 37.0676 
611.463 123.822 37.0631 
611.485 124.559 37.0586 
611.508 125.296 37.0541 
611.53 126.034 37.0496 
611.553 126.771 37.0451 
611.575 127.509 37.0406 
611.597 128.246 37.0361 
610.859 129.216 36.3888 
610.882 129.955 36.3843 
610.904 130.694 36.3798 
610.166 131.671 35.7324 
609.429 132.65 35.0851 
608.691 133.633 34.4377 
607.193 134.861 33.1474 
605.696 136.096 31.857 
604.199 137.337 30.5666 
602.702 138.584 29.2762 
601.205 139.838 27.9857 
599.708 141.098 26.6952 
598.971 142.113 26.0476 
604.928 69.962 32.322 
604.951 70.7106 32.3175 
604.974 71.4591 32.3129 
604.996 72.2076 32.3083 
605.782 72.8462 32.9471 
605.805 73.5931 32.9425 
605.828 74.3401 32.938 
606.613 74.9722 33.5768 
606.636 75.7176 33.5722 
607.422 76.3449 34.2111 
607.444 77.0887 34.2065 
608.23 77.7113 34.8454 
608.252 78.4535 34.8409 
609.037 79.0713 35.4797 
609.06 79.8119 35.4752 
609.845 80.4249 36.1141 
609.868 81.1639 36.1096 
609.89 81.9029 36.1051 
610.675 82.5095 36.7441 
610.697 83.2469 36.7396 
610.72 83.9843 36.7351 
610.742 84.7217 36.7306 
610.765 85.4591 36.7261 
610.787 86.1965 36.7216 
610.809 86.9339 36.7171 
610.832 87.6713 36.7126 
610.854 88.4087 36.7081 
610.877 89.1461 36.7036 
610.899 89.8835 36.6991 
610.922 90.6209 36.6946 
610.944 91.3583 36.6901 
610.966 92.0957 36.6856 
610.989 92.8331 36.6812 
611.011 93.5705 36.6767 
611.795 94.1501 37.3158 
611.818 94.8859 37.3113 
611.84 95.6217 37.3068 
611.862 96.3575 37.3023 
611.885 97.0933 37.2978 
611.907 97.8291 37.2934 
611.93 98.5649 37.2889 
611.952 99.3007 37.2844 
611.974 100.037 37.2799 
611.997 100.772 37.2754 
612.019 101.508 37.2709 
612.041 102.244 37.2665 
612.064 102.98 37.262 
612.086 103.716 37.2575 
612.108 104.451 37.253 
612.131 105.187 37.2485 
612.153 105.923 37.244 
612.176 106.659 37.2396 
612.198 107.395 37.2351 
612.22 108.13 37.2306 
612.243 108.866 37.2261 
612.265 109.602 37.2216 
612.287 110.338 37.2171 
612.31 111.074 37.2127 
611.571 112.005 36.5643 
611.594 112.743 36.5598 
611.616 113.48 36.5553 
611.639 114.218 36.5508 
611.661 114.955 36.5463 
611.684 115.692 36.5419 
611.706 116.43 36.5374 
611.728 117.167 36.5329 
611.751 117.905 36.5284 
611.773 118.642 36.5239 
611.796 119.379 36.5194 
611.818 120.117 36.5149 
611.841 120.854 36.5104 
611.863 121.592 36.5059 
611.885 122.329 36.5014 
611.908 123.066 36.4969 
611.93 123.804 36.4924 
611.953 124.541 36.4879 
611.975 125.279 36.4834 
611.238 126.242 35.8349 
611.26 126.981 35.8304 
611.283 127.72 35.8259 
611.305 128.459 35.8214 
611.328 129.198 35.8169 
610.591 130.172 35.1683 
610.613 130.912 35.1638 
610.636 131.653 35.1593 
609.899 132.632 34.5107 
608.403 133.856 33.218 
606.908 135.086 31.9252 
606.171 136.078 31.2765 
604.676 137.319 29.9836 
603.181 138.566 28.6907 
601.686 139.82 27.3978 
600.191 141.08 26.1048 
599.456 142.095 25.456 
598.72 143.113 24.8072 
605.402 69.9441 31.7427 
606.187 70.5874 32.3827 
606.21 71.3344 32.3781 
606.233 72.0813 32.3736 
606.256 72.8282 32.369 
606.278 73.5752 32.3645 
607.063 74.209 33.0045 
607.086 74.9543 32.9999 
607.108 75.6997 32.9954 
607.893 76.3271 33.6355 
607.916 77.0709 33.6309 
608.7 77.6935 34.271 
608.722 78.4357 34.2665 
609.507 79.0535 34.9066 
609.529 79.7941 34.9021 
610.313 80.4072 35.5422 
610.336 81.1462 35.5377 
610.358 81.8851 35.5332 
610.381 82.6241 35.5287 
610.403 83.3631 35.5242 
611.187 83.9666 36.1644 
611.209 84.704 36.1599 
611.232 85.4414 36.1554 
611.254 86.1788 36.1509 
611.277 86.9162 36.1464 
611.299 87.6536 36.1419 
611.322 88.391 36.1375 
611.344 89.1284 36.133 
611.366 89.8658 36.1285 
611.389 90.6032 36.124 
611.411 91.3406 36.1195 
611.434 92.078 36.115 
611.456 92.8154 36.1105 
611.478 93.5528 36.106 
611.501 94.2902 36.1015 
611.523 95.0276 36.097 
611.546 95.765 36.0925 
611.568 96.5024 36.088 
611.591 97.2398 36.0835 
611.613 97.9772 36.079 
611.635 98.7146 36.0745 
611.658 99.452 36.07 
611.68 100.189 36.0656 
611.703 100.927 36.0611 
611.725 101.664 36.0566 
611.747 102.402 36.0521 
611.77 103.139 36.0476 
611.792 103.876 36.0431 
611.815 104.614 36.0386 
611.837 105.351 36.0341 
611.859 106.089 36.0296 
611.882 106.826 36.0251 
611.904 107.563 36.0206 
611.927 108.301 36.0161 
611.949 109.038 36.0116 
611.971 109.776 36.0071 
611.994 110.513 36.0026 
612.016 111.25 35.9981 
612.039 111.988 35.9937 
612.061 112.725 35.9892 
612.084 113.463 35.9847 
612.106 114.2 35.9802 
612.128 114.937 35.9757 
612.151 115.675 35.9712 
612.173 116.412 35.9667 
612.196 117.15 35.9622 
612.218 117.887 35.9577 
612.24 118.624 35.9532 
611.504 119.574 35.3036 
611.526 120.313 35.2991 
611.549 121.052 35.2946 
611.571 121.791 35.2901 
611.594 122.53 35.2856 
611.616 123.269 35.281 
611.639 124.008 35.2765 
611.661 124.747 35.272 
611.684 125.486 35.2675 
611.706 126.225 35.263 
611.729 126.964 35.2585 
610.992 127.932 34.6087 
611.015 128.673 34.6042 
611.037 129.413 34.5997 
611.06 130.154 34.5952 
611.082 130.894 34.5907 
610.347 131.872 33.9409 
609.611 132.854 33.291 
608.875 133.838 32.6411 
607.382 135.068 31.3459 
606.647 136.06 30.696 
605.153 137.301 29.4006 
603.66 138.548 28.1053 
602.167 139.802 26.8099 
601.433 140.812 26.1599 
599.94 142.076 24.8644 
599.963 142.841 24.8597 
599.229 143.86 24.2096 
606.638 69.8225 31.8092 
606.661 70.5695 31.8046 
606.683 71.3164 31.8001 
606.706 72.0634 31.7955 
607.49 72.7004 32.4367 
607.513 73.4457 32.4322 
607.535 74.1911 32.4277 
607.558 74.9365 32.4231 
608.342 75.5655 33.0644 
608.364 76.3093 33.0599 
608.387 77.053 33.0553 
609.17 77.6757 33.6967 
609.193 78.4179 33.6921 
609.976 79.0358 34.3335 
609.998 79.7763 34.329 
610.021 80.5169 34.3244 
610.804 81.1284 34.9658 
610.827 81.8674 34.9613 
610.849 82.6064 34.9568 
610.871 83.3454 34.9523 
610.894 84.0844 34.9478 
610.916 84.8234 34.9433 
610.939 85.5624 34.9388 
610.961 86.3014 34.9343 
610.984 87.0404 34.9298 
611.006 87.7794 34.9253 
611.029 88.5183 34.9208 
611.051 89.2573 34.9163 
611.074 89.9963 34.9118 
611.096 90.7353 34.9073 
611.119 91.4743 34.9028 
611.141 92.2133 34.8983 
611.163 92.9523 34.8938 
611.186 93.6913 34.8893 
611.208 94.4303 34.8848 
611.99 95.0099 35.5263 
612.013 95.7474 35.5219 
612.035 96.4847 35.5174 
612.058 97.2222 35.5129 
612.08 97.9595 35.5084 
612.103 98.6969 35.5039 
612.125 99.4343 35.4994 
612.147 100.172 35.4949 
612.17 100.909 35.4904 
612.192 101.647 35.4859 
612.215 102.384 35.4814 
612.237 103.121 35.4769 
612.259 103.859 35.4724 
612.282 104.596 35.4679 
612.304 105.334 35.4634 
612.327 106.071 35.4589 
612.349 106.808 35.4544 
612.372 107.546 35.45 
612.394 108.283 35.4455 
612.416 109.021 35.441 
612.439 109.758 35.4365 
612.461 110.495 35.432 
611.725 111.427 34.7812 
611.747 112.166 34.7767 
611.77 112.905 34.7722 
611.792 113.644 34.7677 
611.815 114.383 34.7632 
611.837 115.122 34.7587 
611.86 115.861 34.7542 
611.882 116.6 34.7497 
611.905 117.339 34.7452 
611.927 118.078 34.7407 
611.95 118.817 34.7362 
611.972 119.556 34.7317 
611.995 120.295 34.7272 
612.017 121.034 34.7227 
612.039 121.773 34.7182 
612.062 122.512 34.7137 
611.327 123.471 34.0627 
611.349 124.211 34.0582 
611.372 124.952 34.0537 
611.394 125.693 34.0491 
611.417 126.433 34.0446 
611.439 127.174 34.0401 
611.462 127.914 34.0356 
611.484 128.655 34.0311 
611.507 129.395 34.0266 
610.772 130.37 33.3755 
610.794 131.112 33.371 
610.817 131.855 33.3665 
610.082 132.836 32.7154 
608.591 134.061 31.4177 
607.856 135.05 30.7666 
606.365 136.286 29.4688 
605.631 137.283 28.8177 
604.14 138.53 27.5198 
603.406 139.535 26.8686 
601.915 140.793 25.5707 
601.181 141.806 24.9194 
600.448 142.823 24.2681 
600.471 143.587 24.2635 
600.494 144.352 24.2588 
607.111 69.8046 31.2311 
607.894 70.4464 31.8735 
607.157 71.2985 31.222 
607.94 71.9371 31.8645 
607.962 72.6825 31.8599 
607.985 73.4279 31.8554 
608.008 74.1732 31.8508 
608.03 74.9186 31.8463 
608.813 75.5477 32.4888 
608.835 76.2914 32.4843 
608.858 77.0352 32.4797 
609.64 77.6579 33.1223 
609.663 78.4001 33.1178 
609.686 79.1423 33.1132 
610.468 79.7586 33.7558 
610.49 80.4992 33.7513 
610.513 81.2398 33.7468 
610.535 81.9803 33.7423 
611.317 82.5887 34.3849 
611.34 83.3277 34.3804 
611.362 84.0667 34.3759 
611.385 84.8057 34.3714 
611.407 85.5447 34.3669 
611.43 86.2837 34.3624 
611.452 87.0227 34.3579 
611.474 87.7617 34.3534 
611.497 88.5006 34.3489 
611.519 89.2396 34.3444 
611.542 89.9786 34.3399 
611.564 90.7176 34.3354 
611.587 91.4566 34.3309 
611.609 92.1956 34.3264 
611.632 92.9346 34.3219 
611.654 93.6736 34.3174 
611.677 94.4126 34.3129 
611.699 95.1516 34.3084 
611.722 95.8905 34.3039 
611.744 96.6295 34.2994 
611.766 97.3685 34.2949 
611.789 98.1075 34.2904 
611.811 98.8465 34.2859 
611.834 99.5855 34.2814 
611.856 100.324 34.2769 
611.879 101.063 34.2723 
611.901 101.802 34.2678 
611.924 102.541 34.2633 
611.946 103.28 34.2588 
611.969 104.019 34.2543 
611.991 104.758 34.2498 
612.014 105.497 34.2453 
612.036 106.236 34.2408 
612.058 106.975 34.2363 
612.081 107.714 34.2318 
612.103 108.453 34.2273 
612.126 109.192 34.2228 
612.148 109.931 34.2183 
612.171 110.67 34.2138 
612.193 111.409 34.2093 
612.216 112.148 34.2048 
612.238 112.887 34.2003 
612.261 113.626 34.1958 
612.283 114.365 34.1913 
612.306 115.104 34.1868 
612.328 115.843 34.1823 
612.35 116.582 34.1778 
611.616 117.528 33.5257 
611.638 118.269 33.5211 
611.661 119.01 33.5166 
611.683 119.75 33.5121 
611.706 120.491 33.5076 
611.728 121.231 33.5031 
611.751 121.972 33.4986 
611.773 122.712 33.4941 
611.796 123.453 33.4896 
611.818 124.194 33.485 
611.841 124.934 33.4805 
611.863 125.675 33.476 
611.129 126.642 32.8238 
611.152 127.384 32.8193 
611.174 128.126 32.8147 
611.197 128.868 32.8102 
611.22 129.61 32.8057 
611.242 130.352 32.8012 
611.265 131.095 32.7967 
610.531 132.074 32.1444 
609.797 133.057 31.492 
609.064 134.043 30.8397 
608.33 135.032 30.1873 
606.841 136.268 28.8871 
606.108 137.265 28.2347 
604.619 138.512 26.9344 
603.886 139.517 26.2819 
603.153 140.525 25.6294 
601.665 141.788 24.329 
601.688 142.551 24.3244 
600.955 143.569 23.6719 
600.979 144.333 23.6672 
601.002 145.098 23.6625 
608.321 68.9378 31.3058 
608.344 69.6832 31.3013 
608.367 70.4286 31.2967 
608.389 71.1739 31.2922 
608.412 71.9193 31.2876 
608.435 72.6646 31.2831 
608.457 73.41 31.2786 
608.48 74.1554 31.274 
608.503 74.9007 31.2695 
609.284 75.5298 31.9132 
609.307 76.2736 31.9087 
609.329 77.0174 31.9042 
610.111 77.6401 32.5479 
610.133 78.3823 32.5434 
610.156 79.1245 32.5389 
610.178 79.8666 32.5344 
610.96 80.4814 33.1782 
610.982 81.222 33.1737 
611.005 81.9626 33.1692 
611.027 82.7032 33.1646 
611.05 83.4438 33.1601 
611.072 84.1843 33.1556 
611.095 84.9249 33.1511 
611.117 85.6655 33.1466 
611.14 86.4061 33.1421 
611.162 87.1467 33.1376 
611.185 87.8873 33.133 
611.207 88.6278 33.1285 
611.23 89.3684 33.124 
611.252 90.109 33.1195 
611.275 90.8496 33.115 
611.297 91.5902 33.1105 
611.32 92.3308 33.106 
611.342 93.0714 33.1015 
611.365 93.8119 33.0969 
611.387 94.5525 33.0924 
611.41 95.2931 33.0879 
611.432 96.0337 33.0834 
611.455 96.7743 33.0789 
612.235 97.3508 33.723 
612.257 98.0898 33.7185 
612.28 98.8288 33.714 
612.302 99.5678 33.7095 
612.325 100.307 33.705 
612.347 101.046 33.7005 
612.37 101.785 33.6959 
612.392 102.524 33.6914 
612.414 103.263 33.6869 
612.437 104.002 33.6824 
612.459 104.741 33.6779 
612.482 105.48 33.6734 
612.504 106.219 33.6689 
612.527 106.958 33.6644 
611.792 107.883 33.0112 
611.815 108.624 33.0067 
611.837 109.364 33.0022 
611.86 110.105 32.9977 
611.882 110.845 32.9931 
611.905 111.586 32.9886 
611.927 112.327 32.9841 
611.95 113.067 32.9796 
611.972 113.808 32.9751 
611.995 114.548 32.9706 
612.018 115.289 32.9661 
612.04 116.029 32.9616 
612.062 116.77 32.957 
612.085 117.511 32.9525 
612.108 118.251 32.948 
612.13 118.992 32.9435 
612.153 119.732 32.939 
612.175 120.473 32.9345 
611.442 121.429 32.2811 
611.464 122.171 32.2766 
611.487 122.913 32.272 
611.509 123.655 32.2675 
611.532 124.397 32.263 
611.554 125.139 32.2585 
611.577 125.882 32.254 
611.6 126.624 32.2494 
611.622 127.366 32.2449 
611.645 128.108 32.2404 
611.667 128.85 32.2359 
610.934 129.825 31.5824 
610.957 130.569 31.5778 
610.98 131.313 31.5733 
611.002 132.056 31.5688 
610.27 133.039 30.9152 
609.537 134.025 30.2616 
608.805 135.014 29.608 
607.317 136.25 28.3053 
606.585 137.247 27.6517 
605.098 138.494 26.3489 
604.366 139.499 25.6952 
603.635 140.507 25.0415 
602.903 141.518 24.3878 
602.171 142.533 23.734 
602.194 143.296 23.7294 
602.218 144.058 23.7247 
602.241 144.821 23.7201 
602.264 145.584 23.7154 
608.816 69.6653 30.7244 
608.839 70.4107 30.7199 
608.862 71.1561 30.7153 
608.884 71.9014 30.7108 
608.907 72.6468 30.7063 
608.929 73.3921 30.7017 
608.952 74.1375 30.6972 
608.975 74.8829 30.6926 
609.755 75.512 31.3376 
609.778 76.2558 31.3331 
609.801 76.9995 31.3286 
609.823 77.7433 31.324 
610.604 78.3645 31.969 
610.626 79.1067 31.9645 
610.649 79.8488 31.96 
610.671 80.591 31.9555 
610.694 81.3332 31.951 
611.474 81.9448 32.596 
611.496 82.6854 32.5915 
611.519 83.426 32.587 
611.541 84.1666 32.5825 
611.564 84.9072 32.578 
611.586 85.6478 32.5735 
611.609 86.3883 32.5689 
611.631 87.1289 32.5644 
611.654 87.8695 32.5599 
611.676 88.6101 32.5554 
611.699 89.3507 32.5509 
611.721 90.0913 32.5464 
611.744 90.8318 32.5419 
611.766 91.5724 32.5374 
611.789 92.313 32.5328 
611.811 93.0536 32.5283 
611.834 93.7942 32.5238 
611.856 94.5348 32.5193 
611.879 95.2753 32.5148 
611.901 96.0159 32.5103 
611.924 96.7565 32.5058 
611.947 97.4971 32.5013 
611.969 98.2377 32.4967 
611.992 98.9783 32.4922 
612.014 99.7189 32.4877 
612.036 100.459 32.4832 
612.059 101.2 32.4787 
612.082 101.941 32.4742 
612.104 102.681 32.4697 
612.127 103.422 32.4651 
612.149 104.162 32.4606 
612.172 104.903 32.4561 
612.194 105.644 32.4516 
612.217 106.384 32.4471 
612.239 107.125 32.4426 
612.262 107.865 32.4381 
612.284 108.606 32.4336 
612.307 109.346 32.429 
612.329 110.087 32.4245 
612.352 110.828 32.42 
612.374 111.568 32.4155 
612.397 112.309 32.411 
612.419 113.049 32.4065 
611.686 113.989 31.752 
611.709 114.731 31.7474 
611.731 115.473 31.7429 
611.754 116.216 31.7384 
611.777 116.958 31.7339 
611.799 117.7 31.7293 
611.822 118.442 31.7248 
611.844 119.184 31.7203 
611.867 119.926 31.7158 
611.889 120.669 31.7113 
611.912 121.411 31.7067 
611.935 122.153 31.7022 
611.957 122.895 31.6977 
611.98 123.637 31.6932 
612.002 124.379 31.6886 
612.025 125.122 31.6841 
611.293 126.088 31.0294 
611.315 126.832 31.0249 
611.338 127.576 31.0204 
611.36 128.32 31.0158 
611.383 129.063 31.0113 
611.406 129.807 31.0068 
611.428 130.551 31.0022 
610.697 131.53 30.3474 
610.719 132.276 30.3429 
610.742 133.021 30.3384 
610.01 134.007 29.6835 
609.279 134.996 29.0287 
607.794 136.232 27.7236 
607.063 137.229 27.0687 
606.332 138.229 26.4138 
604.847 139.481 25.1085 
604.116 140.489 24.4536 
603.385 141.5 23.7986 
603.408 142.261 23.794 
603.431 143.023 23.7893 
602.701 144.04 23.1343 
602.724 144.803 23.1297 
602.747 145.566 23.125 
609.289 69.6475 30.1476 
609.311 70.3928 30.1431 
609.334 71.1382 30.1385 
609.356 71.8835 30.134 
609.379 72.6289 30.1294 
609.402 73.3743 30.1249 
609.424 74.1196 30.1204 
609.447 74.865 30.1158 
610.227 75.4942 30.762 
610.249 76.2379 30.7575 
610.272 76.9817 30.753 
610.294 77.7255 30.7484 
610.317 78.4693 30.7439 
611.096 79.0889 31.3902 
611.119 79.8311 31.3856 
611.141 80.5732 31.3811 
611.164 81.3154 31.3766 
611.187 82.0576 31.3721 
611.209 82.7998 31.3675 
611.232 83.5419 31.363 
611.254 84.2841 31.3585 
611.277 85.0263 31.354 
611.299 85.7685 31.3495 
611.322 86.5106 31.3449 
611.344 87.2528 31.3404 
611.367 87.995 31.3359 
611.39 88.7372 31.3314 
611.412 89.4794 31.3268 
611.435 90.2215 31.3223 
611.457 90.9637 31.3178 
611.48 91.7059 31.3133 
611.502 92.4481 31.3087 
611.525 93.1902 31.3042 
611.548 93.9324 31.2997 
611.57 94.6746 31.2952 
611.593 95.4168 31.2907 
611.615 96.1589 31.2861 
611.638 96.9011 31.2816 
611.66 97.6433 31.2771 
611.683 98.3855 31.2726 
612.461 98.9605 31.9191 
612.483 99.7011 31.9146 
612.506 100.442 31.9101 
612.528 101.182 31.9056 
612.551 101.923 31.901 
612.573 102.663 31.8965 
612.596 103.404 31.892 
612.618 104.145 31.8875 
611.886 105.065 31.2319 
611.908 105.807 31.2273 
611.931 106.549 31.2228 
611.954 107.292 31.2183 
611.976 108.034 31.2138 
611.999 108.776 31.2092 
612.021 109.518 31.2047 
612.044 110.26 31.2002 
612.066 111.002 31.1957 
612.089 111.745 31.1912 
612.112 112.487 31.1866 
612.134 113.229 31.1821 
612.157 113.971 31.1776 
612.179 114.713 31.1731 
612.202 115.456 31.1685 
612.224 116.198 31.164 
612.247 116.94 31.1595 
612.269 117.682 31.155 
612.292 118.424 31.1505 
612.315 119.166 31.1459 
612.337 119.909 31.1414 
611.606 120.864 30.4856 
611.628 121.608 30.481 
611.651 122.352 30.4765 
611.674 123.095 30.472 
611.696 123.839 30.4674 
611.719 124.583 30.4629 
611.741 125.327 30.4584 
611.764 126.07 30.4538 
611.787 126.814 30.4493 
611.809 127.558 30.4448 
611.832 128.302 30.4402 
611.101 129.276 29.7842 
611.124 130.022 29.7797 
611.146 130.767 29.7752 
611.169 131.513 29.7706 
611.192 132.258 29.7661 
610.461 133.242 29.11 
609.731 134.229 28.454 
609 135.22 27.7979 
608.27 136.214 27.1418 
607.54 137.211 26.4857 
606.81 138.211 25.8295 
606.08 139.214 25.1734 
605.35 140.22 24.5172 
604.62 141.23 23.861 
603.891 142.243 23.2048 
603.914 143.004 23.2002 
603.937 143.766 23.1955 
603.96 144.527 23.1909 
603.983 145.288 23.1863 
609.761 69.6296 29.5708 
609.783 70.375 29.5662 
609.806 71.1203 29.5617 
609.829 71.8657 29.5571 
609.851 72.611 29.5526 
609.874 73.3564 29.5481 
609.897 74.1018 29.5435 
609.919 74.8471 29.539 
609.942 75.5925 29.5344 
609.965 76.3378 29.5299 
610.743 76.9639 30.1774 
610.766 77.7076 30.1728 
610.788 78.4514 30.1683 
610.811 79.1952 30.1638 
610.834 79.939 30.1592 
610.856 80.6827 30.1547 
611.634 81.2976 30.8022 
611.657 82.0398 30.7977 
611.679 82.782 30.7932 
611.702 83.5241 30.7887 
611.724 84.2663 30.7841 
611.747 85.0085 30.7796 
611.77 85.7507 30.7751 
611.792 86.4929 30.7706 
611.815 87.235 30.766 
611.837 87.9772 30.7615 
611.86 88.7194 30.757 
611.882 89.4616 30.7525 
611.905 90.2037 30.748 
611.927 90.9459 30.7434 
611.95 91.6881 30.7389 
611.973 92.4303 30.7344 
611.995 93.1724 30.7299 
612.018 93.9146 30.7253 
612.04 94.6568 30.7208 
612.063 95.399 30.7163 
612.085 96.1412 30.7118 
612.108 96.8833 30.7072 
612.131 97.6255 30.7027 
612.153 98.3677 30.6982 
612.176 99.1099 30.6937 
612.198 99.852 30.6892 
612.221 100.594 30.6846 
612.243 101.336 30.6801 
612.266 102.079 30.6756 
612.288 102.821 30.6711 
612.311 103.563 30.6665 
612.334 104.305 30.662 
612.356 105.047 30.6575 
612.379 105.789 30.653 
612.401 106.532 30.6485 
612.424 107.274 30.6439 
612.446 108.016 30.6394 
612.469 108.758 30.6349 
612.492 109.5 30.6304 
612.514 110.243 30.6258 
611.783 111.177 29.9689 
611.806 111.921 29.9643 
611.828 112.665 29.9598 
611.851 113.409 29.9553 
611.874 114.152 29.9508 
611.896 114.896 29.9462 
611.919 115.64 29.9417 
611.941 116.384 29.9372 
611.964 117.127 29.9326 
611.987 117.871 29.9281 
612.009 118.615 29.9236 
612.032 119.359 29.919 
612.054 120.103 29.9145 
612.077 120.846 29.91 
612.1 121.59 29.9054 
612.122 122.334 29.9009 
612.145 123.078 29.8964 
612.167 123.821 29.8918 
612.19 124.565 29.8873 
611.46 125.532 29.2301 
611.483 126.277 29.2256 
611.505 127.022 29.221 
611.528 127.768 29.2165 
611.551 128.513 29.212 
611.573 129.259 29.2074 
611.596 130.004 29.2029 
610.866 130.983 28.5456 
610.889 131.73 28.5411 
610.912 132.477 28.5365 
610.934 133.224 28.532 
610.205 134.211 27.8747 
609.476 135.202 27.2174 
609.498 135.952 27.2128 
608.769 136.947 26.5555 
608.04 137.946 25.8981 
607.311 138.948 25.2407 
606.582 139.952 24.5833 
605.854 140.96 23.9259 
605.125 141.972 23.2685 
605.148 142.731 23.2639 
605.171 143.491 23.2592 
605.194 144.251 23.2546 
605.217 145.01 23.25 
610.21 68.8663 28.9985 
610.233 69.6117 28.9939 
610.256 70.3571 28.9894 
610.278 71.1024 28.9849 
610.301 71.8478 28.9803 
610.324 72.5932 28.9758 
610.346 73.3385 28.9712 
610.369 74.0839 28.9667 
610.392 74.8293 28.9622 
610.414 75.5746 28.9576 
610.437 76.32 28.9531 
610.46 77.0653 28.9485 
611.237 77.6898 29.5972 
611.26 78.4336 29.5927 
611.282 79.1774 29.5882 
611.305 79.9211 29.5836 
611.327 80.6649 29.5791 
611.35 81.4087 29.5746 
611.373 82.1524 29.57 
611.395 82.8962 29.5655 
611.418 83.64 29.561 
611.44 84.3837 29.5564 
612.217 84.9907 30.2052 
612.24 85.7329 30.2007 
612.262 86.4751 30.1962 
611.531 87.3588 29.5383 
611.553 88.1026 29.5338 
611.576 88.8464 29.5293 
611.599 89.5901 29.5247 
611.621 90.3339 29.5202 
611.644 91.0777 29.5157 
611.667 91.8214 29.5111 
611.689 92.5652 29.5066 
611.712 93.309 29.5021 
611.734 94.0527 29.4975 
611.757 94.7965 29.493 
611.78 95.5403 29.4885 
611.802 96.2841 29.4839 
611.825 97.0278 29.4794 
611.847 97.7716 29.4749 
611.87 98.5154 29.4703 
612.646 99.0921 30.1193 
611.915 100.003 29.4613 
611.938 100.747 29.4567 
611.96 101.49 29.4522 
611.983 102.234 29.4477 
612.006 102.978 29.4431 
612.028 103.722 29.4386 
612.051 104.466 29.4341 
612.073 105.209 29.4295 
612.096 105.953 29.425 
612.119 106.697 29.4205 
612.141 107.441 29.4159 
612.164 108.184 29.4114 
612.186 108.928 29.4069 
612.209 109.672 29.4023 
612.232 110.416 29.3978 
612.254 111.159 29.3933 
612.277 111.903 29.3888 
612.3 112.647 29.3842 
612.322 113.391 29.3797 
612.345 114.135 29.3752 
612.367 114.878 29.3706 
612.39 115.622 29.3661 
612.413 116.366 29.3616 
612.435 117.11 29.357 
611.706 118.06 28.6987 
611.728 118.806 28.6942 
611.751 119.551 28.6896 
611.774 120.296 28.6851 
611.796 121.042 28.6805 
611.819 121.787 28.676 
611.842 122.532 28.6715 
611.864 123.278 28.6669 
611.887 124.023 28.6624 
611.91 124.769 28.6578 
611.932 125.514 28.6533 
611.955 126.259 28.6488 
611.978 127.005 28.6442 
612 127.75 28.6397 
611.271 128.725 27.9812 
611.294 129.471 27.9767 
611.317 130.218 27.9721 
611.34 130.965 27.9676 
611.362 131.712 27.963 
611.385 132.459 27.9585 
610.656 133.445 27.3 
610.679 134.194 27.2954 
609.951 135.184 26.6369 
609.974 135.934 26.6323 
609.246 136.929 25.9737 
608.517 137.928 25.3151 
607.789 138.929 24.6565 
607.062 139.934 23.9979 
607.085 140.691 23.9933 
606.357 141.7 23.3346 
606.38 142.458 23.33 
606.403 143.217 23.3254 
606.426 143.975 23.3208 
606.449 144.733 23.3161 
606.472 145.491 23.3115 
610.705 69.5938 28.4171 
610.728 70.3392 28.4126 
610.751 71.0846 28.408 
610.773 71.8299 28.4035 
610.796 72.5753 28.399 
610.819 73.3207 28.3944 
610.841 74.066 28.3899 
610.864 74.8114 28.3853 
610.887 75.5567 28.3808 
610.909 76.3021 28.3762 
610.932 77.0475 28.3717 
610.955 77.7928 28.3672 
610.977 78.5382 28.3626 
611 79.2836 28.3581 
611.023 80.0289 28.3535 
611.799 80.6471 29.0035 
611.821 81.3908 28.999 
611.844 82.1346 28.9944 
611.867 82.8784 28.9899 
611.889 83.6221 28.9854 
611.912 84.3659 28.9809 
611.934 85.1097 28.9763 
611.957 85.8534 28.9718 
611.98 86.5972 28.9673 
612.002 87.341 28.9627 
612.025 88.0848 28.9582 
612.047 88.8285 28.9537 
612.07 89.5723 28.9491 
612.093 90.3161 28.9446 
612.115 91.0598 28.9401 
612.138 91.8036 28.9355 
612.16 92.5474 28.931 
612.183 93.2911 28.9265 
612.206 94.0349 28.9219 
612.228 94.7787 28.9174 
612.251 95.5224 28.9129 
612.273 96.2662 28.9083 
612.296 97.01 28.9038 
612.319 97.7538 28.8993 
612.341 98.4975 28.8947 
612.364 99.2413 28.8902 
612.387 99.9851 28.8857 
612.409 100.729 28.8811 
612.432 101.473 28.8766 
612.454 102.216 28.8721 
612.477 102.96 28.8675 
612.5 103.704 28.863 
612.522 104.448 28.8585 
612.545 105.191 28.8539 
611.815 106.117 28.1946 
611.838 106.862 28.19 
611.861 107.607 28.1855 
611.883 108.353 28.1809 
611.906 109.098 28.1764 
611.929 109.843 28.1719 
611.951 110.589 28.1673 
611.974 111.334 28.1628 
611.997 112.079 28.1582 
612.019 112.825 28.1537 
612.042 113.57 28.1491 
612.065 114.316 28.1446 
612.087 115.061 28.1401 
612.11 115.806 28.1355 
612.133 116.552 28.131 
612.155 117.297 28.1264 
612.178 118.042 28.1219 
612.201 118.788 28.1173 
612.223 119.533 28.1128 
612.246 120.278 28.1083 
612.269 121.024 28.1037 
612.291 121.769 28.0992 
612.314 122.515 28.0946 
612.336 123.26 28.0901 
612.359 124.005 28.0856 
611.631 124.972 27.4259 
611.654 125.719 27.4214 
611.677 126.466 27.4168 
611.699 127.213 27.4123 
611.722 127.96 27.4077 
611.745 128.707 27.4032 
611.767 129.454 27.3986 
611.79 130.201 27.3941 
611.813 130.947 27.3895 
611.085 131.93 26.7298 
611.108 132.678 26.7252 
611.131 133.427 26.7207 
611.154 134.176 26.7161 
610.426 135.166 26.0563 
610.449 135.916 26.0518 
609.722 136.911 25.3919 
608.995 137.91 24.7321 
609.018 138.663 24.7275 
608.291 139.666 24.0677 
607.564 140.673 23.4078 
607.587 141.429 23.4032 
607.61 142.186 23.3986 
607.633 142.942 23.394 
607.656 143.699 23.3894 
606.929 144.715 22.7295 
607.702 145.212 23.3802 
606.976 146.231 22.7202 
610.424 69.6793 27.1847 
610.447 70.4262 27.1801 
610.47 71.1732 27.1756 
610.492 71.9201 27.171 
610.515 72.6671 27.1665 
610.538 73.414 27.1619 
610.561 74.161 27.1574 
610.583 74.9079 27.1528 
610.606 75.6549 27.1483 
610.629 76.4019 27.1437 
611.404 77.0296 27.7949 
611.427 77.775 27.7903 
611.449 78.5203 27.7858 
611.472 79.2657 27.7812 
611.495 80.011 27.7767 
611.517 80.7564 27.7722 
611.54 81.5018 27.7676 
611.563 82.2471 27.7631 
611.585 82.9925 27.7585 
611.608 83.7379 27.754 
611.631 84.4832 27.7495 
611.653 85.2286 27.7449 
611.676 85.9739 27.7404 
611.699 86.7193 27.7358 
611.721 87.4647 27.7313 
611.744 88.21 27.7267 
611.767 88.9554 27.7222 
611.789 89.7008 27.7177 
611.812 90.4461 27.7131 
611.835 91.1915 27.7086 
611.857 91.9368 27.704 
611.88 92.6822 27.6995 
611.903 93.4276 27.6949 
611.925 94.1729 27.6904 
611.948 94.9183 27.6859 
611.971 95.6636 27.6813 
611.993 96.409 27.6768 
612.016 97.1544 27.6722 
612.039 97.8997 27.6677 
612.061 98.6451 27.6632 
612.084 99.3905 27.6586 
612.107 100.136 27.6541 
612.129 100.881 27.6495 
612.152 101.627 27.645 
612.174 102.372 27.6404 
612.197 103.117 27.6359 
612.22 103.863 27.6314 
612.242 104.608 27.6268 
612.265 105.353 27.6223 
612.288 106.099 27.6177 
612.31 106.844 27.6132 
612.333 107.589 27.6087 
612.356 108.335 27.6041 
611.628 109.268 26.9435 
611.65 110.015 26.9389 
611.673 110.762 26.9344 
611.696 111.509 26.9298 
611.719 112.256 26.9253 
611.741 113.003 26.9207 
611.764 113.75 26.9161 
611.787 114.497 26.9116 
611.809 115.244 26.907 
611.832 115.99 26.9025 
611.855 116.737 26.8979 
611.877 117.484 26.8934 
611.9 118.231 26.8888 
611.923 118.978 26.8843 
611.945 119.725 26.8797 
611.968 120.472 26.8752 
611.991 121.219 26.8706 
612.014 121.966 26.8661 
612.036 122.713 26.8615 
612.059 123.46 26.857 
612.082 124.207 26.8524 
612.104 124.954 26.8479 
612.127 125.701 26.8433 
612.15 126.448 26.8388 
612.173 127.195 26.8342 
612.195 127.942 26.8297 
611.469 128.918 26.1687 
611.491 129.666 26.1642 
611.514 130.415 26.1596 
611.537 131.163 26.155 
611.56 131.912 26.1505 
611.582 132.661 26.1459 
611.605 133.409 26.1414 
610.879 134.398 25.4804 
610.902 135.148 25.4758 
610.175 136.142 24.8148 
610.198 136.893 24.8102 
609.472 137.892 24.1491 
609.495 138.645 24.1445 
608.769 139.648 23.4835 
608.792 140.403 23.4789 
608.066 141.411 22.8177 
608.838 141.913 23.4697 
608.112 142.924 22.8085 
608.135 143.681 22.8039 
608.158 144.437 22.7993 
608.181 145.194 22.7947 
608.204 145.95 22.7901 
608.227 146.707 22.7855 
610.898 69.6613 26.6066 
610.92 70.4083 26.6021 
610.943 71.1553 26.5975 
610.966 71.9022 26.593 
610.989 72.6492 26.5884 
611.011 73.3961 26.5839 
611.034 74.1431 26.5793 
611.057 74.89 26.5748 
611.079 75.637 26.5702 
611.102 76.3839 26.5657 
611.125 77.1309 26.5611 
611.147 77.8779 26.5566 
611.17 78.6248 26.552 
611.193 79.3718 26.5475 
611.216 80.1187 26.5429 
611.99 80.7385 27.1953 
612.012 81.4839 27.1908 
612.035 82.2293 27.1863 
612.058 82.9746 27.1817 
612.08 83.72 27.1772 
612.103 84.4653 27.1726 
612.126 85.2107 27.1681 
612.148 85.9561 27.1635 
612.171 86.7014 27.159 
612.194 87.4468 27.1545 
612.216 88.1922 27.1499 
612.239 88.9375 27.1454 
612.262 89.6829 27.1408 
612.284 90.4282 27.1363 
612.307 91.1736 27.1317 
611.579 92.07 26.4701 
611.602 92.8169 26.4655 
611.624 93.5639 26.461 
611.647 94.3109 26.4564 
611.67 95.0578 26.4519 
612.443 95.6458 27.1045 
612.466 96.3912 27.1 
612.488 97.1365 27.0954 
612.511 97.8819 27.0909 
612.533 98.6272 27.0863 
612.556 99.3726 27.0818 
611.828 100.286 26.42 
611.851 101.033 26.4155 
611.874 101.78 26.4109 
611.897 102.527 26.4064 
611.919 103.274 26.4018 
611.942 104.021 26.3973 
611.965 104.768 26.3927 
611.987 105.515 26.3882 
612.01 106.262 26.3836 
612.033 107.009 26.3791 
612.056 107.756 26.3745 
612.078 108.503 26.3699 
612.101 109.25 26.3654 
612.124 109.997 26.3608 
612.146 110.744 26.3563 
612.169 111.491 26.3517 
612.192 112.238 26.3472 
612.214 112.985 26.3426 
612.237 113.732 26.3381 
612.26 114.479 26.3335 
612.283 115.226 26.329 
612.305 115.973 26.3244 
612.328 116.72 26.3199 
612.351 117.466 26.3153 
612.373 118.213 26.3108 
612.396 118.96 26.3062 
612.419 119.707 26.3017 
612.442 120.454 26.2971 
612.464 121.201 26.2926 
612.487 121.948 26.288 
612.51 122.695 26.2835 
612.532 123.442 26.2789 
611.806 124.409 25.6168 
611.829 125.157 25.6122 
611.852 125.906 25.6077 
611.875 126.654 25.6031 
611.897 127.403 25.5986 
611.92 128.151 25.594 
611.943 128.9 25.5894 
611.966 129.648 25.5849 
611.988 130.397 25.5803 
612.011 131.145 25.5758 
612.034 131.894 25.5712 
611.308 132.88 24.909 
611.331 133.63 24.9044 
611.354 134.38 24.8999 
611.377 135.13 24.8953 
610.652 136.124 24.233 
610.674 136.875 24.2284 
609.949 137.874 23.5661 
609.972 138.627 23.5616 
609.995 139.38 23.557 
609.27 140.385 22.8946 
609.293 141.14 22.89 
609.316 141.895 22.8854 
608.592 142.906 22.2231 
609.362 143.405 22.8762 
608.638 144.419 22.2139 
608.661 145.175 22.2092 
608.684 145.932 22.2046 
608.707 146.688 22.2 
608.73 147.445 22.1954 
611.371 69.6434 26.0286 
611.394 70.3904 26.024 
611.416 71.1374 26.0195 
611.439 71.8843 26.0149 
611.462 72.6313 26.0104 
611.484 73.3782 26.0058 
611.507 74.1252 26.0013 
611.53 74.8721 25.9967 
611.553 75.6191 25.9922 
611.575 76.366 25.9876 
611.598 77.113 25.9831 
611.621 77.8599 25.9785 
611.643 78.6069 25.974 
611.666 79.3539 25.9694 
611.689 80.1008 25.9649 
611.711 80.8478 25.9603 
611.734 81.5947 25.9558 
611.757 82.3417 25.9512 
611.78 83.0886 25.9466 
611.802 83.8356 25.9421 
611.825 84.5825 25.9375 
611.848 85.3295 25.933 
611.87 86.0764 25.9284 
611.893 86.8234 25.9239 
611.916 87.5704 25.9193 
611.939 88.3173 25.9148 
611.961 89.0643 25.9102 
611.984 89.8112 25.9057 
612.007 90.5582 25.9011 
612.029 91.3051 25.8966 
612.052 92.0521 25.892 
612.075 92.799 25.8875 
612.097 93.546 25.8829 
612.12 94.293 25.8784 
612.143 95.0399 25.8738 
612.166 95.7869 25.8693 
612.188 96.5338 25.8647 
612.211 97.2808 25.8602 
612.234 98.0277 25.8556 
612.256 98.7747 25.8511 
612.279 99.5216 25.8465 
612.302 100.269 25.842 
612.325 101.016 25.8374 
612.347 101.763 25.8329 
612.37 102.509 25.8283 
612.393 103.256 25.8238 
612.415 104.003 25.8192 
611.689 104.928 25.1561 
611.712 105.677 25.1516 
611.735 106.425 25.147 
611.757 107.174 25.1424 
611.78 107.923 25.1379 
611.803 108.671 25.1333 
611.826 109.42 25.1287 
611.848 110.168 25.1242 
611.871 110.917 25.1196 
611.894 111.665 25.1151 
611.917 112.414 25.1105 
611.939 113.162 25.1059 
611.962 113.911 25.1014 
611.985 114.66 25.0968 
612.008 115.408 25.0923 
612.03 116.157 25.0877 
612.053 116.905 25.0831 
612.076 117.654 25.0786 
612.099 118.402 25.074 
612.121 119.151 25.0694 
612.144 119.899 25.0649 
612.167 120.648 25.0603 
612.19 121.396 25.0558 
612.212 122.145 25.0512 
612.235 122.894 25.0466 
612.258 123.642 25.0421 
612.281 124.391 25.0375 
612.303 125.139 25.033 
612.326 125.888 25.0284 
612.349 126.636 25.0238 
612.372 127.385 25.0193 
612.394 128.133 25.0147 
611.67 129.111 24.3513 
611.693 129.861 24.3468 
611.715 130.611 24.3422 
611.738 131.361 24.3376 
611.761 132.111 24.333 
611.784 132.862 24.3285 
611.807 133.612 24.3239 
611.829 134.362 24.3193 
611.105 135.354 23.6558 
611.128 136.106 23.6513 
611.151 136.857 23.6467 
610.427 137.856 22.9832 
610.45 138.609 22.9786 
610.473 139.362 22.974 
610.495 140.116 22.9694 
609.772 141.122 22.3058 
609.795 141.877 22.3012 
609.818 142.632 22.2966 
609.841 143.387 22.292 
609.863 144.141 22.2874 
609.886 144.896 22.2828 
609.163 145.914 21.6192 
609.186 146.67 21.6146 
609.209 147.427 21.61 
611.094 69.7287 24.7912 
611.117 70.4773 24.7866 
611.139 71.2258 24.7821 
611.162 71.9743 24.7775 
611.185 72.7229 24.773 
611.208 73.4714 24.7684 
611.23 74.22 24.7638 
611.253 74.9685 24.7593 
611.276 75.7171 24.7547 
611.299 76.4656 24.7502 
611.322 77.2142 24.7456 
611.344 77.9627 24.741 
611.367 78.7113 24.7365 
611.39 79.4598 24.7319 
611.413 80.2084 24.7274 
612.185 80.8298 25.3822 
612.207 81.5768 25.3777 
612.23 82.3238 25.3731 
612.253 83.0707 25.3686 
612.276 83.8177 25.364 
612.298 84.5646 25.3595 
612.321 85.3116 25.3549 
612.344 86.0585 25.3504 
612.366 86.8055 25.3458 
612.389 87.5525 25.3413 
612.412 88.2994 25.3367 
612.435 89.0464 25.3322 
612.457 89.7933 25.3276 
612.48 90.5403 25.3231 
611.754 91.4366 24.6589 
611.777 92.1851 24.6544 
611.799 92.9337 24.6498 
611.822 93.6822 24.6452 
611.845 94.4308 24.6407 
611.868 95.1793 24.6361 
611.89 95.9279 24.6316 
611.913 96.6764 24.627 
611.936 97.425 24.6224 
611.959 98.1735 24.6179 
611.981 98.9221 24.6133 
612.004 99.6706 24.6088 
612.027 100.419 24.6042 
612.05 101.168 24.5996 
612.072 101.916 24.5951 
612.095 102.665 24.5905 
612.118 103.413 24.5859 
612.141 104.162 24.5814 
612.163 104.91 24.5768 
612.186 105.659 24.5723 
612.209 106.408 24.5677 
612.232 107.156 24.5631 
612.254 107.905 24.5586 
612.277 108.653 24.554 
612.3 109.402 24.5495 
612.323 110.15 24.5449 
612.345 110.899 24.5403 
611.621 111.84 23.8759 
611.643 112.59 23.8714 
611.666 113.34 23.8668 
611.689 114.09 23.8622 
611.712 114.84 23.8576 
611.735 115.59 23.8531 
611.757 116.341 23.8485 
611.78 117.091 23.8439 
611.803 117.841 23.8394 
611.826 118.591 23.8348 
611.849 119.341 23.8302 
611.871 120.091 23.8257 
611.894 120.841 23.8211 
611.917 121.592 23.8165 
611.94 122.342 23.8119 
611.963 123.092 23.8074 
611.985 123.842 23.8028 
612.008 124.592 23.7982 
612.031 125.342 23.7937 
612.054 126.092 23.7891 
612.077 126.843 23.7845 
612.099 127.593 23.7799 
612.122 128.343 23.7754 
612.145 129.093 23.7708 
612.168 129.843 23.7662 
612.191 130.593 23.7617 
612.213 131.343 23.7571 
611.49 132.329 23.0924 
611.513 133.081 23.0878 
611.536 133.832 23.0832 
611.559 134.584 23.0787 
611.581 135.336 23.0741 
611.604 136.088 23.0695 
610.881 137.084 22.4048 
610.904 137.838 22.4002 
610.927 138.591 22.3956 
610.95 139.344 22.391 
610.973 140.097 22.3864 
610.25 141.104 21.7216 
610.273 141.859 21.717 
610.296 142.614 21.7124 
610.319 143.368 21.7078 
610.342 144.123 21.7032 
610.365 144.878 21.6986 
609.642 145.896 21.0337 
609.665 146.652 21.0291 
609.688 147.409 21.0245 
611.568 69.7108 24.2119 
611.591 70.4593 24.2074 
611.614 71.2078 24.2028 
611.637 71.9564 24.1982 
611.659 72.7049 24.1937 
611.682 73.4535 24.1891 
611.705 74.202 24.1845 
611.728 74.9506 24.18 
611.75 75.6991 24.1754 
611.773 76.4477 24.1709 
611.796 77.1962 24.1663 
611.819 77.9448 24.1617 
611.841 78.6933 24.1572 
611.864 79.4419 24.1526 
611.887 80.1904 24.1481 
611.91 80.939 24.1435 
611.932 81.6875 24.1389 
611.955 82.4361 24.1344 
611.978 83.1846 24.1298 
612.001 83.9332 24.1252 
612.023 84.6817 24.1207 
612.046 85.4303 24.1161 
612.069 86.1788 24.1116 
612.092 86.9274 24.107 
612.114 87.6759 24.1024 
612.137 88.4245 24.0979 
612.16 89.173 24.0933 
612.183 89.9215 24.0888 
612.205 90.6701 24.0842 
612.228 91.4186 24.0796 
612.251 92.1672 24.0751 
612.274 92.9157 24.0705 
612.296 93.6643 24.0659 
612.319 94.4128 24.0614 
612.342 95.1614 24.0568 
612.365 95.9099 24.0523 
612.387 96.6585 24.0477 
612.41 97.407 24.0431 
612.433 98.1556 24.0386 
612.456 98.9041 24.034 
611.731 99.8195 23.3685 
611.754 100.57 23.364 
611.777 101.32 23.3594 
611.8 102.07 23.3548 
611.822 102.82 23.3503 
611.845 103.57 23.3457 
611.868 104.32 23.3411 
611.891 105.07 23.3365 
611.914 105.821 23.332 
611.936 106.571 23.3274 
611.959 107.321 23.3228 
611.982 108.071 23.3183 
612.005 108.821 23.3137 
612.028 109.571 23.3091 
612.05 110.321 23.3046 
612.073 111.072 23.3 
612.096 111.822 23.2954 
612.119 112.572 23.2908 
612.142 113.322 23.2863 
612.164 114.072 23.2817 
612.187 114.822 23.2771 
612.21 115.572 23.2726 
612.233 116.323 23.268 
612.255 117.073 23.2634 
612.278 117.823 23.2588 
612.301 118.573 23.2543 
612.324 119.323 23.2497 
612.347 120.073 23.2451 
612.37 120.823 23.2406 
612.392 121.574 23.236 
