ply
format ascii 1.0
comment Created by CloudCompare v2.11 alpha (Anoia)
comment Created 17/05/2019 19:18
obj_info Generated by CloudCompare!
element vertex 1937
property float x
property float y
property float z
end_header
602.44 40.8166 36.0331 
602.462 41.5636 36.0286 
602.485 42.3106 36.024 
602.508 43.0575 36.0195 
602.53 43.8045 36.0149 
602.553 44.5514 36.0104 
602.576 45.2984 36.0058 
603.368 45.9924 36.6381 
603.391 46.7378 36.6335 
603.414 47.4832 36.629 
604.976 48.1132 37.8981 
605.768 48.7961 38.5304 
606.561 49.4758 39.1628 
607.353 50.1524 39.7951 
608.914 50.7617 41.0644 
610.476 51.3646 42.3336 
611.267 52.0284 42.9661 
612.059 52.689 43.5985 
612.851 53.3465 44.231 
612.873 54.0727 44.2266 
612.895 54.799 44.2221 
613.686 55.45 44.8547 
613.708 56.1747 44.8503 
613.73 56.8993 44.8458 
613.752 57.624 44.8414 
613.774 58.3487 44.837 
613.796 59.0733 44.8326 
613.818 59.798 44.8282 
613.84 60.5226 44.8238 
613.862 61.2473 44.8193 
613.884 61.972 44.8149 
613.906 62.6966 44.8105 
613.928 63.4213 44.8061 
613.182 64.2402 44.1646 
613.204 64.9665 44.1602 
613.226 65.6927 44.1558 
613.248 66.419 44.1513 
613.27 67.1452 44.1469 
613.292 67.8715 44.1425 
613.314 68.5977 44.1381 
613.336 69.324 44.1336 
613.358 70.0502 44.1292 
613.38 70.7765 44.1248 
613.402 71.5027 44.1204 
613.424 72.229 44.1159 
612.678 73.0686 43.4743 
612.701 73.7965 43.4699 
612.723 74.5243 43.4655 
612.745 75.2522 43.461 
612.767 75.98 43.4566 
612.789 76.7079 43.4522 
612.811 77.4357 43.4477 
612.066 78.2881 42.806 
612.088 79.0175 42.8016 
612.11 79.747 42.7972 
612.132 80.4764 42.7927 
612.154 81.2059 42.7883 
611.409 82.0678 42.1465 
611.431 82.7988 42.1421 
611.453 83.5299 42.1376 
611.476 84.2609 42.1332 
611.498 84.9919 42.1287 
611.52 85.723 42.1243 
611.542 86.454 42.1198 
611.564 87.185 42.1154 
611.587 87.916 42.1109 
610.842 88.7939 41.4691 
610.864 89.5266 41.4646 
610.886 90.2592 41.4602 
610.909 90.9918 41.4557 
610.931 91.7244 41.4512 
610.186 92.6119 40.8093 
610.209 93.3461 40.8049 
609.464 94.2383 40.1629 
608.72 95.1337 39.521 
608.742 95.8711 39.5165 
607.998 96.7713 38.8745 
607.254 97.6747 38.2326 
606.51 98.5812 37.5906 
605.766 99.491 36.9485 
605.789 100.235 36.944 
605.045 101.149 36.3019 
605.068 101.895 36.2974 
605.09 102.64 36.2929 
605.113 103.385 36.2883 
602.913 40.7987 35.4551 
602.936 41.5457 35.4505 
603.727 42.2478 36.0839 
602.981 43.0396 35.4414 
603.773 43.7385 36.0749 
603.795 44.4838 36.0703 
603.818 45.2292 36.0658 
603.841 45.9746 36.0612 
604.632 46.6655 36.6947 
604.655 47.4092 36.6902 
605.446 48.0954 37.3237 
606.238 48.7783 37.9573 
607.029 49.4581 38.5909 
608.589 50.0723 39.8625 
609.379 50.7441 40.4962 
610.939 51.3471 41.7679 
611.73 52.0109 42.4016 
611.752 52.7404 42.3971 
612.542 53.3994 43.0308 
613.333 54.0553 43.6645 
613.355 54.7816 43.6601 
613.377 55.5078 43.6557 
613.399 56.2341 43.6513 
613.421 56.9603 43.6468 
613.443 57.6866 43.6424 
613.465 58.4128 43.638 
613.487 59.1391 43.6336 
613.509 59.8653 43.6291 
613.531 60.5916 43.6247 
613.554 61.3178 43.6203 
613.576 62.0441 43.6159 
613.598 62.7703 43.6114 
613.62 63.4966 43.607 
613.642 64.2228 43.6026 
613.664 64.9491 43.5982 
613.686 65.6753 43.5937 
613.708 66.4016 43.5893 
613.73 67.1278 43.5849 
613.752 67.8541 43.5805 
613.774 68.5803 43.576 
613.796 69.3066 43.5716 
613.051 70.1398 42.9288 
613.073 70.8677 42.9244 
613.095 71.5955 42.9199 
613.117 72.3233 42.9155 
613.14 73.0512 42.9111 
613.162 73.779 42.9066 
613.184 74.5069 42.9022 
612.439 75.3529 42.2593 
612.461 76.0823 42.2549 
612.483 76.8118 42.2504 
612.506 77.5412 42.246 
612.528 78.2706 42.2415 
612.55 79.0001 42.2371 
611.805 79.8572 41.5942 
611.828 80.5882 41.5897 
611.85 81.3193 41.5853 
611.872 82.0503 41.5808 
611.894 82.7813 41.5764 
611.917 83.5123 41.5719 
611.939 84.2434 41.5674 
611.195 85.1133 40.9244 
611.217 85.8459 40.92 
611.239 86.5785 40.9155 
611.261 87.3111 40.911 
611.284 88.0437 40.9066 
611.306 88.7764 40.9021 
611.328 89.509 40.8977 
610.585 90.3916 40.2546 
610.607 91.1258 40.2501 
610.629 91.86 40.2456 
610.651 92.5943 40.2411 
609.908 93.4848 39.598 
609.93 94.2206 39.5935 
609.187 95.116 38.9503 
608.444 96.0146 38.3072 
608.466 96.7536 38.3027 
607.723 97.6569 37.6594 
606.98 98.5634 37.0162 
607.003 99.3056 37.0117 
606.26 100.217 36.3684 
606.283 100.961 36.3639 
606.305 101.704 36.3593 
605.562 102.622 35.716 
606.35 103.192 36.3503 
606.373 103.936 36.3457 
603.409 41.5278 34.8725 
604.2 42.2299 35.5071 
604.222 42.9752 35.5026 
604.245 43.7206 35.498 
605.036 44.4163 36.1327 
605.058 45.1601 36.1282 
605.081 45.9039 36.1237 
605.871 46.5932 36.7584 
605.894 47.3354 36.7539 
606.684 48.02 37.3887 
607.474 48.7014 38.0235 
608.265 49.3796 38.6583 
609.055 50.0546 39.2931 
609.845 50.7265 39.928 
611.402 51.3296 41.2022 
612.192 51.9935 41.8371 
612.214 52.7229 41.8326 
613.003 53.382 42.4676 
613.026 54.1098 42.4631 
613.048 54.8377 42.4587 
613.07 55.5655 42.4543 
613.859 56.2167 43.0892 
613.881 56.9429 43.0848 
613.903 57.6692 43.0804 
613.925 58.3954 43.0759 
613.948 59.1217 43.0715 
613.97 59.8479 43.0671 
613.992 60.5742 43.0627 
614.014 61.3004 43.0582 
614.036 62.0267 43.0538 
614.058 62.7529 43.0494 
614.08 63.4792 43.045 
614.102 64.2054 43.0405 
614.124 64.9317 43.0361 
613.38 65.7553 42.3922 
613.402 66.4832 42.3877 
613.424 67.211 42.3833 
613.446 67.9388 42.3789 
613.468 68.6667 42.3744 
613.49 69.3945 42.37 
613.512 70.1224 42.3655 
613.534 70.8502 42.3611 
613.557 71.5781 42.3567 
612.813 72.4177 41.7126 
612.835 73.1471 41.7082 
612.857 73.8765 41.7037 
612.879 74.606 41.6993 
612.901 75.3354 41.6948 
612.923 76.0648 41.6904 
612.18 76.9156 41.0463 
612.202 77.6466 41.0418 
612.224 78.3776 41.0373 
612.246 79.1087 41.0329 
612.269 79.8397 41.0284 
612.291 80.5707 41.024 
612.313 81.3017 41.0195 
611.57 82.1652 40.3753 
611.592 82.8978 40.3709 
611.614 83.6304 40.3664 
611.637 84.3631 40.3619 
611.659 85.0957 40.3575 
611.681 85.8283 40.353 
611.703 86.5609 40.3485 
610.961 87.4372 39.7042 
610.983 88.1714 39.6998 
611.005 88.9056 39.6953 
611.027 89.6398 39.6908 
611.05 90.374 39.6864 
611.072 91.1082 39.6819 
610.33 91.9956 39.0375 
610.352 92.7314 39.033 
610.374 93.4672 39.0286 
609.632 94.3609 38.3842 
609.654 95.0983 38.3797 
608.912 95.9969 37.7353 
608.935 96.7358 37.7308 
608.192 97.6391 37.0863 
608.215 98.3797 37.0818 
607.473 99.2878 36.4373 
607.496 100.03 36.4328 
606.754 100.943 35.7883 
607.541 101.514 36.4237 
606.799 102.43 35.7792 
606.822 103.174 35.7747 
606.844 103.918 35.7702 
606.867 104.662 35.7656 
604.627 40.7213 34.9394 
604.649 41.4666 34.9348 
604.672 42.212 34.9303 
604.695 42.9574 34.9257 
605.484 43.6547 35.5617 
605.507 44.3985 35.5571 
606.297 45.0911 36.1931 
606.319 45.8333 36.1886 
606.342 46.5754 36.1841 
607.131 47.2617 36.82 
607.92 47.9447 37.4561 
608.71 48.6245 38.0921 
609.499 49.3012 38.7282 
610.288 49.9747 39.3642 
611.076 50.6449 40.0003 
611.865 51.312 40.6364 
611.887 52.0431 40.632 
612.676 52.7054 41.2681 
612.698 53.4348 41.2637 
612.72 54.1643 41.2592 
613.509 54.8202 41.8954 
613.531 55.5481 41.891 
613.553 56.2759 41.8866 
613.575 57.0037 41.8821 
613.597 57.7316 41.8777 
613.62 58.4594 41.8732 
613.642 59.1873 41.8688 
613.664 59.9151 41.8644 
613.686 60.643 41.8599 
613.708 61.3708 41.8555 
613.73 62.0987 41.8511 
613.752 62.8265 41.8466 
613.774 63.5543 41.8422 
613.797 64.2822 41.8378 
613.819 65.01 41.8333 
613.841 65.7379 41.8289 
613.863 66.4657 41.8245 
613.885 67.1936 41.82 
613.142 68.0235 41.1748 
613.164 68.753 41.1703 
613.186 69.4824 41.1659 
613.208 70.2119 41.1614 
613.23 70.9413 41.157 
613.253 71.6707 41.1525 
613.275 72.4002 41.1481 
613.297 73.1296 41.1437 
612.554 73.9739 40.4983 
612.576 74.705 40.4939 
612.599 75.436 40.4894 
612.621 76.167 40.485 
612.643 76.898 40.4805 
612.665 77.6291 40.4761 
612.687 78.3601 40.4716 
612.71 79.0911 40.4672 
612.732 79.8222 40.4627 
611.99 80.6824 39.8173 
612.012 81.415 39.8128 
612.034 82.1477 39.8084 
612.056 82.8803 39.8039 
612.079 83.6129 39.7994 
611.336 84.4827 39.1539 
611.359 85.2169 39.1495 
611.381 85.9511 39.145 
611.403 86.6853 39.1405 
611.426 87.4196 39.136 
611.448 88.1538 39.1316 
611.47 88.888 39.1271 
610.729 89.7705 38.4816 
610.751 90.5063 38.4771 
610.773 91.2421 38.4726 
610.796 91.9779 38.4681 
610.054 92.8685 37.8225 
610.077 93.6059 37.818 
610.099 94.3433 37.8135 
610.122 95.0807 37.809 
609.38 95.9791 37.1634 
609.403 96.7181 37.1589 
608.662 97.6214 36.5132 
608.684 98.362 36.5086 
608.707 99.1026 36.5041 
607.966 100.012 35.8584 
607.988 100.754 35.8539 
608.011 101.497 35.8494 
608.034 102.239 35.8449 
607.293 103.156 35.1991 
607.316 103.9 35.1946 
607.338 104.644 35.19 
605.099 40.7034 34.3625 
605.888 41.4056 34.9997 
605.91 42.1494 34.9952 
606.699 42.8468 35.6323 
606.722 43.5889 35.6278 
606.744 44.3311 35.6233 
606.767 45.0733 35.6187 
607.555 45.7627 36.2559 
607.578 46.5033 36.2514 
608.366 47.188 36.8887 
609.154 47.8694 37.5259 
609.177 48.6068 37.5214 
609.965 49.2835 38.1587 
610.753 49.9571 38.796 
610.775 50.6913 38.7916 
611.563 51.36 39.4289 
612.351 52.0256 40.0662 
612.373 52.7566 40.0618 
613.16 53.4173 40.6992 
613.183 54.1468 40.6947 
613.205 54.8762 40.6903 
613.227 55.6057 40.6858 
613.249 56.3351 40.6814 
613.271 57.0645 40.6769 
613.294 57.794 40.6725 
613.316 58.5234 40.6681 
613.338 59.2528 40.6636 
613.36 59.9823 40.6592 
613.382 60.7117 40.6547 
613.404 61.4411 40.6503 
613.427 62.1706 40.6458 
613.449 62.9 40.6414 
613.471 63.6294 40.6369 
613.493 64.3589 40.6325 
613.515 65.0883 40.628 
613.537 65.8178 40.6236 
613.56 66.5472 40.6192 
613.582 67.2766 40.6147 
613.604 68.0061 40.6103 
613.626 68.7355 40.6058 
613.648 69.4649 40.6014 
612.906 70.3013 39.9549 
612.928 71.0323 39.9504 
612.951 71.7633 39.946 
612.973 72.4943 39.9415 
612.995 73.2254 39.9371 
613.017 73.9564 39.9326 
613.039 74.6874 39.9282 
613.062 75.4185 39.9237 
613.084 76.1495 39.9192 
612.342 77.0017 39.2726 
612.365 77.7344 39.2682 
612.387 78.467 39.2637 
612.409 79.1996 39.2593 
612.431 79.9322 39.2548 
612.454 80.6648 39.2503 
612.476 81.3975 39.2459 
611.735 82.2625 38.5992 
611.757 82.9967 38.5947 
611.779 83.7309 38.5902 
611.802 84.4651 38.5857 
611.824 85.1993 38.5813 
611.846 85.9335 38.5768 
611.869 86.6677 38.5723 
611.128 87.5455 37.9256 
611.15 88.2813 37.9211 
611.172 89.0171 37.9166 
611.195 89.7529 37.9121 
611.217 90.4887 37.9076 
610.477 91.376 37.2608 
610.499 92.1134 37.2563 
610.522 92.8508 37.2518 
610.544 93.5882 37.2473 
610.566 94.3256 37.2428 
609.826 95.2224 36.596 
609.849 95.9614 36.5915 
609.871 96.7004 36.587 
609.893 97.4394 36.5825 
609.154 98.3442 35.9355 
609.176 99.0848 35.931 
609.198 99.8254 35.9265 
608.459 100.737 35.2795 
608.481 101.479 35.275 
608.504 102.221 35.2705 
608.526 102.963 35.266 
608.549 103.705 35.2614 
607.809 104.626 34.6144 
607.832 105.37 34.6099 
607.855 106.114 34.6054 
607.115 107.041 33.9583 
604.783 39.9801 33.1474 
606.336 40.644 34.4286 
606.359 41.3878 34.4241 
607.147 42.0868 35.0625 
607.169 42.829 35.0579 
607.192 43.5711 35.0534 
607.979 44.2638 35.6918 
608.002 45.0044 35.6873 
608.789 45.6923 36.3258 
608.812 46.4313 36.3213 
608.834 47.1703 36.3168 
609.622 47.8518 36.9553 
610.409 48.5301 37.5938 
610.431 49.2659 37.5893 
611.218 49.9395 38.2278 
611.24 50.6737 38.2234 
612.027 51.3424 38.8619 
612.049 52.0751 38.8575 
612.836 52.7391 39.4961 
612.858 53.4701 39.4916 
612.881 54.2011 39.4871 
612.903 54.9321 39.4827 
612.925 55.6632 39.4782 
612.947 56.3942 39.4738 
613.734 57.047 40.1124 
613.756 57.7765 40.108 
613.778 58.5059 40.1035 
613.8 59.2353 40.0991 
613.822 59.9648 40.0947 
613.844 60.6942 40.0902 
613.867 61.4237 40.0858 
613.889 62.1531 40.0813 
613.911 62.8825 40.0769 
613.933 63.612 40.0724 
613.955 64.3414 40.068 
613.214 65.1665 39.4203 
613.236 65.8976 39.4159 
613.258 66.6286 39.4114 
613.28 67.3596 39.407 
613.303 68.0906 39.4025 
613.325 68.8217 39.3981 
613.347 69.5527 39.3936 
613.369 70.2837 39.3891 
613.392 71.0148 39.3847 
613.414 71.7458 39.3802 
613.436 72.4768 39.3758 
613.458 73.2078 39.3713 
612.717 74.0537 38.7235 
612.74 74.7863 38.7191 
612.762 75.5189 38.7146 
612.784 76.2515 38.7101 
612.807 76.9842 38.7057 
612.829 77.7168 38.7012 
612.851 78.4494 38.6968 
612.111 79.308 38.0489 
612.133 80.0422 38.0444 
612.155 80.7764 38.0399 
612.178 81.5106 38.0354 
612.2 82.2449 38.031 
612.222 82.9791 38.0265 
612.245 83.7133 38.022 
611.505 84.5846 37.3741 
611.527 85.3204 37.3696 
611.549 86.0562 37.3651 
611.572 86.792 37.3606 
611.594 87.5278 37.3561 
611.616 88.2636 37.3517 
611.639 88.9994 37.3472 
610.899 89.8835 36.6991 
610.922 90.6209 36.6946 
610.944 91.3583 36.6901 
610.966 92.0957 36.6856 
610.989 92.8331 36.6812 
611.011 93.5705 36.6767 
611.034 94.3079 36.6722 
610.294 95.2047 36.0241 
610.317 95.9437 36.0196 
610.339 96.6827 36.0151 
610.362 97.4217 36.0106 
609.623 98.3265 35.3624 
609.645 99.067 35.3579 
609.668 99.8076 35.3534 
609.69 100.548 35.3489 
608.952 101.461 34.7006 
608.974 102.203 34.6961 
608.997 102.945 34.6916 
609.019 103.687 34.6871 
608.281 104.608 34.0388 
608.303 105.352 34.0343 
607.565 106.277 33.386 
607.588 107.023 33.3815 
606.088 108.138 32.0894 
605.35 109.073 31.441 
603.852 110.199 30.1489 
602.353 111.332 28.8567 
603.705 39.2919 31.2856 
605.257 39.9622 32.5693 
607.617 42.069 34.4881 
608.404 42.7649 35.1277 
608.426 43.5055 35.1232 
608.449 44.2461 35.1187 
609.235 44.9356 35.7584 
609.258 45.6746 35.7539 
610.044 46.3593 36.3936 
610.066 47.0967 36.3891 
610.089 47.8341 36.3846 
610.875 48.5125 37.0243 
610.897 49.2483 37.0199 
611.683 49.9218 37.6596 
611.706 50.6561 37.6552 
612.491 51.3249 38.295 
612.514 52.0575 38.2905 
612.536 52.7901 38.286 
613.321 53.4526 38.9259 
613.344 54.1836 38.9214 
613.366 54.9146 38.917 
613.388 55.6456 38.9125 
613.41 56.3767 38.9081 
613.433 57.1077 38.9036 
613.455 57.8387 38.8991 
613.477 58.5697 38.8947 
613.499 59.3008 38.8902 
613.522 60.0318 38.8858 
613.544 60.7628 38.8813 
613.566 61.4939 38.8769 
613.588 62.2249 38.8724 
613.61 62.9559 38.868 
613.633 63.687 38.8635 
613.655 64.418 38.859 
613.677 65.149 38.8546 
613.699 65.88 38.8501 
613.721 66.6111 38.8457 
613.744 67.3421 38.8412 
613.766 68.0731 38.8368 
613.026 68.9078 38.1878 
613.048 69.6404 38.1834 
613.07 70.373 38.1789 
613.093 71.1056 38.1744 
613.115 71.8383 38.17 
613.137 72.5709 38.1655 
613.159 73.3035 38.161 
613.182 74.0361 38.1566 
613.204 74.7687 38.1521 
612.464 75.6193 37.503 
612.487 76.3535 37.4986 
612.509 77.0878 37.4941 
612.531 77.822 37.4896 
612.554 78.5562 37.4851 
612.576 79.2904 37.4807 
612.598 80.0246 37.4762 
612.621 80.7588 37.4717 
611.881 81.6237 36.8226 
611.904 82.3595 36.8181 
611.926 83.0954 36.8136 
611.948 83.8312 36.8091 
611.971 84.567 36.8046 
611.993 85.3028 36.8002 
612.016 86.0386 36.7957 
612.038 86.7744 36.7912 
611.299 87.6536 36.1419 
611.322 88.391 36.1375 
611.344 89.1284 36.133 
611.366 89.8658 36.1285 
611.389 90.6032 36.124 
611.411 91.3406 36.1195 
611.434 92.078 36.115 
611.456 92.8154 36.1105 
610.718 93.709 35.4612 
610.74 94.448 35.4567 
610.763 95.187 35.4522 
610.785 95.926 35.4477 
610.808 96.665 35.4432 
610.83 97.404 35.4387 
610.852 98.143 35.4342 
610.115 99.0493 34.7847 
610.137 99.7899 34.7802 
610.16 100.53 34.7757 
609.422 101.443 34.1263 
609.444 102.185 34.1218 
609.467 102.928 34.1172 
609.489 103.67 34.1127 
608.752 104.59 33.4632 
608.775 105.334 33.4587 
608.037 106.26 32.8092 
607.3 107.188 32.1597 
606.563 108.12 31.5101 
605.066 109.241 30.2155 
603.569 110.369 28.9209 
602.073 111.503 27.6262 
601.336 112.453 26.9765 
604.181 39.274 30.7051 
605.73 39.9443 31.9913 
607.279 40.6083 33.2774 
608.065 41.309 33.9183 
608.85 42.0065 34.5591 
608.873 42.7471 34.5546 
609.659 43.4399 35.1955 
609.681 44.1789 35.191 
610.466 44.8668 35.8319 
610.489 45.6042 35.8274 
610.511 46.3416 35.8229 
610.534 47.079 35.8184 
611.319 47.759 36.4594 
611.341 48.4948 36.4549 
612.126 49.17 37.0959 
612.148 49.9042 37.0914 
612.171 50.6385 37.087 
612.193 51.3727 37.0825 
612.978 52.0399 37.7235 
613 52.7725 37.7191 
613.022 53.5052 37.7146 
613.045 54.2378 37.7101 
613.067 54.9704 37.7057 
613.089 55.703 37.7012 
613.111 56.4357 37.6967 
613.134 57.1683 37.6923 
613.156 57.9009 37.6878 
613.178 58.6335 37.6834 
613.201 59.3661 37.6789 
613.223 60.0988 37.6744 
613.245 60.8314 37.67 
613.267 61.564 37.6655 
613.29 62.2966 37.661 
613.312 63.0292 37.6566 
613.334 63.7619 37.6521 
613.356 64.4945 37.6476 
613.379 65.2271 37.6432 
613.401 65.9597 37.6387 
613.423 66.6923 37.6342 
613.445 67.425 37.6298 
613.468 68.1576 37.6253 
613.49 68.8902 37.6209 
613.512 69.6228 37.6164 
613.535 70.3555 37.6119 
612.796 71.1964 36.9617 
612.818 71.9307 36.9572 
612.84 72.6649 36.9527 
612.863 73.3991 36.9483 
612.885 74.1333 36.9438 
612.907 74.8675 36.9393 
612.93 75.6017 36.9348 
612.952 76.3359 36.9304 
612.974 77.0702 36.9259 
612.996 77.8044 36.9214 
612.258 78.6629 36.2711 
612.28 79.3987 36.2666 
612.303 80.1345 36.2621 
612.325 80.8703 36.2576 
612.348 81.6061 36.2531 
612.37 82.3419 36.2487 
612.392 83.0777 36.2442 
612.415 83.8135 36.2397 
611.677 84.6864 35.5893 
611.699 85.4238 35.5848 
611.721 86.1612 35.5803 
611.744 86.8986 35.5758 
611.766 87.636 35.5713 
611.789 88.3734 35.5668 
611.811 89.1108 35.5623 
611.834 89.8482 35.5578 
611.096 90.7353 34.9073 
611.119 91.4743 34.9028 
611.141 92.2133 34.8983 
611.163 92.9523 34.8938 
611.186 93.6913 34.8893 
611.208 94.4303 34.8848 
611.231 95.1693 34.8803 
611.253 95.9083 34.8758 
611.276 96.6473 34.8713 
610.539 97.5504 34.2206 
610.561 98.2909 34.2161 
610.584 99.0315 34.2116 
610.606 99.7721 34.2071 
610.629 100.513 34.2026 
609.892 101.425 33.5519 
609.915 102.168 33.5474 
609.937 102.91 33.5429 
609.201 103.829 32.8922 
609.223 104.573 32.8876 
608.487 105.496 32.2369 
607.751 106.423 31.5861 
607.014 107.353 30.9354 
606.278 108.287 30.2846 
604.783 109.41 28.9875 
603.289 110.539 27.6904 
601.794 111.675 26.3933 
601.059 112.626 25.7424 
599.565 113.773 24.4452 
598.829 114.731 23.7942 
596.177 36.6061 23.031 
598.488 37.2734 24.9659 
600.798 37.931 26.901 
604.656 39.256 30.1246 
606.203 39.9264 31.4132 
607.75 40.5905 32.7018 
609.297 41.2482 33.9905 
609.32 41.9888 33.986 
610.104 42.6832 34.6281 
610.889 43.3743 35.2702 
610.911 44.1117 35.2657 
610.934 44.8491 35.2612 
611.718 45.5339 35.9034 
611.74 46.2698 35.8989 
611.763 47.0056 35.8945 
611.785 47.7414 35.89 
611.807 48.4772 35.8855 
612.591 49.1524 36.5277 
612.614 49.8866 36.5232 
612.636 50.6209 36.5188 
612.658 51.3551 36.5143 
612.681 52.0893 36.5098 
612.703 52.8235 36.5053 
612.725 53.5577 36.5009 
613.509 54.2202 37.1432 
613.531 54.9528 37.1387 
613.553 55.6855 37.1342 
613.576 56.4181 37.1298 
613.598 57.1507 37.1253 
613.62 57.8833 37.1208 
613.642 58.6159 37.1164 
613.665 59.3486 37.1119 
613.687 60.0812 37.1075 
613.709 60.8138 37.103 
613.732 61.5464 37.0985 
613.754 62.2791 37.0941 
613.776 63.0117 37.0896 
613.038 63.8367 36.4382 
613.06 64.5709 36.4337 
613.082 65.3051 36.4293 
613.105 66.0393 36.4248 
613.127 66.7736 36.4203 
613.149 67.5078 36.4158 
613.172 68.242 36.4114 
613.194 68.9762 36.4069 
613.216 69.7104 36.4024 
613.239 70.4446 36.398 
613.261 71.1788 36.3935 
613.283 71.9131 36.389 
613.305 72.6473 36.3845 
613.328 73.3815 36.3801 
613.35 74.1157 36.3756 
612.612 74.9662 35.7241 
612.635 75.702 35.7196 
612.657 76.4378 35.7151 
612.68 77.1736 35.7106 
612.702 77.9094 35.7061 
612.724 78.6452 35.7016 
612.747 79.381 35.6972 
612.769 80.1168 35.6927 
612.791 80.8527 35.6882 
612.054 81.7191 35.0366 
612.077 82.4565 35.0321 
612.099 83.1939 35.0276 
612.122 83.9313 35.0231 
612.144 84.6687 35.0186 
612.166 85.4061 35.0141 
612.189 86.1435 35.0096 
612.211 86.8809 35.0051 
612.234 87.6183 35.0006 
611.497 88.5006 34.3489 
611.519 89.2396 34.3444 
611.542 89.9786 34.3399 
611.564 90.7176 34.3354 
611.587 91.4566 34.3309 
611.609 92.1956 34.3264 
611.632 92.9346 34.3219 
611.654 93.6736 34.3174 
610.918 94.5703 33.6656 
610.94 95.3109 33.661 
610.963 96.0514 33.6565 
610.985 96.792 33.652 
611.008 97.5326 33.6475 
611.031 98.2732 33.643 
611.053 99.0138 33.6385 
611.076 99.7544 33.634 
610.34 100.665 32.9821 
610.362 101.408 32.9776 
610.385 102.15 32.973 
610.407 102.892 32.9685 
609.672 103.811 32.3166 
608.936 104.733 31.6646 
608.959 105.478 31.6601 
608.224 106.405 31.0081 
607.489 107.336 30.3561 
605.996 108.454 29.0566 
604.503 109.578 27.757 
603.01 110.709 26.4575 
601.518 111.846 25.1578 
600.783 112.799 24.5057 
600.049 113.754 23.8535 
598.557 114.907 22.5538 
597.823 115.871 21.9016 
586.668 33.8482 14.0351 
596.664 36.5877 22.4369 
598.971 37.2551 24.3755 
600.517 37.9479 25.6665 
602.824 38.5977 27.6052 
606.676 39.9085 30.8351 
608.222 40.5727 32.1262 
609.766 41.2304 33.4174 
610.55 41.9264 34.0607 
610.573 42.6654 34.0562 
612.117 43.3089 35.3474 
611.378 44.0941 34.6951 
612.162 44.7805 35.3385 
612.184 45.5163 35.334 
612.206 46.2521 35.3295 
612.229 46.9879 35.325 
612.251 47.7237 35.3205 
613.034 48.4006 35.964 
613.057 49.1348 35.9595 
613.079 49.869 35.955 
613.101 50.6033 35.9506 
613.123 51.3375 35.9461 
613.146 52.0717 35.9416 
613.168 52.8059 35.9371 
613.19 53.5401 35.9327 
613.213 54.2743 35.9282 
613.235 55.0085 35.9237 
613.257 55.7427 35.9192 
613.28 56.477 35.9148 
613.302 57.2112 35.9103 
613.324 57.9454 35.9058 
613.347 58.6796 35.9013 
613.369 59.4138 35.8969 
613.391 60.148 35.8924 
613.414 60.8822 35.8879 
613.436 61.6165 35.8834 
613.458 62.3507 35.879 
613.481 63.0849 35.8745 
613.503 63.8191 35.87 
613.525 64.5533 35.8655 
613.547 65.2875 35.8611 
613.57 66.0217 35.8566 
613.592 66.756 35.8521 
613.614 67.4902 35.8476 
613.637 68.2244 35.8432 
612.9 69.0621 35.1905 
612.922 69.7979 35.186 
612.945 70.5337 35.1815 
612.967 71.2695 35.1771 
612.989 72.0053 35.1726 
613.012 72.7411 35.1681 
613.034 73.477 35.1636 
613.056 74.2128 35.1591 
613.079 74.9486 35.1546 
613.101 75.6844 35.1501 
613.123 76.4202 35.1457 
613.146 77.156 35.1412 
613.168 77.8918 35.1367 
612.432 78.7518 34.4839 
612.454 79.4892 34.4794 
612.477 80.2266 34.4749 
612.499 80.964 34.4704 
612.522 81.7014 34.4659 
612.544 82.4388 34.4614 
612.566 83.1762 34.4569 
612.589 83.9136 34.4524 
612.611 84.651 34.4479 
612.634 85.3884 34.4434 
611.898 86.2659 33.7905 
611.92 87.0049 33.786 
611.943 87.7439 33.7815 
611.965 88.4829 33.777 
611.988 89.2219 33.7725 
612.01 89.9609 33.768 
612.033 90.6999 33.7635 
611.297 91.5902 33.1105 
611.32 92.3308 33.106 
611.342 93.0714 33.1015 
611.365 93.8119 33.0969 
611.387 94.5525 33.0924 
611.41 95.2931 33.0879 
611.432 96.0337 33.0834 
611.455 96.7743 33.0789 
610.72 97.6789 32.4258 
610.742 98.4211 32.4213 
610.765 99.1632 32.4168 
610.787 99.9054 32.4122 
610.81 100.648 32.4077 
610.833 101.39 32.4032 
610.855 102.132 32.3987 
610.121 103.049 31.7455 
610.143 103.793 31.741 
609.409 104.715 31.0878 
608.674 105.641 30.4346 
607.94 106.569 29.7813 
607.206 107.501 29.1281 
605.715 108.62 27.8261 
604.224 109.746 26.5241 
603.491 110.691 25.8708 
602 111.828 24.5687 
600.51 112.971 23.2666 
599.777 113.929 22.6132 
599.044 114.889 21.9597 
598.31 115.853 21.3063 
595.606 35.8621 20.5495 
597.15 36.5693 21.8428 
598.694 37.2702 23.1361 
600.999 37.9297 25.0785 
603.303 38.5796 27.021 
604.846 39.2582 28.3145 
607.15 39.8906 30.2571 
609.453 40.5135 32.1997 
610.996 41.1697 33.4933 
611.018 41.9087 33.4888 
611.801 42.6016 34.1334 
612.583 43.2912 34.778 
612.606 44.0271 34.7735 
612.628 44.7629 34.769 
612.65 45.4987 34.7645 
612.673 46.2345 34.7601 
612.695 46.9703 34.7556 
613.477 47.6488 35.4002 
613.499 48.383 35.3958 
613.522 49.1172 35.3913 
613.544 49.8514 35.3868 
613.566 50.5857 35.3824 
613.589 51.3199 35.3779 
613.611 52.0541 35.3734 
613.633 52.7883 35.3689 
613.656 53.5225 35.3645 
613.678 54.2567 35.36 
613.7 54.9909 35.3555 
613.723 55.7251 35.351 
613.745 56.4594 35.3466 
613.008 57.2716 34.6928 
613.031 58.0074 34.6883 
613.053 58.7432 34.6838 
613.075 59.479 34.6794 
613.098 60.2148 34.6749 
613.12 60.9506 34.6704 
613.142 61.6864 34.6659 
613.165 62.4222 34.6614 
613.187 63.158 34.6569 
613.209 63.8938 34.6525 
613.232 64.6296 34.648 
613.254 65.3654 34.6435 
613.277 66.1012 34.639 
613.299 66.8371 34.6345 
613.321 67.5729 34.63 
613.344 68.3087 34.6256 
613.366 69.0445 34.6211 
613.388 69.7803 34.6166 
613.411 70.5161 34.6121 
613.433 71.2519 34.6076 
613.455 71.9877 34.6031 
613.478 72.7235 34.5987 
613.5 73.4593 34.5942 
613.523 74.1951 34.5897 
612.787 75.0471 33.9357 
612.809 75.7845 33.9312 
612.832 76.5219 33.9267 
612.854 77.2593 33.9222 
612.877 77.9967 33.9177 
612.899 78.7341 33.9132 
612.921 79.4715 33.9087 
612.944 80.2089 33.9042 
612.966 80.9463 33.8997 
612.989 81.6837 33.8952 
613.011 82.4211 33.8907 
612.276 83.2923 33.2366 
612.299 84.0313 33.2321 
612.321 84.7702 33.2276 
612.344 85.5092 33.2231 
612.366 86.2482 33.2186 
612.388 86.9872 33.2141 
612.411 87.7262 33.2096 
611.676 88.6101 32.5554 
611.699 89.3507 32.5509 
611.721 90.0913 32.5464 
611.744 90.8318 32.5419 
611.766 91.5724 32.5374 
611.789 92.313 32.5328 
611.811 93.0536 32.5283 
611.834 93.7942 32.5238 
611.1 94.6924 31.8695 
611.122 95.4346 31.865 
611.145 96.1767 31.8605 
611.167 96.9189 31.856 
611.19 97.6611 31.8515 
611.213 98.4033 31.8469 
611.235 99.1454 31.8424 
611.258 99.8876 31.8379 
610.524 100.8 31.1835 
610.547 101.544 31.179 
610.569 102.288 31.1745 
610.592 103.031 31.1699 
609.858 103.952 30.5155 
609.881 104.697 30.511 
609.148 105.623 29.8565 
607.659 106.733 28.5521 
606.925 107.666 27.8976 
606.192 108.602 27.2431 
603.948 109.915 25.2887 
603.215 110.86 24.6341 
601.727 111.999 23.3296 
600.239 113.144 22.025 
599.507 114.103 21.3703 
598.774 115.065 20.7157 
598.042 116.03 20.061 
596.071 35.0728 19.9576 
596.854 35.8134 20.6032 
597.636 36.5509 21.2487 
599.179 37.2519 22.5445 
601.48 37.9115 24.4906 
609.923 40.4957 31.6253 
611.464 41.152 32.9214 
612.246 41.8465 33.5672 
612.268 42.5839 33.5627 
613.049 43.2736 34.2086 
613.072 44.0094 34.2041 
613.094 44.7452 34.1996 
613.117 45.481 34.1951 
613.139 46.2168 34.1906 
613.161 46.9526 34.1861 
613.184 47.6884 34.1817 
613.206 48.4243 34.1772 
613.228 49.1601 34.1727 
613.251 49.8959 34.1682 
613.273 50.6317 34.1637 
613.295 51.3675 34.1593 
613.318 52.1033 34.1548 
613.34 52.8391 34.1503 
613.363 53.5749 34.1458 
613.385 54.3107 34.1413 
613.407 55.0465 34.1368 
613.43 55.7823 34.1323 
613.452 56.5181 34.1279 
613.474 57.2539 34.1234 
613.497 57.9897 34.1189 
613.519 58.7255 34.1144 
613.542 59.4613 34.1099 
613.564 60.1972 34.1054 
613.586 60.933 34.101 
613.609 61.6688 34.0965 
612.873 62.4937 33.4414 
612.896 63.2311 33.4369 
612.918 63.9685 33.4324 
612.94 64.7059 33.4279 
612.963 65.4433 33.4234 
612.985 66.1807 33.4189 
613.008 66.9181 33.4144 
613.03 67.6555 33.4099 
613.053 68.3929 33.4054 
613.075 69.1303 33.401 
613.097 69.8677 33.3965 
613.12 70.6051 33.392 
613.142 71.3425 33.3875 
613.165 72.0799 33.383 
613.187 72.8173 33.3785 
613.209 73.5547 33.374 
613.232 74.2921 33.3695 
613.254 75.0295 33.365 
613.277 75.7669 33.3605 
613.299 76.5043 33.356 
613.321 77.2417 33.3515 
613.344 77.9791 33.347 
613.366 78.7165 33.3425 
613.389 79.4539 33.338 
612.655 80.3186 32.6827 
612.677 81.0576 32.6782 
612.7 81.7966 32.6737 
612.722 82.5356 32.6692 
612.744 83.2745 32.6647 
612.767 84.0135 32.6602 
612.789 84.7525 32.6557 
612.056 85.63 32.0003 
612.078 86.3706 31.9958 
612.101 87.1112 31.9913 
612.123 87.8517 31.9868 
612.146 88.5923 31.9823 
612.168 89.3329 31.9778 
612.191 90.0735 31.9732 
611.457 90.9637 31.3178 
611.48 91.7059 31.3133 
611.502 92.4481 31.3087 
611.525 93.1902 31.3042 
611.548 93.9324 31.2997 
611.57 94.6746 31.2952 
611.593 95.4168 31.2907 
611.615 96.1589 31.2861 
611.638 96.9011 31.2816 
610.905 97.8073 30.6261 
610.927 98.551 30.6215 
610.95 99.2948 30.617 
610.973 100.039 30.6125 
610.995 100.782 30.6079 
611.018 101.526 30.6034 
611.041 102.27 30.5989 
610.308 103.189 29.9432 
610.331 103.934 29.9387 
609.598 104.858 29.283 
608.866 105.785 28.6273 
608.134 106.715 27.9716 
606.647 107.831 26.6647 
605.915 108.769 26.009 
604.428 109.896 24.702 
602.942 111.03 23.395 
601.456 112.17 22.088 
599.97 113.317 20.7809 
599.238 114.277 20.125 
599.262 115.046 20.1204 
598.531 116.011 19.4644 
596.512 33.5126 19.3705 
596.536 34.2834 19.3658 
597.318 35.0257 20.0126 
597.341 35.795 20.0079 
598.123 36.5325 20.6546 
599.663 37.2335 21.9529 
601.961 37.8932 23.9027 
605.799 39.2221 27.151 
610.394 40.4779 31.051 
611.932 41.1343 32.3495 
612.713 41.8288 32.9966 
612.735 42.5662 32.9921 
613.516 43.256 33.6391 
613.538 43.9918 33.6347 
613.56 44.7276 33.6302 
613.583 45.4634 33.6257 
613.605 46.1992 33.6212 
613.628 46.935 33.6167 
613.65 47.6708 33.6122 
613.672 48.4066 33.6077 
613.695 49.1424 33.6033 
613.717 49.8782 33.5988 
613.739 50.614 33.5943 
613.762 51.3498 33.5898 
613.784 52.0856 33.5853 
613.806 52.8214 33.5808 
613.829 53.5573 33.5764 
613.851 54.2931 33.5719 
613.874 55.0289 33.5674 
613.139 55.8394 32.9112 
613.161 56.5768 32.9067 
613.184 57.3142 32.9022 
613.206 58.0516 32.8977 
613.228 58.789 32.8932 
613.251 59.5264 32.8887 
613.273 60.2638 32.8842 
613.296 61.0012 32.8797 
613.318 61.7386 32.8752 
613.34 62.476 32.8707 
613.363 63.2134 32.8662 
613.385 63.9508 32.8617 
613.408 64.6882 32.8573 
613.43 65.4256 32.8528 
613.453 66.163 32.8483 
613.475 66.9004 32.8438 
613.497 67.6378 32.8393 
613.52 68.3752 32.8348 
613.542 69.1126 32.8303 
613.565 69.85 32.8258 
613.587 70.5874 32.8213 
613.609 71.3248 32.8168 
613.632 72.0622 32.8123 
613.654 72.7996 32.8078 
613.677 73.537 32.8033 
613.699 74.2744 32.7988 
613.721 75.0118 32.7943 
613.744 75.7492 32.7898 
613.766 76.4866 32.7854 
613.033 77.3449 32.1289 
613.055 78.0839 32.1244 
613.078 78.8229 32.1199 
613.1 79.5619 32.1154 
613.123 80.3009 32.1108 
613.145 81.0399 32.1063 
613.168 81.7788 32.1018 
613.19 82.5178 32.0973 
612.457 83.3905 31.4407 
612.48 84.1311 31.4362 
612.502 84.8717 31.4317 
612.525 85.6122 31.4272 
612.547 86.3528 31.4227 
612.57 87.0934 31.4182 
611.837 87.9772 30.7615 
611.86 88.7194 30.757 
611.882 89.4616 30.7525 
611.905 90.2037 30.748 
611.927 90.9459 30.7434 
611.95 91.6881 30.7389 
611.973 92.4303 30.7344 
611.24 93.3268 30.0777 
611.263 94.0706 30.0731 
611.286 94.8144 30.0686 
611.308 95.5581 30.0641 
611.331 96.3019 30.0595 
611.354 97.0457 30.055 
611.376 97.7894 30.0505 
611.399 98.5332 30.0459 
611.421 99.277 30.0414 
610.69 100.189 29.3846 
610.712 100.935 29.38 
610.735 101.68 29.3755 
610.758 102.426 29.3709 
610.78 103.171 29.3664 
610.049 104.093 28.7095 
610.072 104.84 28.7049 
608.586 105.947 27.3957 
607.855 106.878 26.7387 
607.124 107.813 26.0817 
605.64 108.935 24.7723 
604.155 110.064 23.4629 
602.671 111.2 22.1534 
601.186 112.341 20.8439 
600.456 113.298 20.1868 
599.726 114.259 19.5297 
598.996 115.222 18.8726 
599.019 115.993 18.8679 
597.758 33.4688 19.4266 
597.782 34.238 19.4219 
597.805 35.0073 19.4172 
598.586 35.7464 20.0652 
598.609 36.5141 20.0606 
600.147 37.2152 21.3613 
602.443 37.875 23.3148 
606.275 39.2041 26.5692 
610.864 40.4601 30.4766 
612.401 41.1166 31.7776 
613.18 41.8111 32.4259 
613.96 42.5025 33.0742 
613.982 43.2383 33.0697 
614.004 43.9741 33.0652 
614.027 44.7099 33.0607 
614.049 45.4457 33.0563 
614.071 46.1815 33.0518 
614.094 46.9174 33.0473 
614.116 47.6532 33.0428 
614.138 48.389 33.0383 
614.161 49.1248 33.0338 
614.183 49.8606 33.0294 
614.206 50.5964 33.0249 
614.228 51.3322 33.0204 
614.25 52.068 33.0159 
613.516 52.8721 32.3585 
613.539 53.6095 32.354 
613.561 54.3469 32.3495 
613.584 55.0843 32.345 
613.606 55.8217 32.3405 
613.628 56.5591 32.336 
613.651 57.2965 32.3315 
613.673 58.0339 32.327 
613.696 58.7713 32.3225 
613.718 59.5087 32.318 
612.985 60.3304 31.6605 
613.007 61.0694 31.656 
613.03 61.8083 31.6515 
613.052 62.5473 31.647 
613.074 63.2863 31.6425 
613.097 64.0253 31.638 
613.119 64.7643 31.6335 
613.142 65.5033 31.629 
613.164 66.2423 31.6245 
613.187 66.9813 31.62 
613.209 67.7203 31.6155 
613.232 68.4593 31.611 
613.254 69.1983 31.6065 
613.277 69.9373 31.602 
613.299 70.6763 31.5975 
613.322 71.4152 31.593 
613.344 72.1542 31.5885 
613.366 72.8932 31.584 
613.389 73.6322 31.5795 
613.411 74.3712 31.575 
613.434 75.1102 31.5705 
613.456 75.8492 31.566 
613.479 76.5882 31.5615 
613.501 77.3272 31.557 
613.524 78.0662 31.5525 
613.546 78.8052 31.548 
613.569 79.5442 31.5435 
612.837 80.4104 30.8857 
612.859 81.151 30.8811 
612.882 81.8916 30.8766 
612.904 82.6321 30.8721 
612.927 83.3727 30.8676 
612.949 84.1133 30.8631 
612.217 84.9907 30.2052 
612.24 85.7329 30.2007 
612.262 86.4751 30.1962 
612.285 87.2172 30.1917 
612.308 87.9594 30.1872 
612.33 88.7016 30.1826 
611.599 89.5901 29.5247 
611.621 90.3339 29.5202 
611.644 91.0777 29.5157 
611.667 91.8214 29.5111 
611.689 92.5652 29.5066 
611.712 93.309 29.5021 
611.734 94.0527 29.4975 
611.757 94.7965 29.493 
611.026 95.6994 28.835 
611.049 96.4448 28.8304 
611.071 97.1901 28.8259 
611.094 97.9355 28.8214 
611.117 98.6808 28.8168 
611.139 99.4262 28.8123 
611.162 100.172 28.8077 
611.185 100.917 28.8032 
611.207 101.662 28.7986 
610.477 102.581 28.1405 
610.499 103.328 28.136 
610.522 104.075 28.1314 
609.792 105 27.4733 
609.062 105.929 26.8151 
607.579 107.041 25.5033 
606.096 108.161 24.1915 
605.366 109.102 23.5333 
603.884 110.232 22.2214 
603.154 111.181 21.5631 
601.672 112.323 20.2511 
600.19 113.471 18.9391 
600.213 114.24 18.9344 
599.484 115.204 18.276 
599.508 115.974 18.2713 
599.531 116.745 18.2666 
599.002 33.4251 19.4852 
599.026 34.1927 19.4805 
599.049 34.9604 19.4758 
599.072 35.728 19.4711 
599.852 36.464 20.1204 
600.632 37.1969 20.7697 
602.924 37.8568 22.7269 
607.508 39.1481 26.6414 
612.09 40.4011 30.5562 
613.625 41.0561 31.8597 
613.647 41.7935 31.8552 
614.426 42.4849 32.5048 
614.448 43.2207 32.5003 
614.471 43.9565 32.4958 
614.493 44.6923 32.4913 
614.515 45.4281 32.4868 
614.538 46.1639 32.4823 
614.56 46.8997 32.4779 
614.582 47.6355 32.4734 
613.849 48.4301 31.8148 
613.872 49.1675 31.8103 
613.894 49.9049 31.8058 
613.916 50.6423 31.8013 
613.939 51.3797 31.7968 
613.961 52.1171 31.7923 
613.984 52.8545 31.7878 
614.006 53.5919 31.7833 
614.028 54.3293 31.7788 
614.051 55.0667 31.7743 
613.318 55.8787 31.1157 
613.341 56.6177 31.1112 
613.363 57.3567 31.1067 
613.385 58.0957 31.1021 
613.408 58.8347 31.0976 
613.43 59.5737 31.0931 
613.453 60.3127 31.0886 
613.475 61.0516 31.0841 
613.498 61.7906 31.0796 
613.52 62.5296 31.0751 
613.543 63.2686 31.0706 
613.565 64.0076 31.0661 
613.588 64.7466 31.0616 
613.61 65.4856 31.0571 
613.633 66.2246 31.0526 
613.655 66.9636 31.0481 
613.677 67.7026 31.0436 
613.7 68.4416 31.0391 
613.722 69.1805 31.0346 
613.745 69.9195 31.0301 
613.767 70.6585 31.0256 
613.79 71.3975 31.0211 
613.812 72.1365 31.0166 
613.835 72.8755 31.0121 
613.857 73.6145 31.0076 
613.88 74.3535 31.0031 
613.902 75.0925 30.9986 
613.925 75.8315 30.9941 
613.947 76.5705 30.9896 
613.216 77.4303 30.3306 
613.238 78.1709 30.3261 
613.261 78.9115 30.3216 
613.283 79.6521 30.317 
613.306 80.3926 30.3125 
613.328 81.1332 30.308 
613.351 81.8738 30.3035 
612.62 82.7464 29.6445 
612.642 83.4886 29.6399 
612.665 84.2307 29.6354 
612.688 84.9729 29.6309 
612.71 85.7151 29.6264 
612.733 86.4573 29.6218 
612.002 87.341 28.9627 
612.025 88.0848 28.9582 
612.047 88.8285 28.9537 
612.07 89.5723 28.9491 
612.093 90.3161 28.9446 
612.115 91.0598 28.9401 
611.385 91.9547 28.2809 
611.408 92.7001 28.2763 
611.43 93.4454 28.2718 
611.453 94.1908 28.2672 
611.476 94.9362 28.2627 
611.498 95.6815 28.2581 
611.521 96.4269 28.2536 
611.544 97.1723 28.2491 
611.566 97.9176 28.2445 
610.836 98.8284 27.5852 
610.859 99.5754 27.5807 
610.882 100.322 27.5761 
610.905 101.069 27.5716 
610.927 101.816 27.567 
610.95 102.563 27.5625 
610.973 103.31 27.5579 
610.243 104.234 26.8986 
609.514 105.16 26.2392 
608.785 106.09 25.5798 
607.304 107.205 24.2655 
606.575 108.143 23.606 
605.846 109.084 22.9466 
604.366 110.214 21.6322 
603.637 111.163 20.9727 
602.157 112.305 19.6582 
601.429 113.262 18.9987 
600.701 114.222 18.3391 
600.724 114.991 18.3344 
599.996 115.956 17.6748 
600.019 116.727 17.6701 
600.244 33.3814 19.5462 
600.268 34.1475 19.5415 
600.291 34.9135 19.5369 
600.314 35.6796 19.5322 
601.093 36.4141 20.1827 
601.871 37.1453 20.8332 
612.559 40.3833 29.9831 
614.092 41.0384 31.289 
614.115 41.7758 31.2846 
614.892 42.4672 31.9353 
614.159 43.2506 31.2756 
614.182 43.988 31.2711 
614.204 44.7254 31.2666 
614.227 45.4628 31.2621 
614.249 46.2002 31.2576 
614.271 46.9376 31.2531 
614.294 47.675 31.2486 
614.316 48.4124 31.2441 
614.339 49.1498 31.2396 
614.361 49.8872 31.2351 
614.384 50.6246 31.2306 
614.406 51.362 31.2261 
614.428 52.0994 31.2216 
613.696 52.905 30.5618 
613.719 53.644 30.5573 
613.741 54.383 30.5528 
613.764 55.122 30.5483 
613.786 55.861 30.5438 
613.809 56.6 30.5393 
613.831 57.339 30.5348 
613.854 58.078 30.5303 
613.122 58.8979 29.8703 
613.145 59.6385 29.8658 
613.167 60.3791 29.8612 
613.19 61.1197 29.8567 
613.212 61.8603 29.8522 
613.235 62.6009 29.8477 
613.257 63.3414 29.8432 
613.28 64.082 29.8387 
613.302 64.8226 29.8342 
613.325 65.5632 29.8297 
613.347 66.3038 29.8251 
613.37 67.0444 29.8206 
613.392 67.785 29.8161 
613.415 68.5255 29.8116 
613.437 69.2661 29.8071 
613.46 70.0067 29.8026 
613.482 70.7473 29.7981 
613.505 71.4879 29.7936 
613.527 72.2285 29.789 
613.55 72.969 29.7845 
613.572 73.7096 29.78 
613.595 74.4502 29.7755 
613.617 75.1908 29.771 
613.64 75.9314 29.7665 
613.662 76.672 29.762 
613.685 77.4125 29.7575 
613.707 78.1531 29.7529 
613.73 78.8937 29.7484 
613 79.7599 29.0882 
613.023 80.5021 29.0837 
613.045 81.2442 29.0791 
613.068 81.9864 29.0746 
613.09 82.7286 29.0701 
613.113 83.4708 29.0656 
613.135 84.2129 29.061 
612.406 85.0918 28.4007 
612.428 85.8356 28.3962 
612.451 86.5794 28.3917 
612.473 87.3232 28.3871 
612.496 88.0669 28.3826 
611.767 88.9554 27.7222 
611.789 89.7008 27.7177 
611.812 90.4461 27.7131 
611.835 91.1915 27.7086 
611.857 91.9368 27.704 
611.88 92.6822 27.6995 
611.151 93.5818 27.039 
611.174 94.3288 27.0345 
611.196 95.0757 27.0299 
611.219 95.8227 27.0254 
611.242 96.5696 27.0208 
611.264 97.3166 27.0163 
611.287 98.0635 27.0117 
611.31 98.8105 27.0072 
611.333 99.5574 27.0026 
611.355 100.304 26.9981 
610.627 101.222 26.3375 
610.649 101.97 26.3329 
610.672 102.719 26.3284 
610.695 103.467 26.3238 
609.967 104.392 25.6632 
609.239 105.321 25.0026 
608.51 106.252 24.3419 
607.782 107.187 23.6813 
607.055 108.125 23.0206 
605.576 109.25 21.7038 
604.848 110.196 21.0431 
604.121 111.145 20.3823 
602.643 112.286 19.0654 
601.915 113.243 18.4046 
601.188 114.203 17.7438 
601.212 114.973 17.7391 
601.235 115.742 17.7344 
601.258 116.511 17.7297 
600.73 33.363 18.9534 
600.753 34.1291 18.9487 
600.776 34.8952 18.944 
601.554 35.6313 19.5958 
602.332 36.3642 20.2475 
603.109 37.0939 20.8993 
608.458 39.1121 25.4804 
610.744 39.7436 27.4451 
612.275 40.4067 28.7535 
613.805 41.0634 30.0619 
614.582 41.7581 30.7139 
614.604 42.4955 30.7094 
614.627 43.2329 30.7049 
614.649 43.9703 30.7004 
614.671 44.7077 30.6959 
614.694 45.4451 30.6914 
614.716 46.1825 30.6869 
614.739 46.9199 30.6824 
614.761 47.6573 30.6779 
614.784 48.3947 30.6734 
614.806 49.1321 30.669 
614.075 49.9313 30.0079 
614.097 50.6703 30.0034 
614.12 51.4093 29.9989 
614.142 52.1483 29.9944 
614.165 52.8873 29.9899 
614.187 53.6263 29.9854 
614.21 54.3653 29.9809 
613.479 55.1773 29.3197 
613.501 55.9178 29.3152 
613.524 56.6584 29.3107 
613.546 57.399 29.3062 
613.569 58.1396 29.3017 
613.591 58.8802 29.2971 
613.614 59.6208 29.2926 
613.636 60.3614 29.2881 
613.659 61.1019 29.2836 
612.929 61.9298 28.6224 
612.951 62.672 28.6178 
612.974 63.4142 28.6133 
612.996 64.1564 28.6088 
613.019 64.8986 28.6043 
613.042 65.6407 28.5997 
613.064 66.3829 28.5952 
613.087 67.1251 28.5907 
613.109 67.8673 28.5862 
613.132 68.6094 28.5817 
613.154 69.3516 28.5771 
613.177 70.0938 28.5726 
613.952 70.7295 29.2249 
613.974 71.4701 29.2204 
613.997 72.2107 29.2159 
614.019 72.9513 29.2114 
614.042 73.6919 29.2069 
614.064 74.4325 29.2024 
613.335 75.289 28.541 
613.357 76.0312 28.5364 
613.38 76.7734 28.5319 
613.403 77.5156 28.5274 
613.425 78.2577 28.5229 
613.448 78.9999 28.5183 
613.47 79.7421 28.5138 
613.493 80.4843 28.5093 
613.515 81.2264 28.5048 
612.786 82.0989 27.8433 
612.809 82.8427 27.8387 
612.832 83.5865 27.8342 
612.854 84.3302 27.8297 
612.877 85.074 27.8251 
612.148 85.9561 27.1635 
612.171 86.7014 27.159 
612.194 87.4468 27.1545 
612.216 88.1922 27.1499 
612.239 88.9375 27.1454 
612.262 89.6829 27.1408 
611.533 90.5761 26.4792 
611.556 91.323 26.4746 
611.579 92.07 26.4701 
611.602 92.8169 26.4655 
611.624 93.5639 26.461 
611.647 94.3109 26.4564 
610.919 95.2152 25.7947 
610.942 95.9638 25.7901 
610.964 96.7123 25.7856 
610.987 97.4609 25.781 
611.01 98.2094 25.7765 
611.033 98.958 25.7719 
611.055 99.7065 25.7673 
611.078 100.455 25.7628 
611.101 101.204 25.7582 
610.374 102.124 25.0964 
610.396 102.874 25.0918 
610.419 103.624 25.0873 
610.442 104.374 25.0827 
609.715 105.303 24.4208 
608.988 106.234 23.759 
607.511 107.35 22.4397 
606.784 108.289 21.7778 
606.057 109.232 21.1159 
605.331 110.178 20.4539 
604.604 111.127 19.7919 
603.878 112.079 19.1299 
602.402 113.225 17.8105 
602.425 113.992 17.8058 
602.448 114.76 17.8012 
602.472 115.528 17.7965 
602.495 116.295 17.7918 
601.969 33.3195 19.0181 
601.992 34.084 19.0135 
602.015 34.8485 19.0088 
602.792 35.583 19.6617 
603.568 36.3143 20.3147 
604.345 37.0425 20.9677 
605.875 37.7327 22.2784 
607.404 38.4166 23.5891 
612.745 40.3889 28.1792 
613.521 41.0884 28.8323 
614.296 41.7847 29.4855 
614.318 42.5237 29.481 
614.341 43.2627 29.4765 
614.363 44.0017 29.472 
614.386 44.7407 29.4675 
614.408 45.4797 29.463 
614.431 46.2187 29.4585 
614.453 46.9576 29.454 
614.476 47.6966 29.4495 
614.498 48.4356 29.445 
614.521 49.1746 29.4405 
614.543 49.9136 29.436 
614.566 50.6526 29.4315 
614.588 51.3916 29.427 
613.858 52.1972 28.7646 
613.881 52.9378 28.7601 
613.903 53.6783 28.7556 
613.926 54.4189 28.7511 
613.948 55.1595 28.7466 
613.971 55.9001 28.7421 
613.993 56.6407 28.7375 
613.264 57.459 28.0751 
613.286 58.2012 28.0706 
613.309 58.9433 28.0661 
613.331 59.6855 28.0616 
613.354 60.4277 28.057 
613.377 61.1699 28.0525 
613.399 61.912 28.048 
613.422 62.6542 28.0435 
613.444 63.3964 28.039 
613.467 64.1386 28.0344 
613.489 64.8808 28.0299 
613.512 65.6229 28.0254 
613.534 66.3651 28.0209 
613.557 67.1073 28.0163 
613.58 67.8495 28.0118 
613.602 68.5916 28.0073 
613.625 69.3338 28.0028 
613.647 70.076 27.9982 
613.67 70.8182 27.9937 
613.692 71.5603 27.9892 
613.715 72.3025 27.9847 
613.737 73.0447 27.9802 
613.76 73.7869 27.9756 
613.783 74.5291 27.9711 
613.805 75.2712 27.9666 
613.828 76.0134 27.9621 
613.85 76.7556 27.9575 
613.873 77.4978 27.953 
613.895 78.2399 27.9485 
613.167 79.106 27.2858 
613.19 79.8498 27.2813 
613.213 80.5936 27.2767 
613.235 81.3373 27.2722 
613.258 82.0811 27.2677 
613.28 82.8249 27.2631 
612.553 83.7021 26.6003 
612.575 84.4475 26.5958 
612.598 85.1928 26.5913 
612.621 85.9382 26.5867 
612.643 86.6836 26.5822 
611.916 87.5704 25.9193 
611.939 88.3173 25.9148 
611.961 89.0643 25.9102 
611.984 89.8112 25.9057 
612.007 90.5582 25.9011 
612.029 91.3051 25.8966 
611.302 92.2031 25.2337 
611.325 92.9516 25.2291 
611.348 93.7002 25.2245 
611.37 94.4487 25.22 
611.393 95.1973 25.2154 
611.416 95.9458 25.2109 
611.439 96.6944 25.2063 
610.712 97.605 24.5433 
610.735 98.3552 24.5387 
610.758 99.1053 24.5342 
610.78 99.8555 24.5296 
610.803 100.606 24.525 
610.826 101.356 24.5205 
610.849 102.106 24.5159 
610.872 102.856 24.5113 
610.145 103.781 23.8482 
610.168 104.533 23.8436 
609.442 105.463 23.1806 
608.716 106.396 22.5174 
607.99 107.332 21.8543 
607.264 108.271 21.1911 
606.539 109.214 20.5279 
605.813 110.159 19.8647 
605.088 111.108 19.2015 
604.362 112.06 18.5383 
603.637 113.016 17.875 
603.66 113.782 17.8703 
602.935 114.742 17.2071 
603.707 115.314 17.861 
602.982 116.277 17.1977 
603.005 117.045 17.193 
603.183 32.5132 19.09 
603.206 33.276 19.0853 
603.229 34.0389 19.0807 
603.252 34.8018 19.076 
603.275 35.5647 19.0714 
604.051 36.2961 19.7256 
604.826 37.0243 20.3798 
609.409 39.0761 24.3193 
611.688 39.7079 26.2915 
612.463 40.4122 26.9459 
613.238 41.1133 27.6003 
614.012 41.8112 28.2547 
614.035 42.5518 28.2502 
614.057 43.2924 28.2457 
614.08 44.033 28.2411 
614.102 44.7736 28.2366 
614.125 45.5142 28.2321 
614.147 46.2547 28.2276 
614.17 46.9953 28.2231 
614.192 47.7359 28.2186 
614.215 48.4765 28.2141 
614.237 49.2171 28.2095 
614.26 49.9577 28.205 
614.282 50.6982 28.2005 
614.305 51.4388 28.196 
614.327 52.1794 28.1915 
614.35 52.92 28.187 
614.372 53.6606 28.1825 
613.644 54.4725 27.5189 
613.666 55.2147 27.5143 
613.689 55.9568 27.5098 
613.711 56.699 27.5053 
613.734 57.4412 27.5008 
613.757 58.1834 27.4962 
613.779 58.9255 27.4917 
613.802 59.6677 27.4872 
613.073 60.494 26.8235 
613.096 61.2377 26.819 
613.119 61.9815 26.8144 
613.141 62.7253 26.8099 
613.164 63.469 26.8054 
613.186 64.2128 26.8008 
613.209 64.9566 26.7963 
613.232 65.7003 26.7918 
613.254 66.4441 26.7872 
613.277 67.1879 26.7827 
613.299 67.9317 26.7782 
613.322 68.6754 26.7737 
613.345 69.4192 26.7691 
613.367 70.163 26.7646 
613.39 70.9067 26.7601 
613.412 71.6505 26.7555 
613.435 72.3943 26.751 
613.458 73.138 26.7465 
613.48 73.8818 26.7419 
613.503 74.6256 26.7374 
613.526 75.3694 26.7329 
613.548 76.1131 26.7283 
613.571 76.8569 26.7238 
613.593 77.6007 26.7193 
613.616 78.3444 26.7147 
613.639 79.0882 26.7102 
613.661 79.832 26.7057 
612.934 80.7028 26.0417 
612.957 81.4482 26.0371 
612.98 82.1935 26.0326 
613.002 82.9389 26.0281 
613.025 83.6842 26.0235 
612.298 84.5646 25.3595 
612.321 85.3116 25.3549 
612.344 86.0585 25.3504 
612.366 86.8055 25.3458 
612.389 87.5525 25.3413 
612.412 88.2994 25.3367 
611.686 89.1909 24.6726 
611.708 89.9395 24.6681 
611.731 90.688 24.6635 
611.754 91.4366 24.6589 
611.777 92.1851 24.6544 
611.799 92.9337 24.6498 
611.073 93.8364 23.9856 
611.096 94.5865 23.9811 
611.119 95.3366 23.9765 
611.142 96.0868 23.9719 
611.165 96.8369 23.9674 
611.187 97.5871 23.9628 
611.21 98.3372 23.9582 
611.233 99.0873 23.9536 
611.256 99.8375 23.9491 
610.53 100.756 23.2848 
610.553 101.508 23.2802 
610.576 102.26 23.2756 
610.599 103.011 23.2711 
610.622 103.763 23.2665 
609.897 104.691 22.6022 
609.919 105.445 22.5976 
609.194 106.377 21.9332 
608.47 107.314 21.2688 
607.745 108.253 20.6044 
607.02 109.195 19.94 
606.295 110.141 19.2756 
605.571 111.09 18.6111 
605.594 111.853 18.6065 
604.87 112.806 17.942 
604.145 113.763 17.2775 
604.916 114.335 17.9327 
604.192 115.295 17.2682 
604.215 116.062 17.2635 
604.418 32.4714 19.1596 
604.441 33.2327 19.155 
604.464 33.994 19.1504 
604.487 34.7552 19.1457 
604.51 35.5165 19.1411 
605.285 36.2464 19.7965 
606.059 36.973 20.452 
607.585 37.6618 21.7676 
608.359 38.3805 22.4231 
609.884 39.0581 23.7388 
611.409 39.7294 25.0545 
612.934 40.3943 26.3703 
613.708 41.0955 27.0259 
613.73 41.8377 27.0214 
614.504 42.5341 27.677 
614.526 43.2746 27.6725 
614.549 44.0152 27.668 
614.572 44.7558 27.6635 
614.594 45.4964 27.659 
614.617 46.237 27.6545 
614.639 46.9776 27.65 
614.662 47.7182 27.6454 
614.684 48.4587 27.6409 
614.707 49.1993 27.6364 
613.979 50.0016 26.9716 
614.001 50.7438 26.9671 
614.024 51.486 26.9626 
614.046 52.2282 26.9581 
614.069 52.9703 26.9535 
614.091 53.7125 26.949 
614.114 54.4547 26.9445 
614.137 55.1969 26.94 
614.159 55.939 26.9355 
613.432 56.7573 26.2706 
613.454 57.501 26.266 
613.477 58.2448 26.2615 
613.499 58.9886 26.257 
613.522 59.7324 26.2524 
613.545 60.4761 26.2479 
613.567 61.2199 26.2434 
613.59 61.9637 26.2388 
613.612 62.7074 26.2343 
613.635 63.4512 26.2298 
612.908 64.287 25.5648 
612.931 65.0323 25.5602 
612.953 65.7777 25.5557 
612.976 66.523 25.5511 
612.999 67.2684 25.5466 
613.021 68.0138 25.5421 
613.044 68.7591 25.5375 
613.067 69.5045 25.533 
