ply
format ascii 1.0
comment Created by CloudCompare v2.11 alpha (Anoia)
comment Created 17/05/2019 19:40
obj_info Generated by CloudCompare!
element vertex 1585
property float x
property float y
property float z
end_header
0.01651 0.0713775 0.0141256 
0.016533 0.0721372 0.014121 
0.016557 0.0728969 0.0141164 
0.01658 0.073657 0.0141117 
0.016603 0.074416 0.0141071 
0.016626 0.075176 0.0141025 
0.016649 0.075936 0.0140978 
0.016672 0.076695 0.0140932 
0.015957 0.07763 0.0134165 
0.01598 0.078391 0.0134119 
0.016003 0.079152 0.0134073 
0.016027 0.079913 0.0134026 
0.01605 0.080675 0.013398 
0.016073 0.081436 0.0133933 
0.016096 0.082197 0.0133887 
0.015382 0.083144 0.0127119 
0.015405 0.083907 0.0127073 
0.015428 0.08467 0.0127026 
0.015451 0.085433 0.012698 
0.015474 0.086196 0.0126933 
0.015497 0.086959 0.0126887 
0.014783 0.087917 0.0120119 
0.014069 0.088878 0.011335 
0.013355 0.089842 0.0106581 
0.012642 0.09081 0.00998123 
0.011191 0.091982 0.00863209 
0.016328 0.000680401 0.0153129 
0.016351 0.0014369 0.0153083 
0.016374 0.0021935 0.0153036 
0.016397 0.00295 0.015299 
0.01642 0.0037065 0.0152944 
0.017185 0.0044415 0.0159622 
0.017207 0.0051964 0.0159576 
0.01723 0.0059513 0.015953 
0.017253 0.0067062 0.0159484 
0.017276 0.0074611 0.0159438 
0.018041 0.0081866 0.0166116 
0.018064 0.0089399 0.016607 
0.018086 0.0096932 0.0166024 
0.018109 0.0104465 0.0165978 
0.018132 0.0111999 0.0165932 
0.018155 0.0119532 0.0165886 
0.018919 0.0126675 0.0172565 
0.018942 0.0134192 0.0172519 
0.018965 0.0141709 0.0172473 
0.018988 0.0149227 0.0172428 
0.01901 0.0156744 0.0172382 
0.019033 0.0164261 0.0172336 
0.019056 0.0171779 0.017229 
0.019079 0.0179296 0.0172244 
0.019102 0.0186813 0.0172199 
0.019125 0.0194331 0.0172153 
0.019148 0.0201848 0.0172107 
0.01917 0.0209365 0.0172061 
0.019193 0.0216883 0.0172015 
0.019216 0.02244 0.017197 
0.019239 0.0231917 0.0171924 
0.018521 0.0240064 0.0165152 
0.018544 0.0247597 0.0165106 
0.018567 0.0255131 0.016506 
0.01859 0.0262664 0.0165014 
0.018613 0.0270197 0.0164968 
0.018636 0.027773 0.0164922 
0.018659 0.0285264 0.0164876 
0.018682 0.0292797 0.0164831 
0.018705 0.030033 0.0164785 
0.018728 0.0307863 0.0164739 
0.01875 0.0315397 0.0164693 
0.018773 0.032293 0.0164647 
0.018796 0.0330463 0.0164601 
0.018819 0.0337996 0.0164555 
0.018842 0.034553 0.0164509 
0.018865 0.0353063 0.0164463 
0.018888 0.0360596 0.0164417 
0.018911 0.0368129 0.0164371 
0.018934 0.0375663 0.0164326 
0.018217 0.0384128 0.0157552 
0.01824 0.0391677 0.0157506 
0.018263 0.0399226 0.015746 
0.018286 0.0406775 0.0157414 
0.018309 0.0414325 0.0157368 
0.018332 0.0421874 0.0157322 
0.018355 0.0429423 0.0157276 
0.018378 0.0436972 0.015723 
0.018401 0.0444521 0.0157184 
0.018424 0.045207 0.0157138 
0.018447 0.045962 0.0157092 
0.018469 0.0467169 0.0157046 
0.018492 0.0474718 0.0157 
0.017777 0.0483406 0.0150224 
0.0178 0.0490971 0.0150178 
0.017823 0.0498536 0.0150132 
0.017846 0.0506102 0.0150086 
0.017869 0.0513667 0.015004 
0.017892 0.0521232 0.0149994 
0.017915 0.0528797 0.0149948 
0.017938 0.0536362 0.0149902 
0.017961 0.0543927 0.0149856 
0.017984 0.0551492 0.0149809 
0.018007 0.0559057 0.0149763 
0.01803 0.0566622 0.0149717 
0.018053 0.0574188 0.0149671 
0.018076 0.0581753 0.0149625 
0.01736 0.059068 0.0142848 
0.017383 0.0598261 0.0142802 
0.017406 0.0605842 0.0142756 
0.01743 0.0613423 0.014271 
0.017453 0.0621004 0.0142664 
0.017476 0.0628585 0.0142617 
0.016761 0.0637623 0.013584 
0.016784 0.064522 0.0135794 
0.016807 0.0652817 0.0135747 
0.01683 0.0660414 0.0135701 
0.016853 0.0668011 0.0135655 
0.016876 0.0675608 0.0135609 
0.016899 0.0683205 0.0135562 
0.016922 0.0690802 0.0135516 
0.016946 0.0698399 0.013547 
0.016231 0.0707597 0.0128691 
0.016254 0.071521 0.0128645 
0.016278 0.0722823 0.0128599 
0.016301 0.073044 0.0128552 
0.016324 0.073805 0.0128506 
0.016347 0.074566 0.0128459 
0.01637 0.075327 0.0128413 
0.016393 0.076089 0.0128367 
0.016416 0.07685 0.012832 
0.01644 0.077611 0.0128274 
0.016463 0.078373 0.0128227 
0.016486 0.079134 0.0128181 
0.016509 0.079895 0.0128135 
0.015795 0.080837 0.0121355 
0.015818 0.0816 0.0121308 
0.015842 0.082363 0.0121262 
0.015865 0.083126 0.0121215 
0.015888 0.083889 0.0121169 
0.015911 0.084652 0.0121122 
0.015198 0.085605 0.0114342 
0.015221 0.086369 0.0114296 
0.015245 0.087134 0.0114249 
0.015268 0.087898 0.0114202 
0.013818 0.089056 0.0100687 
0.013106 0.090022 0.00939061 
0.011657 0.091191 0.00803902 
0.010208 0.092367 0.00668739 
0.005815 0.094361 0.00264185 
0.016807 0.0006623 0.0147274 
0.01683 0.0014188 0.0147228 
0.016853 0.0021753 0.0147182 
0.016876 0.0029318 0.0147136 
0.016899 0.0036883 0.014709 
0.016922 0.0044449 0.0147044 
0.017686 0.0051783 0.0153733 
0.017709 0.0059332 0.0153687 
0.017732 0.0066881 0.0153641 
0.017755 0.007443 0.0153595 
0.017778 0.008198 0.0153549 
0.017801 0.0089529 0.0153503 
0.018564 0.0096752 0.0160194 
0.018587 0.0104285 0.0160148 
0.01861 0.0111818 0.0160102 
0.018632 0.0119351 0.0160056 
0.018655 0.0126885 0.0160011 
0.018678 0.0134418 0.0159965 
0.018701 0.0141951 0.0159919 
0.018724 0.0149484 0.0159873 
0.018747 0.0157018 0.0159827 
0.01877 0.0164551 0.0159781 
0.018793 0.0172084 0.0159735 
0.018816 0.0179617 0.0159689 
0.018839 0.0187151 0.0159643 
0.018861 0.0194684 0.0159597 
0.018884 0.0202217 0.0159552 
0.018907 0.020975 0.0159506 
0.01893 0.0217284 0.015946 
0.018953 0.0224817 0.0159414 
0.018976 0.023235 0.0159368 
0.018999 0.0239883 0.0159322 
0.019022 0.0247417 0.0159276 
0.019045 0.025495 0.015923 
0.019068 0.0262483 0.0159184 
0.01909 0.0270016 0.0159138 
0.018374 0.0278258 0.0152353 
0.018397 0.0285807 0.0152307 
0.01842 0.0293357 0.0152261 
0.018443 0.0300906 0.0152215 
0.018466 0.0308455 0.0152169 
0.018489 0.0316004 0.0152123 
0.018512 0.0323553 0.0152077 
0.018535 0.0331103 0.0152031 
0.018558 0.0338652 0.0151985 
0.018581 0.0346201 0.0151939 
0.018604 0.035375 0.0151893 
0.018627 0.0361299 0.0151847 
0.01865 0.0368849 0.0151801 
0.018672 0.0376398 0.0151755 
0.018695 0.0383947 0.0151709 
0.018718 0.0391496 0.0151663 
0.018003 0.0400009 0.0144877 
0.018026 0.0407574 0.0144831 
0.018049 0.0415139 0.0144785 
0.018072 0.0422704 0.0144739 
0.018095 0.0430269 0.0144693 
0.018118 0.0437834 0.0144646 
0.018141 0.0445399 0.01446 
0.018164 0.0452964 0.0144554 
0.018187 0.0460529 0.0144508 
0.01821 0.0468095 0.0144462 
0.018233 0.047566 0.0144416 
0.018256 0.0483225 0.014437 
0.018279 0.049079 0.0144324 
0.018302 0.0498355 0.0144278 
0.018325 0.050592 0.0144232 
0.018348 0.0513485 0.0144185 
0.018371 0.052105 0.0144139 
0.018394 0.0528615 0.0144093 
0.018417 0.0536181 0.0144047 
0.01844 0.0543746 0.0144001 
0.017726 0.0552593 0.0137213 
0.017749 0.0560174 0.0137166 
0.017772 0.0567755 0.013712 
0.017795 0.0575336 0.0137074 
0.017818 0.0582917 0.0137028 
0.017841 0.0590498 0.0136982 
0.017864 0.0598079 0.0136935 
0.017887 0.060566 0.0136889 
0.017173 0.061465 0.01301 
0.017196 0.0622247 0.0130053 
0.017219 0.0629844 0.0130007 
0.017242 0.0637441 0.0129961 
0.017265 0.0645038 0.0129914 
0.017288 0.0652635 0.0129868 
0.016575 0.0661737 0.0123078 
0.016598 0.066935 0.0123032 
0.016621 0.0676963 0.0122985 
0.016644 0.0684576 0.0122939 
0.016667 0.0692189 0.0122893 
0.016691 0.0699801 0.0122846 
0.016714 0.0707414 0.01228 
0.016737 0.0715027 0.0122753 
0.01676 0.072264 0.0122707 
0.016783 0.073025 0.0122661 
0.016806 0.073787 0.0122614 
0.016829 0.074548 0.0122568 
0.016116 0.075479 0.0115776 
0.01614 0.076242 0.011573 
0.016163 0.077005 0.0115683 
0.016186 0.077767 0.0115637 
0.016209 0.07853 0.011559 
0.016232 0.079293 0.0115544 
0.016256 0.080056 0.0115497 
0.016279 0.080819 0.0115451 
0.016302 0.081582 0.0115404 
0.015589 0.082529 0.0108612 
0.015613 0.083293 0.0108566 
0.015636 0.084058 0.0108519 
0.015659 0.084822 0.0108472 
0.015682 0.085587 0.0108426 
0.015706 0.086351 0.0108379 
0.014994 0.087309 0.0101586 
0.015017 0.088075 0.010154 
0.01357 0.089234 0.00879998 
0.012858 0.090202 0.00812061 
0.011411 0.091373 0.00676654 
0.009229 0.092751 0.00473776 
0.00484198 0.094748 0.000684803 
0.016547 0.0006576 0.0134672 
0.01731 0.0014007 0.0141373 
0.017333 0.0021572 0.0141327 
0.017356 0.0029137 0.0141281 
0.017379 0.0036702 0.0141235 
0.017402 0.0044267 0.0141189 
0.017425 0.0051832 0.0141143 
0.017448 0.0059397 0.0141097 
0.01821 0.00667 0.0147799 
0.018233 0.0074249 0.0147753 
0.018256 0.0081799 0.0147707 
0.018279 0.0089348 0.0147661 
0.018302 0.0096897 0.0147615 
0.018325 0.0104446 0.0147569 
0.018348 0.0111995 0.0147523 
0.018371 0.0119545 0.0147477 
0.019133 0.0126704 0.0154181 
0.019156 0.0134237 0.0154135 
0.019178 0.0141771 0.0154089 
0.019201 0.0149304 0.0154043 
0.019224 0.0156837 0.0153997 
0.019247 0.016437 0.0153951 
0.01927 0.0171904 0.0153905 
0.019293 0.0179437 0.0153859 
0.019316 0.018697 0.0153813 
0.019339 0.0194503 0.0153767 
0.019362 0.0202037 0.0153722 
0.019385 0.020957 0.0153676 
0.018669 0.0217684 0.0146879 
0.018692 0.0225233 0.0146833 
0.018715 0.0232782 0.0146787 
0.018738 0.0240331 0.0146741 
0.018761 0.0247881 0.0146695 
0.018784 0.025543 0.0146649 
0.018807 0.0262979 0.0146603 
0.01883 0.0270528 0.0146557 
0.018852 0.0278077 0.0146511 
0.018875 0.0285627 0.0146465 
0.018898 0.0293176 0.0146419 
0.018183 0.0301481 0.0139622 
0.018206 0.0309046 0.0139576 
0.018229 0.0316611 0.0139529 
0.018252 0.0324176 0.0139483 
0.018275 0.0331741 0.0139437 
0.018298 0.0339306 0.0139391 
0.018321 0.0346872 0.0139345 
0.018344 0.0354437 0.0139299 
0.018367 0.0362002 0.0139253 
0.01839 0.0369567 0.0139207 
0.018413 0.0377132 0.0139161 
0.018436 0.0384697 0.0139115 
0.018459 0.0392262 0.0139068 
0.018482 0.0399827 0.0139022 
0.018505 0.0407392 0.0138976 
0.018528 0.0414957 0.013893 
0.018551 0.0422523 0.0138884 
0.018574 0.0430088 0.0138838 
0.01786 0.0438696 0.0132039 
0.017883 0.0446276 0.0131992 
0.017906 0.0453857 0.0131946 
0.017929 0.0461439 0.01319 
0.017952 0.046902 0.0131854 
0.017975 0.0476601 0.0131808 
0.017999 0.0484182 0.0131761 
0.018022 0.0491763 0.0131715 
0.018045 0.0499344 0.0131669 
0.018068 0.0506925 0.0131623 
0.018091 0.0514506 0.0131577 
0.018114 0.0522087 0.013153 
0.018137 0.0529668 0.0131484 
0.01816 0.0537249 0.0131438 
0.018183 0.054483 0.0131392 
0.018206 0.0552411 0.0131346 
0.018229 0.0559992 0.0131299 
0.018252 0.0567573 0.0131253 
0.018275 0.0575154 0.0131207 
0.018298 0.0582735 0.0131161 
0.017585 0.0591677 0.0124359 
0.017608 0.0599274 0.0124313 
0.017631 0.0606871 0.0124267 
0.017654 0.0614468 0.012422 
0.017677 0.0622065 0.0124174 
0.0177 0.0629662 0.0124128 
0.016988 0.0638716 0.0117326 
0.017011 0.0646329 0.0117279 
0.017034 0.0653942 0.0117233 
0.017057 0.0661555 0.0117187 
0.01708 0.0669167 0.011714 
0.017103 0.067678 0.0117094 
0.017127 0.0684393 0.0117047 
0.016414 0.0693574 0.0110244 
0.016438 0.0701203 0.0110198 
0.016461 0.0708832 0.0110151 
0.016484 0.0716461 0.0110105 
0.016507 0.072409 0.0110058 
0.01653 0.073172 0.0110012 
0.016553 0.073935 0.0109966 
0.016577 0.074698 0.0109919 
0.0166 0.07546 0.0109873 
0.016623 0.076223 0.0109826 
0.016646 0.076986 0.010978 
0.016669 0.077749 0.0109733 
0.015958 0.078688 0.0102929 
0.015981 0.079452 0.0102882 
0.016004 0.080217 0.0102836 
0.016027 0.080981 0.0102789 
0.016051 0.081746 0.0102743 
0.016074 0.08251 0.0102696 
0.016097 0.083275 0.0102649 
0.01612 0.084039 0.0102603 
0.015409 0.084992 0.00957977 
0.015432 0.085758 0.00957511 
0.015456 0.086525 0.00957044 
0.015479 0.087291 0.00956577 
0.014768 0.088252 0.00888522 
0.014057 0.089216 0.00820466 
0.012612 0.090382 0.00684816 
0.011167 0.091554 0.00549162 
0.00898798 0.092934 0.00345913 
0.00534198 0.094729 7.46956e-05 
0.00508698 -0.0030633 0.0020882 
0.016288 0.000652901 0.0122045 
0.01705 0.0013976 0.0128759 
0.017073 0.0021557 0.0128713 
0.017835 0.0028956 0.0135427 
0.017858 0.0036521 0.0135381 
0.017881 0.0044086 0.0135334 
0.017904 0.0051651 0.0135288 
0.017927 0.0059216 0.0135242 
0.01795 0.0066781 0.0135196 
0.017973 0.0074346 0.013515 
0.017996 0.0081911 0.0135104 
0.018019 0.0089476 0.0135058 
0.018042 0.0097042 0.0135012 
0.018803 0.0104265 0.0141727 
0.018826 0.0111814 0.0141681 
0.018849 0.0119364 0.0141635 
0.018872 0.0126913 0.0141589 
0.018895 0.0134462 0.0141543 
0.018918 0.0142011 0.0141497 
0.018941 0.014956 0.0141451 
0.018964 0.0157109 0.0141405 
0.018987 0.0164659 0.0141359 
0.01901 0.0172208 0.0141313 
0.019033 0.0179757 0.0141267 
0.019056 0.0187306 0.0141221 
0.019078 0.0194855 0.0141175 
0.019101 0.0202405 0.0141129 
0.019124 0.0209954 0.0141083 
0.019147 0.0217503 0.0141037 
0.018433 0.0225648 0.0134228 
0.018456 0.0233214 0.0134182 
0.018479 0.0240779 0.0134136 
0.018502 0.0248344 0.013409 
0.018525 0.0255909 0.0134044 
0.018548 0.0263474 0.0133998 
0.018571 0.0271039 0.0133951 
0.018594 0.0278604 0.0133905 
0.018617 0.0286169 0.0133859 
0.01864 0.0293734 0.0133813 
0.018663 0.0301299 0.0133767 
0.018686 0.0308865 0.0133721 
0.018709 0.031643 0.0133675 
0.018732 0.0323995 0.0133629 
0.018755 0.033156 0.0133583 
0.018778 0.0339125 0.0133537 
0.018801 0.034669 0.013349 
0.018087 0.0355122 0.012668 
0.01811 0.0362703 0.0126634 
0.018133 0.0370284 0.0126588 
0.018156 0.0377865 0.0126541 
0.018179 0.0385446 0.0126495 
0.018202 0.0393027 0.0126449 
0.018225 0.0400609 0.0126403 
0.018248 0.040819 0.0126357 
0.018271 0.0415771 0.012631 
0.018295 0.0423352 0.0126264 
0.018318 0.0430933 0.0126218 
0.018341 0.0438514 0.0126172 
0.018364 0.0446095 0.0126126 
0.018387 0.0453676 0.0126079 
0.01841 0.0461257 0.0126033 
0.018433 0.0468838 0.0125987 
0.018456 0.0476419 0.0125941 
0.018479 0.0484 0.0125895 
0.018502 0.0491581 0.0125848 
0.018525 0.0499162 0.0125802 
0.018548 0.0506743 0.0125756 
0.018571 0.0514324 0.012571 
0.018594 0.0521905 0.0125664 
0.018617 0.0529486 0.0125617 
0.01864 0.0537067 0.0125571 
0.018663 0.0544648 0.0125525 
0.018686 0.0552229 0.0125479 
0.017974 0.0561107 0.0118665 
0.017997 0.0568704 0.0118619 
0.01802 0.0576301 0.0118573 
0.018043 0.0583898 0.0118526 
0.018066 0.0591495 0.011848 
0.018089 0.0599092 0.0118434 
0.017378 0.0608082 0.011162 
0.017401 0.0615695 0.0111573 
0.017424 0.0623308 0.0111527 
0.017447 0.063092 0.0111481 
0.01747 0.0638533 0.0111434 
0.017493 0.0646146 0.0111388 
0.016782 0.0655247 0.0104573 
0.016805 0.0662876 0.0104527 
0.016828 0.0670505 0.010448 
0.016851 0.0678134 0.0104434 
0.016874 0.0685763 0.0104387 
0.016898 0.0693391 0.0104341 
0.016921 0.070102 0.0104294 
0.016944 0.0708649 0.0104248 
0.016967 0.0716278 0.0104201 
0.016256 0.0725538 0.00973855 
0.016279 0.073318 0.00973389 
0.016303 0.074083 0.00972923 
0.016326 0.074847 0.00972457 
0.016349 0.075612 0.00971992 
0.016372 0.076376 0.00971526 
0.016396 0.077141 0.0097106 
0.016419 0.077905 0.00970594 
0.016442 0.07867 0.00970128 
0.016465 0.079434 0.00969662 
0.016489 0.080199 0.00969197 
0.015778 0.081144 0.00901026 
0.015801 0.08191 0.0090056 
0.015825 0.082676 0.00900093 
0.015848 0.083442 0.00899626 
0.015871 0.084208 0.00899159 
0.015894 0.084974 0.00898692 
0.015184 0.08593 0.00830517 
0.015208 0.086698 0.0083005 
0.015231 0.087466 0.00829582 
0.015254 0.088233 0.00829114 
0.013811 0.089394 0.00693221 
0.011635 0.09076 0.00489611 
0.010192 0.091935 0.00353708 
0.00801703 0.093318 0.00150088 
0.00482202 -0.0038618 0.000809366 
0.00558398 -0.0030821 0.00148179 
0.01677 0.000634701 0.0116166 
0.017531 0.0013794 0.0122892 
0.017554 0.0021375 0.0122846 
0.017577 0.0028956 0.0122799 
0.0176 0.0036537 0.0122753 
0.01836 0.0043904 0.012948 
0.018383 0.005147 0.0129434 
0.018406 0.0059035 0.0129388 
0.018429 0.00666 0.0129342 
0.018452 0.0074165 0.0129296 
0.018475 0.008173 0.0129249 
0.018498 0.0089295 0.0129203 
0.018521 0.009686 0.0129157 
0.018544 0.0104425 0.0129111 
0.018567 0.011199 0.0129065 
0.01859 0.0119556 0.0129019 
0.018613 0.0127121 0.0128973 
0.018636 0.0134686 0.0128927 
0.018659 0.0142251 0.0128881 
0.018682 0.0149816 0.0128835 
0.018705 0.0157381 0.0128788 
0.018728 0.0164946 0.0128742 
0.018751 0.0172511 0.0128696 
0.018774 0.0180076 0.012865 
0.018797 0.0187641 0.0128604 
0.01882 0.0195207 0.0128558 
0.018843 0.0202772 0.0128512 
0.018866 0.0210337 0.0128466 
0.018889 0.0217902 0.012842 
0.018912 0.0225467 0.0128374 
0.018935 0.0233032 0.0128327 
0.018958 0.0240597 0.0128281 
0.018981 0.0248162 0.0128235 
0.018268 0.0256387 0.0121414 
0.018291 0.0263968 0.0121367 
0.018314 0.0271549 0.0121321 
0.018337 0.027913 0.0121275 
0.01836 0.0286711 0.0121229 
0.018383 0.0294292 0.0121183 
0.018406 0.0301873 0.0121136 
0.018429 0.0309454 0.012109 
0.018452 0.0317035 0.0121044 
0.018475 0.0324616 0.0120998 
0.018498 0.0332197 0.0120952 
0.018521 0.0339779 0.0120905 
0.018544 0.034736 0.0120859 
0.018568 0.0354941 0.0120813 
0.018591 0.0362522 0.0120767 
0.018614 0.0370103 0.0120721 
0.018637 0.0377684 0.0120674 
0.01866 0.0385265 0.0120628 
0.018683 0.0392846 0.0120582 
0.018706 0.0400427 0.0120536 
0.017994 0.0408986 0.0113712 
0.018017 0.0416583 0.0113666 
0.01804 0.042418 0.0113619 
0.018063 0.0431777 0.0113573 
0.018086 0.0439374 0.0113527 
0.018109 0.0446971 0.011348 
0.018132 0.0454568 0.0113434 
0.018155 0.0462165 0.0113388 
0.018178 0.0469762 0.0113342 
0.018201 0.0477359 0.0113295 
0.018224 0.0484956 0.0113249 
0.018248 0.0492553 0.0113203 
0.018271 0.050015 0.0113156 
0.018294 0.0507747 0.011311 
0.018317 0.0515343 0.0113064 
0.01834 0.052294 0.0113018 
0.018363 0.0530537 0.0112971 
0.018386 0.0538134 0.0112925 
0.018409 0.0545731 0.0112879 
0.018432 0.0553328 0.0112832 
0.018455 0.0560925 0.0112786 
0.018478 0.0568522 0.011274 
0.018502 0.0576119 0.0112694 
0.017791 0.0585061 0.0105867 
0.017814 0.0592673 0.0105821 
0.017837 0.0600286 0.0105775 
0.01786 0.0607899 0.0105728 
0.017883 0.0615512 0.0105682 
0.017906 0.0623125 0.0105636 
0.017196 0.0632178 0.00988086 
0.017219 0.0639807 0.00987621 
0.017242 0.0647436 0.00987156 
0.017265 0.0655065 0.00986692 
0.017288 0.0662693 0.00986227 
0.017311 0.0670322 0.00985762 
0.017335 0.0677951 0.00985297 
0.016624 0.0687131 0.00917022 
0.016648 0.0694776 0.00916557 
0.016671 0.0702421 0.00916091 
0.016694 0.0710065 0.00915625 
0.016717 0.071771 0.00915159 
0.016741 0.0725355 0.00914693 
0.016764 0.0733 0.00914227 
0.016787 0.074064 0.00913761 
0.01681 0.074829 0.00913296 
0.016833 0.075593 0.0091283 
0.016124 0.076529 0.00844542 
0.016147 0.077295 0.00844075 
0.01617 0.078061 0.00843609 
0.016194 0.078827 0.00843142 
0.016217 0.079593 0.00842675 
0.01624 0.080359 0.00842208 
0.016263 0.081125 0.00841741 
0.016287 0.081891 0.00841274 
0.015577 0.082841 0.0077298 
0.015601 0.083609 0.00772513 
0.015624 0.084377 0.00772045 
0.015647 0.085144 0.00771577 
0.015671 0.085912 0.00771109 
0.015694 0.08668 0.00770641 
0.014985 0.087641 0.00702341 
0.015008 0.08841 0.00701872 
0.013567 0.089572 0.00565731 
0.012126 0.090741 0.00429586 
0.00995398 0.092116 0.002256 
0.00778101 0.0935 0.000216068 
0.00455798 -0.0046636 -0.000471889 
0.00605603 -0.0038845 0.000880154 
0.00681702 -0.0031063 0.0015538 
0.016514 0.0006299 0.0103502 
0.017274 0.0013762 0.011024 
0.017297 0.0021359 0.0110194 
0.018057 0.0028774 0.0116933 
0.01808 0.0036355 0.0116886 
0.018103 0.0043936 0.011684 
0.018126 0.0051517 0.0116794 
0.018149 0.0059098 0.0116748 
0.018172 0.006668 0.0116702 
0.018195 0.0074261 0.0116655 
0.018955 0.0081549 0.0123395 
0.018978 0.0089114 0.0123349 
0.019001 0.0096679 0.0123303 
0.019024 0.0104244 0.0123257 
0.019047 0.0111809 0.012321 
0.01907 0.0119374 0.0123164 
0.019093 0.0126939 0.0123118 
0.019116 0.0134504 0.0123072 
0.019139 0.0142069 0.0123026 
0.019162 0.0149635 0.012298 
0.019185 0.01572 0.0122934 
0.019208 0.0164765 0.0122888 
0.019231 0.017233 0.0122842 
0.019254 0.0179895 0.0122796 
0.019277 0.018746 0.0122749 
0.0193 0.0195025 0.0122703 
0.018587 0.0203138 0.011587 
0.01861 0.0210719 0.0115824 
0.018633 0.02183 0.0115778 
0.018656 0.0225881 0.0115731 
0.018679 0.0233462 0.0115685 
0.018702 0.0241043 0.0115639 
0.018725 0.0248624 0.0115593 
0.018748 0.0256205 0.0115547 
0.018771 0.0263786 0.0115501 
0.018794 0.0271367 0.0115454 
0.018817 0.0278948 0.0115408 
0.01884 0.028653 0.0115362 
0.018864 0.0294111 0.0115316 
0.018887 0.0301692 0.011527 
0.018175 0.0310043 0.0108435 
0.018198 0.031764 0.0108388 
0.018221 0.0325237 0.0108342 
0.018244 0.0332834 0.0108296 
0.018267 0.0340431 0.0108249 
0.01829 0.0348028 0.0108203 
0.018313 0.0355625 0.0108157 
0.018336 0.0363222 0.0108111 
0.018359 0.0370819 0.0108064 
0.018383 0.0378416 0.0108018 
0.018406 0.0386013 0.0107972 
0.018429 0.039361 0.0107925 
0.018452 0.0401207 0.0107879 
0.018475 0.0408804 0.0107833 
0.018498 0.0416401 0.0107786 
0.018521 0.0423998 0.010774 
0.018544 0.0431595 0.0107694 
0.018567 0.0439192 0.0107648 
0.01859 0.0446789 0.0107601 
0.018613 0.0454386 0.0107555 
0.018637 0.0461983 0.0107509 
0.01866 0.046958 0.0107462 
0.018683 0.0477177 0.0107416 
0.018706 0.0484773 0.010737 
0.018729 0.0492371 0.0107324 
0.018752 0.0499967 0.0107277 
0.018775 0.0507564 0.0107231 
0.018798 0.0515161 0.0107185 
0.018821 0.0522758 0.0107138 
0.018844 0.0530355 0.0107092 
0.018867 0.0537952 0.0107046 
0.018891 0.0545549 0.0106999 
0.01818 0.0554427 0.0100162 
0.018204 0.0562039 0.0100115 
0.018227 0.0569652 0.0100069 
0.01825 0.0577265 0.0100022 
0.018273 0.0584878 0.0099976 
0.018296 0.0592491 0.00999296 
0.018319 0.0600104 0.00998832 
0.017609 0.0609109 0.00930442 
0.017633 0.0616738 0.00929978 
0.017656 0.0624366 0.00929513 
0.017679 0.0631995 0.00929048 
0.017702 0.0639624 0.00928583 
0.016993 0.0648724 0.0086019 
0.017016 0.0656369 0.00859724 
0.017039 0.0664014 0.00859258 
0.017062 0.0671659 0.00858792 
0.017086 0.0679303 0.00858326 
0.017109 0.0686948 0.00857861 
0.017132 0.0694593 0.00857395 
0.017155 0.0702237 0.00856929 
0.016446 0.0711481 0.00788525 
0.016469 0.0719142 0.00788058 
0.016493 0.0726803 0.00787591 
0.016516 0.073446 0.00787124 
0.016539 0.074212 0.00786658 
0.016563 0.074978 0.00786191 
0.016586 0.075745 0.00785724 
0.016609 0.076511 0.00785257 
0.016632 0.077277 0.0078479 
0.016656 0.078043 0.00784324 
0.015947 0.078985 0.00715911 
0.01597 0.079752 0.00715443 
0.015994 0.08052 0.00714976 
0.016017 0.081288 0.00714508 
0.01604 0.082055 0.0071404 
0.016064 0.082823 0.00713572 
0.016087 0.083591 0.00713104 
0.01611 0.084358 0.00712637 
0.015402 0.085314 0.00644215 
0.015426 0.086084 0.00643747 
0.015449 0.086853 0.00643278 
0.015472 0.087622 0.00642809 
0.014765 0.088586 0.00574381 
0.013326 0.08975 0.00437992 
0.011156 0.091119 0.00233641 
0.00971698 0.092297 0.000972437 
0.00655298 -0.0039032 0.000273745 
0.00731299 -0.003125 0.000948621 
0.00880798 -0.002357 0.0023032 
0.016261 0.000624901 0.00908129 
0.01702 0.0013729 0.00975637 
0.017779 0.0021177 0.0104315 
0.017802 0.0028774 0.0104268 
0.017825 0.0036371 0.0104222 
0.018583 0.0043755 0.0110973 
0.018607 0.0051336 0.0110927 
0.01863 0.0058917 0.0110881 
0.018653 0.0066498 0.0110835 
0.018676 0.0074079 0.0110789 
0.018699 0.008166 0.0110742 
0.018722 0.0089241 0.0110696 
0.018745 0.0096822 0.011065 
0.018768 0.0104403 0.0110604 
0.018791 0.0111984 0.0110558 
0.018814 0.0119565 0.0110511 
0.018837 0.0127146 0.0110465 
0.01886 0.0134727 0.0110419 
0.018883 0.0142308 0.0110373 
0.018906 0.0149889 0.0110327 
0.018929 0.015747 0.011028 
0.018952 0.0165051 0.0110234 
0.018975 0.0172632 0.0110188 
0.018998 0.0180213 0.0110142 
0.019021 0.0187794 0.0110096 
0.019044 0.0195375 0.0110049 
0.019067 0.0202956 0.0110003 
0.01909 0.0210537 0.0109957 
0.019113 0.0218118 0.0109911 
0.019137 0.0225699 0.0109865 
0.018425 0.0233892 0.0103018 
0.018448 0.0241489 0.0102972 
0.018471 0.0249086 0.0102926 
0.018494 0.0256683 0.0102879 
0.018518 0.0264279 0.0102833 
0.018541 0.0271876 0.0102787 
0.018564 0.0279473 0.0102741 
0.018587 0.028707 0.0102694 
0.01861 0.0294667 0.0102648 
0.018633 0.0302264 0.0102602 
0.018656 0.0309861 0.0102555 
0.018679 0.0317458 0.0102509 
0.018702 0.0325055 0.0102463 
0.018725 0.0332652 0.0102416 
0.018748 0.0340249 0.010237 
0.018772 0.0347846 0.0102324 
0.018795 0.0355443 0.0102278 
0.018084 0.0363922 0.00954297 
0.018107 0.0371535 0.00953834 
0.01813 0.0379148 0.0095337 
0.018154 0.0386761 0.00952906 
0.018177 0.0394373 0.00952442 
0.0182 0.0401986 0.00951978 
0.018223 0.0409599 0.00951514 
0.018246 0.0417212 0.0095105 
0.018269 0.0424825 0.00950586 
0.018293 0.0432438 0.00950122 
0.018316 0.0440051 0.00949658 
0.018339 0.0447664 0.00949194 
0.018362 0.0455276 0.00948731 
0.018385 0.0462889 0.00948267 
0.018408 0.0470502 0.00947803 
0.018431 0.0478115 0.00947339 
0.018454 0.0485728 0.00946875 
0.018478 0.0493341 0.00946411 
0.018501 0.0500954 0.00945947 
0.018524 0.0508567 0.00945483 
0.018547 0.051618 0.00945019 
0.01857 0.0523792 0.00944555 
0.018593 0.0531405 0.00944092 
0.018616 0.0539018 0.00943628 
0.01864 0.0546631 0.00943164 
0.018663 0.0554244 0.009427 
0.018686 0.0561857 0.00942236 
0.018709 0.056947 0.00941772 
0.018 0.0578411 0.00873263 
0.018023 0.0586039 0.00872798 
0.018046 0.0593668 0.00872334 
0.01807 0.0601297 0.00871869 
0.018093 0.0608926 0.00871404 
0.018116 0.0616555 0.00870939 
0.017407 0.0625607 0.00802425 
0.017431 0.0633251 0.0080196 
0.017454 0.0640896 0.00801494 
0.017477 0.0648541 0.00801028 
0.0175 0.0656186 0.00800562 
0.017523 0.066383 0.00800096 
0.017547 0.0671475 0.0079963 
0.016838 0.0680655 0.00731107 
0.016862 0.0688316 0.0073064 
0.016885 0.0695976 0.00730173 
0.016908 0.0703637 0.00729707 
0.016932 0.0711298 0.0072924 
0.016955 0.0718958 0.00728773 
0.016247 0.0728249 0.00660245 
0.01627 0.073593 0.00659777 
0.016294 0.07436 0.00659309 
0.016317 0.075128 0.00658842 
0.01634 0.075896 0.00658374 
0.016364 0.076663 0.00657906 
0.016387 0.077431 0.00657438 
0.01641 0.078199 0.0065697 
0.016434 0.078966 0.00656503 
0.016457 0.079734 0.00656035 
0.01648 0.080502 0.00655567 
0.016504 0.081269 0.00655099 
0.015796 0.082219 0.00586559 
0.01582 0.082988 0.0058609 
0.015843 0.083757 0.00585621 
0.015866 0.084527 0.00585152 
0.01589 0.085296 0.00584684 
0.015913 0.086065 0.00584215 
0.015206 0.087026 0.00515665 
0.01523 0.087797 0.00515196 
0.014523 0.088763 0.00446645 
0.013086 0.089928 0.00310009 
0.011649 0.0911 0.0017337 
0.00948199 0.092478 -0.000313575 
0.007073 -0.0031384 -0.000337439 
0.00856702 -0.0023687 0.00101959 
0.013782 -0.0001094 0.00577185 
0.016009 0.000620001 0.00780997 
0.016767 0.0013695 0.00848626 
0.017525 0.0021159 0.00916258 
0.017548 0.0028772 0.00915794 
0.018306 0.0036189 0.00983427 
0.018329 0.0043785 0.00982964 
0.018352 0.0051382 0.00982501 
0.018375 0.0058979 0.00982038 
0.018399 0.0066576 0.00981576 
0.018422 0.0074173 0.00981113 
0.018445 0.008177 0.0098065 
0.018468 0.0089367 0.00980187 
0.018491 0.0096964 0.00979724 
0.018514 0.0104561 0.00979261 
0.019271 0.0111802 0.0104691 
0.019294 0.0119383 0.0104644 
0.019317 0.0126964 0.0104598 
0.01934 0.0134545 0.0104552 
0.019363 0.0142126 0.0104506 
0.019386 0.0149707 0.010446 
0.019409 0.0157288 0.0104413 
0.019432 0.0164869 0.0104367 
0.018722 0.0172934 0.00975094 
0.018745 0.0180531 0.00974632 
0.018768 0.0188128 0.00974169 
0.018791 0.0195725 0.00973706 
0.018814 0.0203322 0.00973243 
0.018837 0.0210919 0.0097278 
0.01886 0.0218516 0.00972317 
0.018883 0.0226113 0.00971854 
0.018907 0.0233709 0.00971391 
0.01893 0.0241306 0.00970928 
0.018953 0.0248903 0.00970465 
0.018976 0.02565 0.00970002 
0.018999 0.0264097 0.00969539 
0.018289 0.0272385 0.00900949 
0.018312 0.0279998 0.00900485 
0.018335 0.028761 0.00900021 
0.018358 0.0295223 0.00899557 
0.018382 0.0302836 0.00899093 
0.018405 0.0310449 0.00898629 
0.018428 0.0318062 0.00898166 
0.018451 0.0325675 0.00897702 
0.018474 0.0333288 0.00897238 
0.018497 0.0340901 0.00896774 
0.01852 0.0348514 0.0089631 
0.018543 0.0356126 0.00895846 
0.018567 0.0363739 0.00895382 
0.01859 0.0371352 0.00894918 
0.018613 0.0378965 0.00894454 
0.018636 0.0386578 0.0089399 
0.018659 0.0394191 0.00893527 
0.018682 0.0401804 0.00893063 
0.017973 0.0410394 0.00824452 
0.017996 0.0418023 0.00823987 
0.01802 0.0425651 0.00823522 
0.018043 0.043328 0.00823057 
0.018066 0.0440909 0.00822593 
0.018089 0.0448538 0.00822128 
0.018112 0.0456167 0.00821663 
0.018136 0.0463795 0.00821198 
0.018159 0.0471424 0.00820733 
0.018182 0.0479053 0.00820268 
0.018205 0.0486682 0.00819803 
0.018228 0.0494311 0.00819338 
0.018252 0.050194 0.00818874 
0.018275 0.0509568 0.00818409 
0.018298 0.0517197 0.00817944 
0.018321 0.0524826 0.00817479 
0.018344 0.0532455 0.00817014 
0.018367 0.0540084 0.00816549 
0.018391 0.0547712 0.00816084 
0.018414 0.0555341 0.00815619 
0.018437 0.056297 0.00815154 
0.01846 0.0570599 0.0081469 
0.018483 0.0578228 0.00814225 
0.018507 0.0585856 0.0081376 
0.01853 0.0593485 0.00813295 
0.017822 0.0602489 0.00744661 
0.017845 0.0610134 0.00744195 
0.017868 0.0617779 0.00743729 
0.017892 0.0625424 0.00743264 
0.017915 0.0633068 0.00742798 
0.017938 0.0640713 0.00742332 
0.017231 0.0649829 0.00673689 
0.017254 0.0657489 0.00673222 
0.017277 0.066515 0.00672756 
0.017301 0.067281 0.00672289 
0.017324 0.0680471 0.00671822 
0.016617 0.0689682 0.00603176 
0.01664 0.0697359 0.00602708 
0.016663 0.0705035 0.0060224 
0.016687 0.0712712 0.00601772 
0.01671 0.0720389 0.00601305 
0.016733 0.0728065 0.00600837 
0.016757 0.073574 0.00600369 
0.01678 0.074342 0.00599901 
0.016803 0.075109 0.00599433 
0.016097 0.076047 0.00530777 
0.01612 0.076816 0.00530308 
0.016143 0.077585 0.0052984 
0.016167 0.078354 0.00529371 
0.01619 0.079124 0.00528902 
0.016214 0.079893 0.00528433 
0.016237 0.080662 0.00527965 
0.01626 0.081431 0.00527496 
0.016284 0.082201 0.00527027 
0.016307 0.08297 0.00526558 
0.01633 0.083739 0.0052609 
0.015624 0.084695 0.0045742 
0.015648 0.085466 0.0045695 
0.015671 0.086237 0.0045648 
0.015695 0.087008 0.00456011 
0.014989 0.087972 0.00387338 
0.014283 0.088939 0.00318661 
0.012848 0.090106 0.00181778 
0.011413 0.091279 0.000448927 
0.00832703 -0.0023805 -0.000266498 
0.013535 -0.000116199 0.00449435 
0.015026 0.000628099 0.00585401 
0.016517 0.0013661 0.0072137 
0.017274 0.0021141 0.00789122 
0.018031 0.002859 0.00856879 
0.018054 0.0036203 0.00856415 
0.018077 0.0043816 0.00855951 
0.0181 0.0051428 0.00855487 
0.018857 0.0058797 0.00923246 
0.01888 0.0066394 0.00922783 
0.018903 0.0073991 0.0092232 
0.018926 0.0081588 0.00921858 
0.018949 0.0089185 0.00921395 
0.018972 0.0096782 0.00920932 
0.018995 0.0104379 0.00920469 
0.019018 0.0111976 0.00920006 
0.019042 0.0119573 0.00919543 
0.019065 0.012717 0.0091908 
0.019088 0.0134767 0.00918617 
0.019111 0.0142364 0.00918154 
0.019134 0.0149961 0.00917691 
0.019157 0.0157558 0.00917228 
0.01918 0.0165155 0.00916765 
0.019203 0.0172752 0.00916302 
0.019226 0.0180349 0.00915839 
0.019249 0.0187946 0.00915376 
0.019272 0.0195543 0.00914913 
0.019296 0.0203139 0.00914451 
0.018586 0.0211299 0.00845745 
0.018609 0.0218912 0.00845281 
0.018633 0.0226525 0.00844817 
0.018656 0.0234138 0.00844353 
0.018679 0.0241751 0.00843889 
0.018702 0.0249364 0.00843425 
0.018725 0.0256976 0.00842962 
0.018748 0.0264589 0.00842498 
0.018771 0.0272202 0.00842034 
0.018794 0.0279815 0.0084157 
0.018818 0.0287428 0.00841106 
0.018841 0.0295041 0.00840642 
0.018864 0.0302654 0.00840178 
0.018155 0.0311036 0.00771457 
0.018178 0.0318665 0.00770992 
0.018202 0.0326294 0.00770527 
0.018225 0.0333923 0.00770062 
0.018248 0.0341551 0.00769597 
0.018271 0.034918 0.00769132 
0.018294 0.0356809 0.00768668 
0.018318 0.0364438 0.00768203 
0.018341 0.0372067 0.00767738 
0.018364 0.0379696 0.00767273 
0.018387 0.0387324 0.00766808 
0.01841 0.0394953 0.00766343 
0.018433 0.0402582 0.00765878 
0.018457 0.0410211 0.00765413 
0.01848 0.041784 0.00764949 
0.018503 0.0425468 0.00764484 
0.018526 0.0433097 0.00764019 
0.018549 0.0440726 0.00763554 
0.018573 0.0448355 0.00763089 
0.018596 0.0455984 0.00762624 
0.018619 0.0463613 0.00762159 
0.018642 0.0471241 0.00761694 
0.018665 0.047887 0.0076123 
0.018688 0.0486499 0.00760765 
0.018712 0.0494128 0.007603 
0.018735 0.0501757 0.00759835 
0.018758 0.0509385 0.0075937 
0.018781 0.0517014 0.00758905 
0.018804 0.0524643 0.0075844 
0.018828 0.0532272 0.00757975 
0.018851 0.0539901 0.0075751 
0.018874 0.0547529 0.00757046 
0.018897 0.0555158 0.00756581 
0.01892 0.0562787 0.00756116 
0.018213 0.0571727 0.00687363 
0.018237 0.0579372 0.00686897 
0.01826 0.0587017 0.00686431 
0.018283 0.0594661 0.00685965 
0.018306 0.0602306 0.00685499 
0.01833 0.0609951 0.00685033 
0.017623 0.0619002 0.00616271 
0.017646 0.0626663 0.00615805 
0.017669 0.0634324 0.00615338 
0.017693 0.0641984 0.00614871 
0.017716 0.0649645 0.00614404 
0.01701 0.0658792 0.00545638 
0.017033 0.0666468 0.00545171 
0.017056 0.0674145 0.00544703 
0.01708 0.0681822 0.00544235 
0.017103 0.0689498 0.00543767 
0.017126 0.0697175 0.00543299 
0.01715 0.0704851 0.00542832 
0.016444 0.0714126 0.00474058 
0.016467 0.0721818 0.00473589 
0.01649 0.0729511 0.0047312 
0.016514 0.07372 0.00472652 
0.016537 0.07449 0.00472183 
0.016561 0.075259 0.00471714 
0.016584 0.076028 0.00471245 
0.016607 0.076797 0.00470777 
0.016631 0.077567 0.00470308 
0.015925 0.07851 0.00401523 
0.015949 0.079281 0.00401053 
0.015972 0.080052 0.00400583 
0.015996 0.080823 0.00400113 
0.016019 0.081593 0.00399644 
0.016042 0.082364 0.00399174 
0.016066 0.083135 0.00398704 
0.016089 0.083906 0.00398235 
0.016113 0.084677 0.00397765 
0.016136 0.085448 0.00397295 
0.015431 0.086408 0.00328501 
0.015455 0.087181 0.0032803 
0.015478 0.087953 0.0032756 
0.014045 0.089115 0.00190433 
0.012612 0.090284 0.000533019 
0.00958002 -0.0016257 -0.000193051 
0.013291 -0.0001231 0.00321442 
0.01478 0.0006229 0.00457652 
0.016269 0.0013626 0.00593865 
0.017025 0.0021122 0.00661742 
0.017781 0.0028587 0.00729619 
0.017804 0.0036216 0.00729154 
0.01856 0.0043633 0.00797036 
0.018583 0.0051246 0.00796572 
0.018606 0.0058859 0.00796108 
0.018629 0.0066472 0.00795644 
0.018652 0.0074085 0.0079518 
0.018675 0.0081697 0.00794716 
0.018698 0.008931 0.00794252 
0.018721 0.0096923 0.00793788 
0.018745 0.0104536 0.00793324 
0.018768 0.0112149 0.0079286 
0.018791 0.0119762 0.00792397 
0.018814 0.0127375 0.00791933 
0.018837 0.0134988 0.00791469 
0.01886 0.0142601 0.00791005 
0.018883 0.0150213 0.00790541 
0.018907 0.0157826 0.00790077 
0.01893 0.0165439 0.00789613 
0.018953 0.0173052 0.00789149 
0.018976 0.0180665 0.00788685 
0.018999 0.0188278 0.00788221 
0.019022 0.0195891 0.00787757 
0.019045 0.0203504 0.00787294 
0.019069 0.0211117 0.0078683 
0.019092 0.0218729 0.00786366 
0.019115 0.0226342 0.00785902 
0.019138 0.0233955 0.00785438 
0.01843 0.0242194 0.00716602 
0.018453 0.0249823 0.00716137 
0.018476 0.0257452 0.00715672 
0.018499 0.026508 0.00715208 
0.018523 0.0272709 0.00714743 
0.018546 0.0280338 0.00714278 
0.018569 0.0287967 0.00713813 
0.018592 0.0295596 0.00713348 
0.018615 0.0303225 0.00712883 
0.018639 0.0310853 0.00712418 
0.018662 0.0318482 0.00711953 
0.018685 0.0326111 0.00711489 
0.018708 0.033374 0.00711024 
0.018731 0.0341369 0.00710559 
0.018755 0.0348997 0.00710094 
0.018778 0.0356626 0.00709629 
0.018801 0.0364255 0.00709164 
0.018824 0.0371884 0.00708699 
0.018847 0.0379513 0.00708234 
0.01887 0.0387141 0.0070777 
0.018163 0.0395715 0.00638915 
0.018187 0.0403359 0.0063845 
0.01821 0.0411004 0.00637984 
0.018233 0.0418649 0.00637518 
0.018256 0.0426294 0.00637052 
0.01828 0.0433938 0.00636586 
0.018303 0.0441583 0.0063612 
0.018326 0.0449228 0.00635654 
0.018349 0.0456873 0.00635189 
0.018372 0.0464517 0.00634723 
0.018396 0.0472162 0.00634257 
0.018419 0.0479807 0.00633791 
0.018442 0.0487452 0.00633325 
0.018465 0.0495096 0.00632859 
0.018489 0.0502741 0.00632394 
0.018512 0.0510386 0.00631928 
0.018535 0.0518031 0.00631462 
0.018558 0.0525675 0.00630996 
0.018582 0.053332 0.0063053 
0.018605 0.0540965 0.00630064 
0.018628 0.054861 0.00629598 
0.018651 0.0556254 0.00629133 
0.018674 0.0563899 0.00628667 
0.018698 0.0571544 0.00628201 
0.018721 0.0579188 0.00627735 
0.018744 0.0586833 0.00627269 
0.018038 0.0595836 0.00558387 
0.018062 0.0603497 0.0055792 
0.018085 0.0611158 0.00557453 
0.018108 0.0618819 0.00556986 
0.018132 0.0626479 0.0055652 
0.017426 0.0635578 0.00487633 
0.017449 0.0643255 0.00487166 
0.017473 0.0650931 0.00486698 
0.017496 0.0658608 0.0048623 
0.017519 0.0666284 0.00485762 
0.017543 0.0673961 0.00485294 
0.016838 0.0683171 0.00416401 
0.016861 0.0690864 0.00415933 
0.016884 0.0698556 0.00415464 
0.016908 0.0706249 0.00414995 
0.016931 0.0713941 0.00414526 
0.016955 0.0721634 0.00414058 
0.01625 0.073096 0.00345156 
0.016273 0.073866 0.00344686 
0.016297 0.074637 0.00344216 
0.01632 0.075408 0.00343747 
0.016343 0.076179 0.00343277 
0.016367 0.07695 0.00342807 
0.01639 0.077721 0.00342338 
0.016414 0.078491 0.00341868 
0.016437 0.079262 0.00341398 
0.016461 0.080033 0.00340928 
0.016484 0.080804 0.00340459 
0.01578 0.081755 0.00271547 
0.015803 0.082528 0.00271077 
0.015827 0.0833 0.00270606 
0.01585 0.084073 0.00270135 
0.015874 0.084845 0.00269665 
0.015897 0.085617 0.00269194 
0.015193 0.08658 0.00200274 
0.015217 0.087354 0.00199802 
0.01524 0.088128 0.0019933 
0.014537 0.089097 0.00130408 
0.013049 -0.000129999 0.001932 
0.014536 0.000617701 0.00329656 
0.016023 0.001359 0.00466116 
0.016777 0.0021103 0.00534113 
0.017532 0.0028584 0.00602114 
0.018287 0.0036033 0.00670116 
0.01831 0.0043662 0.00669651 
0.018333 0.0051291 0.00669186 
0.018357 0.005892 0.00668721 
0.01838 0.0066548 0.00668256 
0.018403 0.0074177 0.00667791 
0.018426 0.0081806 0.00667326 
0.018449 0.0089435 0.00666861 
0.019204 0.0096741 0.00734873 
0.019227 0.0104354 0.00734409 
0.01925 0.0111966 0.00733945 
0.019273 0.0119579 0.00733481 
0.019296 0.0127192 0.00733017 
0.01932 0.0134805 0.00732554 
0.019343 0.0142418 0.0073209 
0.019366 0.0150031 0.00731626 
0.019389 0.0157644 0.00731162 
0.019412 0.0165257 0.00730698 
0.019435 0.017287 0.00730234 
0.019458 0.0180482 0.0072977 
0.019482 0.0188095 0.00729306 
0.018774 0.0196238 0.00660353 
0.018797 0.0203867 0.00659888 
0.01882 0.0211496 0.00659423 
0.018844 0.0219125 0.00658958 
0.018867 0.0226753 0.00658494 
0.01889 0.0234382 0.00658029 
0.018913 0.0242011 0.00657564 
0.018936 0.024964 0.00657099 
0.01896 0.0257269 0.00656634 
0.018983 0.0264898 0.00656169 
0.019006 0.0272526 0.00655704 
0.018299 0.028086 0.00586741 
0.018322 0.0288505 0.00586275 
0.018346 0.029615 0.0058581 
0.018369 0.0303795 0.00585344 
0.018392 0.0311439 0.00584878 
0.018415 0.0319084 0.00584412 
0.018439 0.0326729 0.00583946 
0.018462 0.0334374 0.0058348 
0.018485 0.0342018 0.00583015 
0.018508 0.0349663 0.00582549 
0.018532 0.0357308 0.00582083 
0.018555 0.0364952 0.00581617 
0.018578 0.0372597 0.00581151 
0.018601 0.0380242 0.00580685 
0.018625 0.0387887 0.00580219 
0.018648 0.0395531 0.00579754 
0.018671 0.0403176 0.00579288 
0.018694 0.0410821 0.00578822 
0.018717 0.0418466 0.00578356 
0.018741 0.042611 0.0057789 
0.018764 0.0433755 0.00577424 
0.018787 0.04414 0.00576958 
0.01881 0.0449045 0.00576493 
0.018834 0.0456689 0.00576027 
0.018857 0.0464334 0.00575561 
0.01888 0.0471979 0.00575095 
0.018903 0.0479624 0.00574629 
0.018927 0.0487268 0.00574163 
0.01895 0.0494913 0.00573698 
0.018973 0.0502558 0.00573232 
0.018996 0.0510203 0.00572766 
0.01902 0.0517847 0.005723 
0.018314 0.0526707 0.00503303 
0.018338 0.0534368 0.00502836 
0.018361 0.0542028 0.0050237 
0.018384 0.0549689 0.00501903 
0.018407 0.0557349 0.00501436 
0.018431 0.056501 0.00500969 
0.018454 0.0572671 0.00500502 
0.018477 0.0580331 0.00500035 
0.018501 0.0587992 0.00499569 
0.017796 0.0597011 0.00430564 
0.017819 0.0604688 0.00430096 
0.017843 0.0612364 0.00429628 
0.017866 0.0620041 0.00429161 
0.017889 0.0627717 0.00428693 
0.017912 0.0635394 0.00428225 
0.017936 0.0643071 0.00427757 
0.017232 0.0652217 0.00358745 
0.017255 0.0659909 0.00358276 
0.017278 0.0667602 0.00357808 
0.017302 0.0675294 0.00357339 
0.017325 0.0682987 0.0035687 
0.016621 0.0692229 0.0028785 
0.016644 0.0699937 0.0028738 
0.016668 0.0707645 0.0028691 
0.016691 0.0715354 0.00286441 
0.016715 0.0723063 0.00285971 
0.016738 0.073077 0.00285501 
0.016762 0.073848 0.00285031 
0.016785 0.074619 0.00284562 
0.016081 0.075557 0.00215535 
0.016105 0.07633 0.00215064 
0.016128 0.077102 0.00214594 
0.016152 0.077875 0.00214123 
0.016175 0.078647 0.00213652 
0.016199 0.079419 0.00213181 
0.016222 0.080192 0.00212711 
0.016246 0.080964 0.0021224 
0.015542 0.081917 0.00143202 
0.015566 0.082691 0.00142731 
0.01559 0.083465 0.00142259 
0.015613 0.084239 0.00141787 
0.015637 0.085013 0.00141316 
0.01566 0.085787 0.00140844 
0.015684 0.086561 0.00140372 
0.015707 0.087335 0.00139901 
0.015004 0.088303 0.000708563 
0.014302 0.089273 1.80805e-05 
0.012808 -0.000136999 0.000647129 
0.015778 0.0013553 0.00338121 
0.016532 0.0021082 0.0040624 
0.018017 0.0028401 0.00542953 
0.01804 0.0036045 0.00542487 
0.018063 0.004369 0.00542021 
0.018086 0.0051335 0.00541555 
0.01811 0.005898 0.00541089 
0.018863 0.0066365 0.00609217 
0.018886 0.0073994 0.00608752 
0.01891 0.0081623 0.00608288 
0.018933 0.0089252 0.00607823 
0.018956 0.0096881 0.00607358 
0.018979 0.010451 0.00606893 
0.019002 0.0112138 0.00606428 
0.019026 0.0119767 0.00605963 
0.019049 0.0127396 0.00605498 
0.019072 0.0135025 0.00605033 
0.019095 0.0142654 0.00604569 
0.019118 0.0150282 0.00604104 
0.019142 0.0157911 0.00603639 
0.019165 0.016554 0.00603174 
0.019188 0.0173169 0.00602709 
0.019211 0.0180798 0.00602244 
0.019234 0.0188426 0.00601779 
0.019258 0.0196055 0.00601314 
0.019281 0.0203684 0.0060085 
0.019304 0.0211313 0.00600385 
0.019327 0.0218942 0.0059992 
0.018621 0.0227164 0.00530841 
0.018644 0.0234809 0.00530375 
0.018667 0.0242453 0.00529909 
0.018691 0.0250098 0.00529443 
0.018714 0.0257743 0.00528977 
0.018737 0.0265388 0.00528511 
0.01876 0.0273032 0.00528046 
0.018784 0.0280677 0.0052758 
0.018807 0.0288322 0.00527114 
0.01883 0.0295966 0.00526648 
0.018853 0.0303611 0.00526182 
0.018148 0.0312024 0.00457089 
0.018171 0.0319685 0.00456622 
0.018194 0.0327346 0.00456155 
0.018218 0.0335006 0.00455689 
0.018241 0.0342667 0.00455222 
0.018264 0.0350328 0.00454755 
0.018287 0.0357989 0.00454288 
0.018311 0.0365649 0.00453821 
0.018334 0.037331 0.00453355 
0.018357 0.038097 0.00452888 
0.018381 0.0388631 0.00452421 
0.018404 0.0396292 0.00451954 
0.018427 0.0403952 0.00451487 
0.01845 0.0411613 0.0045102 
0.018474 0.0419274 0.00450554 
0.018497 0.0426935 0.00450087 
0.01852 0.0434595 0.0044962 
0.018544 0.0442256 0.00449153 
0.018567 0.0449917 0.00448686 
0.01859 0.0457577 0.0044822 
0.018613 0.0465238 0.00447753 
0.018637 0.0472898 0.00447286 
0.01866 0.0480559 0.00446819 
0.018683 0.048822 0.00446352 
0.018707 0.0495881 0.00445885 
0.01873 0.0503541 0.00445419 
0.018753 0.0511202 0.00444952 
0.018776 0.0518862 0.00444485 
0.0188 0.0526523 0.00444018 
0.018823 0.0534184 0.00443551 
0.018846 0.0541845 0.00443085 
0.018142 0.0550767 0.00373962 
0.018166 0.0558444 0.00373495 
0.018189 0.0566121 0.00373027 
0.018212 0.0573797 0.00372559 
0.018236 0.0581474 0.00372091 
0.018259 0.058915 0.00371623 
0.018282 0.0596827 0.00371156 
0.018306 0.0604504 0.00370688 
0.017602 0.061357 0.00301557 
0.017625 0.0621262 0.00301089 
0.017649 0.0628955 0.0030062 
0.017672 0.0636647 0.00300151 
0.017695 0.064434 0.00299682 
0.017719 0.0652032 0.00299213 
0.017016 0.066121 0.00230074 
0.017039 0.0668919 0.00229604 
0.017062 0.0676627 0.00229134 
0.017086 0.0684335 0.00228665 
0.017109 0.0692044 0.00228195 
0.016406 0.0701317 0.00159052 
0.01643 0.0709041 0.00158581 
0.016453 0.0716766 0.0015811 
0.016477 0.072449 0.0015764 
0.0165 0.073221 0.00157169 
0.016524 0.073994 0.00156698 
0.016547 0.074766 0.00156228 
0.015845 0.075706 0.000870744 
0.015868 0.07648 0.000866028 
0.015892 0.077254 0.000861311 
0.015915 0.078029 0.000856594 
0.015939 0.078803 0.000851878 
0.015962 0.079577 0.000847161 
0.015986 0.080351 0.000842444 
0.016009 0.081125 0.000837727 
0.016033 0.081899 0.000833011 
0.016056 0.082673 0.000828294 
0.01608 0.083447 0.000823577 
0.016104 0.084221 0.00081886 
0.015402 0.085182 0.000127222 
0.015425 0.085957 0.000122495 
0.015449 0.086733 0.000117769 
0.015472 0.087508 0.000113042 
0.016289 0.0021061 0.0027812 
0.017772 0.0028396 0.00415076 
0.017795 0.0036057 0.0041461 
0.017818 0.0043717 0.00414143 
0.018571 0.0051152 0.00482393 
0.018594 0.0058796 0.00481927 
0.018617 0.0066441 0.00481461 
0.018641 0.0074086 0.00480996 
0.018664 0.008173 0.0048053 
0.018687 0.0089375 0.00480064 
0.01871 0.009702 0.00479598 
0.018734 0.0104665 0.00479132 
0.018757 0.0112309 0.00478666 
0.01878 0.0119954 0.00478201 
0.018803 0.0127599 0.00477735 
0.018826 0.0135244 0.00477269 
0.01885 0.0142888 0.00476803 
0.018873 0.0150533 0.00476337 
0.018896 0.0158178 0.00475871 
0.018919 0.0165823 0.00475405 
0.018943 0.0173467 0.0047494 
0.018966 0.0181112 0.00474474 
0.018989 0.0188757 0.00474008 
0.019012 0.0196402 0.00473542 
0.019036 0.0204046 0.00473076 
0.019059 0.0211691 0.0047261 
0.019082 0.0219336 0.00472145 
0.019105 0.0226981 0.00471679 
0.019129 0.0234625 0.00471213 
0.019152 0.024227 0.00470747 
0.019175 0.0249915 0.00470281 
0.01847 0.0258216 0.00401072 
0.018493 0.0265877 0.00400605 
0.018517 0.0273538 0.00400138 
0.01854 0.0281198 0.00399671 
0.018563 0.0288859 0.00399205 
0.018587 0.029652 0.00398738 
0.01861 0.030418 0.00398271 
0.018633 0.0311841 0.00397804 
0.018656 0.0319501 0.00397337 
0.01868 0.0327162 0.0039687 
0.018703 0.0334823 0.00396404 
0.018726 0.0342483 0.00395937 
0.01875 0.0350144 0.0039547 
0.018773 0.0357805 0.00395003 
0.018796 0.0365466 0.00394536 
0.018819 0.0373126 0.0039407 
0.018843 0.0380787 0.00393603 
0.018866 0.0388447 0.00393136 
0.018889 0.0396108 0.00392669 
0.018913 0.0403769 0.00392202 
0.018936 0.041143 0.00391735 
0.018232 0.0420081 0.00322506 
0.018255 0.0427758 0.00322039 
0.018279 0.0435434 0.00321571 
0.018302 0.0443111 0.00321103 
0.018325 0.0450788 0.00320635 
0.018349 0.0458464 0.00320168 
0.018372 0.0466141 0.003197 
0.018395 0.0473817 0.00319232 
0.018419 0.0481494 0.00318764 
0.018442 0.0489171 0.00318296 
0.018465 0.0496847 0.00317829 
0.018489 0.0504524 0.00317361 
0.018512 0.05122 0.00316893 
0.018535 0.0519877 0.00316425 
0.018559 0.0527553 0.00315957 
0.018582 0.053523 0.0031549 
0.018605 0.0542907 0.00315022 
0.018629 0.0550583 0.00314554 
0.018652 0.055826 0.00314086 
0.017949 0.056723 0.00244838 
0.017972 0.0574923 0.00244369 
0.017996 0.0582615 0.00243901 
0.018019 0.0590308 0.00243432 
0.018043 0.0598 0.00242963 
0.018066 0.0605693 0.00242494 
0.018089 0.0613385 0.00242026 
0.018113 0.0621078 0.00241557 
0.01741 0.0630191 0.00172298 
0.017434 0.06379 0.00171828 
0.017457 0.0645608 0.00171359 
0.017481 0.0653317 0.00170889 
0.017504 0.0661025 0.00170419 
0.016802 0.0670234 0.00101157 
0.016825 0.0677959 0.00100686 
0.016849 0.0685683 0.00100215 
0.016872 0.0693407 0.000997445 
0.016896 0.0701132 0.000992737 
0.016194 0.0710437 0.000300031 
0.016218 0.0718177 0.000295314 
0.016241 0.0725917 0.000290598 
0.016265 0.073366 0.000285881 
0.016288 0.07414 0.000281164 
0.016312 0.074914 0.000276447 
0.016335 0.075688 0.000271731 
0.016359 0.076462 0.000267014 
0.016382 0.077236 0.000262297 
0.016406 0.07801 0.00025758 
0.016048 0.0021039 0.00149752 
0.017528 0.0028391 0.00286956 
0.017552 0.0036067 0.00286488 
0.017575 0.0043744 0.0028602 
0.018327 0.0051194 0.00354391 
0.01835 0.0058855 0.00353924 
0.018373 0.0066516 0.00353457 
0.018397 0.0074176 0.0035299 
0.01842 0.0081837 0.00352523 
0.018443 0.0089498 0.00352057 
0.019195 0.0096837 0.00420436 
0.019218 0.0104481 0.00419971 
0.019241 0.0112126 0.00419505 
0.019264 0.0119771 0.00419039 
0.019288 0.0127416 0.00418573 
0.019311 0.013506 0.00418107 
0.019334 0.0142705 0.00417641 
0.019357 0.015035 0.00417175 
0.019381 0.0157995 0.0041671 
0.019404 0.0165639 0.00416244 
0.019427 0.0173284 0.00415778 
0.01945 0.0180929 0.00415312 
0.019474 0.0188574 0.00414846 
0.019497 0.0196218 0.0041438 
0.018793 0.0204408 0.00345054 
0.018816 0.0212068 0.00344588 
0.018839 0.0219729 0.00344121 
0.018862 0.022739 0.00343654 
0.018886 0.023505 0.00343187 
0.018909 0.0242711 0.0034272 
0.018932 0.0250372 0.00342253 
0.018956 0.0258032 0.00341787 
0.018979 0.0265693 0.0034132 
