ply
format ascii 1.0
comment Created by CloudCompare v2.11 alpha (Anoia)
comment Created 17/05/2019 19:42
obj_info Generated by CloudCompare!
element vertex 1581
property float x
property float y
property float z
end_header
0.019891 0.0481913 0.0245347 
0.019913 0.0489351 0.0245302 
0.019936 0.0496789 0.0245257 
0.019958 0.0504226 0.0245211 
0.019981 0.0511664 0.0245166 
0.020004 0.0519102 0.0245121 
0.020026 0.0526539 0.0245075 
0.020049 0.0533977 0.024503 
0.020072 0.0541415 0.0244985 
0.020094 0.0548852 0.0244939 
0.020117 0.055629 0.0244894 
0.020139 0.0563728 0.0244849 
0.020162 0.0571166 0.0244803 
0.020185 0.0578603 0.0244758 
0.00845801 -0.0234234 0.0157526 
0.00848102 -0.0226589 0.0157479 
0.009255 -0.0218254 0.0164077 
0.010028 -0.0209951 0.0170674 
0.010802 -0.020168 0.0177272 
0.012325 -0.0192798 0.0190515 
0.012348 -0.0185233 0.0190469 
0.013872 -0.0176446 0.0203712 
0.014644 -0.0168318 0.0210311 
0.015417 -0.0160222 0.021691 
0.01544 -0.0152721 0.0216864 
0.016213 -0.0144672 0.0223463 
0.016986 -0.0136656 0.0230063 
0.017008 -0.0129186 0.0230017 
0.017031 -0.0121717 0.0229972 
0.017054 -0.0114247 0.0229926 
0.017077 -0.0106778 0.0229881 
0.017849 -0.00988567 0.0236481 
0.017872 -0.00914031 0.0236435 
0.017894 -0.00839495 0.023639 
0.017917 -0.00764959 0.0236345 
0.018689 -0.00686546 0.0242945 
0.018712 -0.00612169 0.02429 
0.018734 -0.00537792 0.0242855 
0.018757 -0.00463415 0.0242809 
0.018779 -0.00389038 0.0242764 
0.018802 -0.00314661 0.0242719 
0.018825 -0.00240284 0.0242673 
0.018847 -0.00165907 0.0242628 
0.01887 -0.0009153 0.0242583 
0.018893 -0.00017153 0.0242537 
0.018915 0.0005722 0.0242492 
0.018938 0.001316 0.0242447 
0.01896 0.0020598 0.0242401 
0.018983 0.0028035 0.0242356 
0.019005 0.0035473 0.0242311 
0.019777 0.004306 0.0248913 
0.019799 0.0050481 0.0248867 
0.019822 0.0057903 0.0248822 
0.019845 0.0065325 0.0248777 
0.019867 0.0072747 0.0248732 
0.01989 0.0080168 0.0248687 
0.019912 0.008759 0.0248641 
0.019935 0.0095012 0.0248596 
0.019957 0.0102434 0.0248551 
0.01998 0.0109856 0.0248506 
0.020002 0.0117277 0.024846 
0.020025 0.0124699 0.0248415 
0.020048 0.0132121 0.024837 
0.02007 0.0139543 0.0248325 
0.020093 0.0146964 0.024828 
0.020115 0.0154386 0.0248234 
0.020138 0.0161808 0.0248189 
0.02016 0.016923 0.0248144 
0.020183 0.0176651 0.0248099 
0.020205 0.0184073 0.0248053 
0.020228 0.0191495 0.0248008 
0.020251 0.0198917 0.0247963 
0.020273 0.0206339 0.0247918 
0.020296 0.021376 0.0247872 
0.020318 0.0221182 0.0247827 
0.020341 0.0228604 0.0247782 
0.020363 0.0236026 0.0247737 
0.020386 0.0243447 0.0247692 
0.020409 0.0250869 0.0247646 
0.020431 0.0258291 0.0247601 
0.020454 0.0265713 0.0247556 
0.020476 0.0273134 0.0247511 
0.020499 0.0280556 0.0247465 
0.020521 0.0287978 0.024742 
0.020544 0.02954 0.0247375 
0.020566 0.0302822 0.024733 
0.020589 0.0310243 0.0247285 
0.020612 0.0317665 0.0247239 
0.020634 0.0325087 0.0247194 
0.020657 0.0332509 0.0247149 
0.020679 0.033993 0.0247104 
0.020702 0.0347352 0.0247058 
0.020724 0.0354774 0.0247013 
0.020747 0.0362196 0.0246968 
0.020769 0.0369617 0.0246923 
0.020792 0.0377039 0.0246878 
0.020815 0.0384461 0.0246832 
0.020091 0.0392483 0.0240135 
0.020113 0.039992 0.024009 
0.020136 0.0407358 0.0240044 
0.020159 0.0414796 0.0239999 
0.020181 0.0422233 0.0239954 
0.020204 0.0429671 0.0239909 
0.020226 0.0437109 0.0239863 
0.020249 0.0444546 0.0239818 
0.019525 0.0452711 0.023312 
0.019548 0.0460165 0.0233074 
0.019571 0.0467619 0.0233029 
0.019593 0.0475072 0.0232983 
0.019616 0.0482526 0.0232938 
0.019639 0.0489979 0.0232893 
0.019661 0.0497433 0.0232847 
0.019684 0.0504887 0.0232802 
0.019707 0.051234 0.0232756 
0.019729 0.0519794 0.0232711 
0.019752 0.0527247 0.0232665 
0.02052 0.0533799 0.0239274 
0.020543 0.0541236 0.0239229 
0.020565 0.0548674 0.0239183 
0.020588 0.0556112 0.0239138 
0.020611 0.0563549 0.0239093 
0.020633 0.0570987 0.0239047 
0.00819299 -0.023514 0.0144953 
0.00896503 -0.0226772 0.0151563 
0.00973798 -0.0218437 0.0158173 
0.01051 -0.0210133 0.0164783 
0.012032 -0.0201203 0.017805 
0.012805 -0.0192979 0.018466 
0.013577 -0.0184787 0.0191271 
0.015098 -0.0176016 0.0204539 
0.01587 -0.0167903 0.021115 
0.016642 -0.0159823 0.0217762 
0.016665 -0.0152337 0.0217716 
0.016687 -0.0144852 0.021767 
0.017459 -0.0136835 0.0224282 
0.017482 -0.0129365 0.0224237 
0.017504 -0.0121896 0.0224191 
0.017527 -0.0114426 0.0224146 
0.018299 -0.0106489 0.0230758 
0.018321 -0.00990354 0.0230713 
0.018344 -0.00915818 0.0230667 
0.018366 -0.00841282 0.0230622 
0.018389 -0.00766746 0.0230576 
0.018412 -0.0069221 0.0230531 
0.018434 -0.00617673 0.0230485 
0.018457 -0.00543137 0.023044 
0.01848 -0.00468601 0.0230395 
0.019251 -0.00390821 0.0237008 
0.019273 -0.00316444 0.0236963 
0.019296 -0.00242067 0.0236917 
0.019319 -0.00167691 0.0236872 
0.019341 -0.00093314 0.0236827 
0.019364 -0.00018936 0.0236781 
0.019386 0.0005544 0.0236736 
0.019409 0.0012982 0.0236691 
0.019432 0.0020419 0.0236645 
0.019454 0.0027857 0.02366 
0.019477 0.0035295 0.0236555 
0.019499 0.0042733 0.0236509 
0.019522 0.005017 0.0236464 
0.019545 0.0057608 0.0236419 
0.019567 0.0065046 0.0236373 
0.01959 0.0072483 0.0236328 
0.019612 0.0079921 0.0236283 
0.019635 0.0087359 0.0236237 
0.019658 0.0094796 0.0236192 
0.01968 0.0102234 0.0236147 
0.019703 0.0109672 0.0236101 
0.019725 0.0117109 0.0236056 
0.019748 0.0124547 0.0236011 
0.019771 0.0131985 0.0235966 
0.019793 0.0139423 0.023592 
0.019816 0.014686 0.0235875 
0.020586 0.0154208 0.0242491 
0.020608 0.016163 0.0242445 
0.020631 0.0169052 0.02424 
0.020653 0.0176474 0.0242355 
0.020676 0.0183895 0.024231 
0.020698 0.0191317 0.0242265 
0.020721 0.0198739 0.0242219 
0.020743 0.0206161 0.0242174 
0.020766 0.0213582 0.0242129 
0.020789 0.0221004 0.0242084 
0.020811 0.0228426 0.0242038 
0.020834 0.0235848 0.0241993 
0.020856 0.0243269 0.0241948 
0.020879 0.0250691 0.0241903 
0.020901 0.0258113 0.0241858 
0.020924 0.0265535 0.0241812 
0.020946 0.0272957 0.0241767 
0.020969 0.0280378 0.0241722 
0.020992 0.02878 0.0241677 
0.021014 0.0295222 0.0241631 
0.021037 0.0302644 0.0241586 
0.020313 0.031049 0.0234878 
0.020336 0.0317927 0.0234832 
0.020358 0.0325365 0.0234787 
0.020381 0.0332803 0.0234742 
0.020404 0.034024 0.0234696 
0.020426 0.0347678 0.0234651 
0.020449 0.0355116 0.0234606 
0.020471 0.0362553 0.0234561 
0.020494 0.0369991 0.0234515 
0.020517 0.0377429 0.023447 
0.020539 0.0384867 0.0234425 
0.020562 0.0392304 0.0234379 
0.020585 0.0399742 0.0234334 
0.020607 0.040718 0.0234289 
0.019884 0.0415265 0.0227579 
0.019907 0.0422718 0.0227533 
0.01993 0.0430172 0.0227488 
0.019952 0.0437625 0.0227442 
0.019975 0.0445079 0.0227397 
0.019998 0.0452533 0.0227351 
0.02002 0.0459986 0.0227306 
0.020043 0.046744 0.0227261 
0.020066 0.0474893 0.0227215 
0.020088 0.0482347 0.022717 
0.020111 0.0489801 0.0227124 
0.020134 0.0497254 0.0227079 
0.020156 0.0504708 0.0227033 
0.020179 0.0512162 0.0226988 
0.020202 0.0519615 0.0226943 
0.020224 0.0527069 0.0226897 
0.020247 0.0534522 0.0226852 
0.02027 0.0541976 0.0226806 
0.020292 0.054943 0.0226761 
0.021059 0.0555934 0.0233382 
0.020337 0.0564337 0.022667 
0.00486499 -0.0262159 0.0105823 
0.00713397 -0.0252154 0.0125781 
0.00790601 -0.0243723 0.0132403 
0.00867798 -0.0235323 0.0139025 
0.00945001 -0.0226956 0.0145647 
0.010221 -0.021862 0.0152269 
0.011741 -0.0209641 0.016556 
0.012513 -0.0201385 0.0172183 
0.013284 -0.019316 0.0178806 
0.015574 -0.0176196 0.0198721 
0.016345 -0.0168083 0.0205345 
0.017116 -0.0160002 0.0211969 
0.017139 -0.0152517 0.0211923 
0.01791 -0.0144484 0.0218547 
0.017932 -0.0137014 0.0218502 
0.017955 -0.0129544 0.0218456 
0.017978 -0.0122075 0.0218411 
0.018 -0.0114605 0.0218365 
0.018023 -0.0107136 0.021832 
0.018046 -0.00996663 0.0218274 
0.018069 -0.00921967 0.0218229 
0.018839 -0.00843069 0.0224853 
0.018861 -0.00768533 0.0224808 
0.018884 -0.00693997 0.0224763 
0.018907 -0.0061946 0.0224717 
0.018929 -0.00544924 0.0224672 
0.018952 -0.00470388 0.0224626 
0.018975 -0.00395852 0.0224581 
0.018997 -0.00321315 0.0224535 
0.01902 -0.00246779 0.022449 
0.019043 -0.00172243 0.0224445 
0.019065 -0.00097707 0.0224399 
0.019088 -0.0002317 0.0224354 
0.019111 0.0005137 0.0224308 
0.019133 0.001259 0.0224263 
0.019156 0.0020044 0.0224218 
0.019179 0.0027497 0.0224172 
0.019201 0.0034951 0.0224127 
0.019224 0.0042405 0.0224081 
0.019247 0.0049858 0.0224036 
0.019269 0.0057312 0.022399 
0.019292 0.0064766 0.0223945 
0.019315 0.0072219 0.02239 
0.019337 0.0079673 0.0223854 
0.01936 0.0087126 0.0223809 
0.019383 0.009458 0.0223763 
0.020152 0.0102056 0.0230391 
0.020174 0.0109493 0.0230346 
0.020197 0.0116931 0.02303 
0.020219 0.0124369 0.0230255 
0.020242 0.0131807 0.023021 
0.020265 0.0139244 0.0230164 
0.020287 0.0146682 0.0230119 
0.02031 0.015412 0.0230074 
0.020332 0.0161557 0.0230028 
0.020355 0.0168995 0.0229983 
0.020378 0.0176433 0.0229938 
0.0204 0.018387 0.0229892 
0.020423 0.0191308 0.0229847 
0.020445 0.0198746 0.0229802 
0.020468 0.0206184 0.0229756 
0.020491 0.0213621 0.0229711 
0.020513 0.0221059 0.0229666 
0.020536 0.0228497 0.022962 
0.020558 0.0235934 0.0229575 
0.020581 0.0243372 0.022953 
0.020604 0.025081 0.0229484 
0.020626 0.0258247 0.0229439 
0.020649 0.0265685 0.0229394 
0.020672 0.0273123 0.0229348 
0.020694 0.028056 0.0229303 
0.020717 0.0287998 0.0229258 
0.020739 0.0295436 0.0229212 
0.020762 0.0302874 0.0229167 
0.020785 0.0310311 0.0229122 
0.020807 0.0317749 0.0229076 
0.02083 0.0325187 0.0229031 
0.020852 0.0332624 0.0228986 
0.020875 0.0340062 0.0228941 
0.020898 0.03475 0.0228895 
0.02092 0.0354937 0.022885 
0.020198 0.036291 0.0222128 
0.020221 0.0370364 0.0222083 
0.020243 0.0377818 0.0222037 
0.020266 0.0385271 0.0221992 
0.020289 0.0392725 0.0221947 
0.020311 0.0400179 0.0221901 
0.020334 0.0407632 0.0221856 
0.020357 0.0415086 0.022181 
0.020379 0.0422539 0.0221765 
0.020402 0.0429993 0.0221719 
0.01968 0.0438141 0.0214997 
0.019703 0.0445611 0.0214951 
0.019726 0.045308 0.0214906 
0.019749 0.046055 0.021486 
0.019771 0.0468019 0.0214815 
0.019794 0.0475489 0.0214769 
0.019817 0.0482958 0.0214724 
0.019839 0.0490428 0.0214678 
0.019862 0.0497898 0.0214633 
0.019885 0.0505367 0.0214587 
0.020651 0.0511983 0.022122 
0.01993 0.0520306 0.0214496 
0.020696 0.052689 0.0221129 
0.020719 0.0534344 0.0221084 
0.020742 0.0541797 0.0221038 
0.020765 0.0549251 0.0220993 
0.020787 0.0556705 0.0220947 
0.00762201 -0.0252339 0.0119828 
0.00839301 -0.0243907 0.0126462 
0.00916302 -0.0235507 0.0133096 
0.00993402 -0.0227139 0.0139731 
0.010705 -0.0218803 0.0146365 
0.012223 -0.0209823 0.0159681 
0.012993 -0.0201566 0.0166316 
0.015281 -0.0184521 0.0186268 
0.016051 -0.0176376 0.0192904 
0.016821 -0.0168263 0.019954 
0.01759 -0.0160182 0.0206176 
0.017613 -0.0152696 0.020613 
0.018383 -0.0144663 0.0212767 
0.018406 -0.0137193 0.0212721 
0.018428 -0.0129724 0.0212676 
0.018451 -0.0122254 0.021263 
0.018474 -0.0114784 0.0212585 
0.018496 -0.0107315 0.0212539 
0.018519 -0.00998454 0.0212493 
0.018542 -0.00923758 0.0212448 
0.018565 -0.00849063 0.0212402 
0.018587 -0.00774367 0.0212357 
0.01861 -0.00699672 0.0212311 
0.018633 -0.00624976 0.0212266 
0.018655 -0.00550281 0.021222 
0.018678 -0.00475585 0.0212175 
0.018701 -0.0040089 0.0212129 
0.01947 -0.00323102 0.0218767 
0.019492 -0.00248566 0.0218722 
0.019515 -0.0017403 0.0218676 
0.019538 -0.00099494 0.0218631 
0.01956 -0.00024957 0.0218585 
0.019583 0.0004958 0.021854 
0.019606 0.0012411 0.0218495 
0.019628 0.0019865 0.0218449 
0.019651 0.0027319 0.0218404 
0.019674 0.0034772 0.0218358 
0.019696 0.0042226 0.0218313 
0.019719 0.004968 0.0218268 
0.019742 0.0057133 0.0218222 
0.019764 0.0064587 0.0218177 
0.019787 0.007204 0.0218131 
0.019809 0.0079494 0.0218086 
0.019832 0.0086948 0.021804 
0.019855 0.0094401 0.0217995 
0.019877 0.0101855 0.021795 
0.0199 0.0109309 0.0217904 
0.019923 0.0116762 0.0217859 
0.019945 0.0124216 0.0217813 
0.019968 0.0131669 0.0217768 
0.019991 0.0139123 0.0217723 
0.020013 0.0146577 0.0217677 
0.020036 0.015403 0.0217632 
0.020059 0.0161484 0.0217586 
0.020081 0.0168938 0.0217541 
0.020104 0.0176391 0.0217495 
0.020127 0.0183845 0.021745 
0.020149 0.0191298 0.0217405 
0.020172 0.0198752 0.0217359 
0.020195 0.0206206 0.0217314 
0.020217 0.0213659 0.0217268 
0.02024 0.0221113 0.0217223 
0.020263 0.0228567 0.0217177 
0.020285 0.023602 0.0217132 
0.020308 0.0243474 0.0217087 
0.020331 0.0250927 0.0217041 
0.020353 0.0258381 0.0216996 
0.020376 0.0265835 0.021695 
0.020398 0.0273288 0.0216905 
0.020421 0.0280742 0.021686 
0.020444 0.0288195 0.0216814 
0.020466 0.0295649 0.0216769 
0.020489 0.0303103 0.0216723 
0.020512 0.0310556 0.0216678 
0.020534 0.031801 0.0216632 
0.020557 0.0325464 0.0216587 
0.02058 0.0332917 0.0216542 
0.020602 0.0340371 0.0216496 
0.020625 0.0347824 0.0216451 
0.020648 0.0355278 0.0216405 
0.02067 0.0362732 0.021636 
0.020693 0.0370185 0.0216314 
0.020716 0.0377639 0.0216269 
0.019995 0.0385675 0.0209535 
0.020018 0.0393145 0.0209489 
0.02004 0.0400614 0.0209444 
0.020063 0.0408084 0.0209398 
0.020086 0.0415554 0.0209353 
0.020108 0.0423023 0.0209307 
0.020131 0.0430493 0.0209262 
0.020154 0.0437962 0.0209216 
0.020177 0.0445432 0.0209171 
0.020199 0.0452901 0.0209125 
0.020222 0.0460371 0.020908 
0.020245 0.046784 0.0209034 
0.020267 0.047531 0.0208989 
0.02029 0.0482779 0.0208943 
0.020313 0.0490249 0.0208898 
0.020335 0.0497719 0.0208852 
0.020358 0.0505188 0.0208807 
0.020381 0.0512658 0.0208761 
0.020404 0.0520127 0.0208716 
0.020426 0.0527597 0.020867 
0.020449 0.0535066 0.0208625 
0.020472 0.0542536 0.0208579 
0.020494 0.0550005 0.0208533 
0.00659198 -0.0261758 0.0100536 
0.00810901 -0.0252523 0.0113875 
0.00813202 -0.024483 0.0113828 
0.00964899 -0.0235691 0.0127168 
0.010418 -0.0227322 0.0133814 
0.011934 -0.0218294 0.0147155 
0.012704 -0.0210005 0.0153802 
0.01422 -0.0201088 0.0167143 
0.014989 -0.0192879 0.017379 
0.015758 -0.0184702 0.0180438 
0.017273 -0.0175944 0.019378 
0.017296 -0.0168443 0.0193734 
0.018065 -0.0160361 0.0200383 
0.018087 -0.0152876 0.0200337 
0.01811 -0.014539 0.0200292 
0.018879 -0.0137372 0.020694 
0.018902 -0.0129903 0.0206895 
0.018924 -0.0122433 0.0206849 
0.018947 -0.0114964 0.0206804 
0.01897 -0.0107494 0.0206758 
0.018992 -0.0100024 0.0206713 
0.019015 -0.00925549 0.0206667 
0.019038 -0.00850854 0.0206622 
0.01906 -0.00776158 0.0206576 
0.019083 -0.00701463 0.0206531 
0.019106 -0.00626767 0.0206485 
0.019129 -0.00552072 0.020644 
0.019151 -0.00477376 0.0206394 
0.019174 -0.00402681 0.0206349 
0.019197 -0.00327985 0.0206303 
0.019219 -0.0025329 0.0206258 
0.019242 -0.00178594 0.0206212 
0.019265 -0.00103899 0.0206167 
0.019287 -0.00029203 0.0206121 
0.01931 0.0004549 0.0206076 
0.019333 0.0012019 0.020603 
0.019356 0.0019488 0.0205985 
0.019378 0.0026958 0.0205939 
0.019401 0.0034427 0.0205894 
0.019424 0.0041897 0.0205848 
0.019446 0.0049367 0.0205803 
0.019469 0.0056836 0.0205757 
0.019492 0.0064306 0.0205711 
0.019515 0.0071775 0.0205666 
0.019537 0.0079245 0.020562 
0.01956 0.0086714 0.0205575 
0.019583 0.0094184 0.0205529 
0.02035 0.0101676 0.0212181 
0.020372 0.010913 0.0212136 
0.020395 0.0116583 0.021209 
0.020418 0.0124037 0.0212045 
0.02044 0.0131491 0.0212 
0.020463 0.0138944 0.0211954 
0.020486 0.0146398 0.0211909 
0.020508 0.0153852 0.0211863 
0.020531 0.0161305 0.0211818 
0.020554 0.0168759 0.0211773 
0.020576 0.0176212 0.0211727 
0.020599 0.0183666 0.0211682 
0.020622 0.019112 0.0211636 
0.020644 0.0198573 0.0211591 
0.020667 0.0206027 0.0211545 
0.02069 0.0213481 0.02115 
0.020712 0.0220934 0.0211455 
0.020735 0.0228388 0.0211409 
0.020758 0.0235841 0.0211364 
0.020037 0.0243575 0.0204619 
0.020059 0.0251044 0.0204574 
0.020082 0.0258514 0.0204528 
0.020105 0.0265983 0.0204482 
0.020128 0.0273453 0.0204437 
0.02015 0.0280923 0.0204391 
0.020173 0.0288392 0.0204346 
0.020196 0.0295862 0.02043 
0.020218 0.0303331 0.0204255 
0.020241 0.0310801 0.0204209 
0.020264 0.031827 0.0204164 
0.020286 0.032574 0.0204118 
0.020309 0.0333209 0.0204073 
0.020332 0.0340679 0.0204027 
0.020355 0.0348148 0.0203982 
0.020377 0.0355618 0.0203936 
0.0204 0.0363088 0.0203891 
0.020423 0.0370557 0.0203845 
0.020445 0.0378027 0.02038 
0.020468 0.0385496 0.0203754 
0.020491 0.0392966 0.0203709 
0.020514 0.0400435 0.0203663 
0.020536 0.0407905 0.0203618 
0.019817 0.041602 0.019687 
0.019839 0.0423506 0.0196825 
0.019862 0.0430991 0.0196779 
0.019885 0.0438477 0.0196734 
0.019908 0.0445962 0.0196688 
0.01993 0.0453448 0.0196642 
0.019953 0.0460933 0.0196597 
0.019976 0.0468419 0.0196551 
0.019999 0.0475904 0.0196506 
0.020021 0.048339 0.019646 
0.020044 0.0490875 0.0196414 
0.020067 0.0498361 0.0196369 
0.02009 0.0505846 0.0196323 
0.020112 0.0513332 0.0196277 
0.020135 0.0520817 0.0196232 
0.020158 0.0528303 0.0196186 
0.020181 0.0535788 0.0196141 
0.020945 0.0542357 0.0202798 
0.00556702 -0.0271243 0.00811949 
0.00708197 -0.0261944 0.00945582 
0.00785101 -0.0253463 0.0101216 
0.00862 -0.0245015 0.0107875 
0.010134 -0.0235874 0.0121239 
0.011648 -0.0226797 0.0134604 
0.012417 -0.0218476 0.0141263 
0.013185 -0.0210187 0.0147923 
0.014699 -0.020127 0.0161288 
0.015467 -0.019306 0.0167948 
0.016235 -0.0184883 0.0174608 
0.017748 -0.0176124 0.0187975 
0.017771 -0.0168623 0.0187929 
0.018539 -0.0160541 0.019459 
0.018562 -0.0153055 0.0194544 
0.018585 -0.014557 0.0194499 
0.018607 -0.0138084 0.0194453 
0.01863 -0.0130599 0.0194407 
0.018653 -0.0123113 0.0194362 
0.018676 -0.0115628 0.0194316 
0.018698 -0.0108142 0.0194271 
0.018721 -0.0100657 0.0194225 
0.019488 -0.0092734 0.0200887 
0.018766 -0.00856859 0.0194134 
0.018789 -0.00782004 0.0194088 
0.018812 -0.00707149 0.0194042 
0.019579 -0.00628558 0.0200705 
0.019602 -0.00553862 0.0200659 
0.019625 -0.00479167 0.0200614 
0.019647 -0.00404472 0.0200568 
0.01967 -0.00329776 0.0200523 
0.019693 -0.0025508 0.0200477 
0.019715 -0.00180385 0.0200432 
0.018994 -0.00108311 0.0193678 
0.019761 -0.00030994 0.0200341 
0.019784 0.000437 0.0200295 
0.019806 0.001184 0.020025 
0.019829 0.0019309 0.0200204 
0.019852 0.0026779 0.0200158 
0.019874 0.0034248 0.0200113 
0.019897 0.0041718 0.0200067 
0.01992 0.0049187 0.0200022 
0.019942 0.0056657 0.0199976 
0.019965 0.0064127 0.0199931 
0.019988 0.0071596 0.0199885 
0.020011 0.0079066 0.019984 
0.020033 0.0086535 0.0199794 
0.020056 0.0094005 0.0199749 
0.020079 0.0101474 0.0199703 
0.020101 0.0108944 0.0199658 
0.020124 0.0116413 0.0199612 
0.020147 0.0123883 0.0199567 
0.020169 0.0131352 0.0199521 
0.020192 0.0138822 0.0199476 
0.020215 0.0146292 0.019943 
0.020238 0.0153761 0.0199385 
0.02026 0.0161231 0.0199339 
0.020283 0.01687 0.0199294 
0.020306 0.017617 0.0199248 
0.020328 0.0183639 0.0199203 
0.020351 0.0191109 0.0199157 
0.020374 0.0198578 0.0199112 
0.020396 0.0206048 0.0199066 
0.020419 0.0213518 0.0199021 
0.020442 0.0220987 0.0198975 
0.020465 0.0228457 0.019893 
0.020487 0.0235926 0.0198884 
0.02051 0.0243396 0.0198838 
0.020533 0.0250865 0.0198793 
0.020555 0.0258335 0.0198747 
0.020578 0.0265804 0.0198702 
0.020601 0.0273274 0.0198656 
0.020624 0.0280743 0.0198611 
0.020646 0.0288213 0.0198565 
0.020669 0.0295683 0.019852 
0.020692 0.0303152 0.0198474 
0.020714 0.0310622 0.0198429 
0.020737 0.0318091 0.0198383 
0.02076 0.0325561 0.0198338 
0.020782 0.033303 0.0198292 
0.020805 0.03405 0.0198247 
0.020828 0.0347969 0.0198201 
0.020109 0.0355957 0.0191442 
0.020132 0.0363443 0.0191397 
0.020154 0.0370928 0.0191351 
0.020177 0.0378414 0.0191306 
0.0202 0.0385899 0.019126 
0.020223 0.0393385 0.0191214 
0.020245 0.040087 0.0191169 
0.020268 0.0408355 0.0191123 
0.020291 0.0415841 0.0191078 
0.020314 0.0423326 0.0191032 
0.020336 0.0430812 0.0190986 
0.020359 0.0438297 0.0190941 
0.020382 0.0445783 0.0190895 
0.019664 0.0453994 0.0184135 
0.019686 0.0461495 0.0184089 
0.019709 0.0468996 0.0184044 
0.019732 0.0476498 0.0183998 
0.019755 0.0483999 0.0183952 
0.019778 0.0491501 0.0183907 
0.020541 0.0498181 0.0190576 
0.019823 0.0506503 0.0183815 
0.020587 0.0513152 0.0190485 
0.020609 0.0520638 0.0190439 
0.020632 0.0528123 0.0190393 
0.020655 0.0535609 0.0190348 
0.00531403 -0.0272217 0.00684748 
0.00757098 -0.0262129 0.00885804 
0.00908398 -0.0252892 0.0101969 
0.00985199 -0.0244459 0.010864 
0.01062 -0.0236058 0.0115311 
0.012132 -0.022698 0.01287 
0.014411 -0.0209693 0.0148762 
0.015178 -0.0201451 0.0155434 
0.015945 -0.0193241 0.0162106 
0.017457 -0.0184434 0.0175497 
0.018224 -0.0176304 0.018217 
0.018247 -0.0168803 0.0182124 
0.019013 -0.016072 0.0188797 
0.019036 -0.0153235 0.0188751 
0.019059 -0.0145749 0.0188706 
0.019082 -0.0138264 0.018866 
0.019104 -0.0130778 0.0188614 
0.019127 -0.0123293 0.0188569 
0.01915 -0.0115807 0.0188523 
0.019173 -0.0108322 0.0188478 
0.019195 -0.0100836 0.0188432 
0.019218 -0.00933508 0.0188386 
0.019241 -0.00858653 0.0188341 
0.019264 -0.00783799 0.0188295 
0.019286 -0.00708944 0.018825 
0.019309 -0.00634089 0.0188204 
0.019332 -0.00559234 0.0188158 
0.019355 -0.0048438 0.0188113 
0.019377 -0.00409525 0.0188067 
0.0194 -0.0033467 0.0188021 
0.019423 -0.00259815 0.0187976 
0.019446 -0.00184961 0.018793 
0.019468 -0.00110106 0.0187885 
0.019491 -0.00035251 0.0187839 
0.019514 0.000396 0.0187793 
0.019537 0.0011446 0.0187748 
0.019559 0.0018931 0.0187702 
0.019582 0.0026417 0.0187657 
0.019605 0.0033902 0.0187611 
0.019628 0.0041388 0.0187565 
0.01965 0.0048873 0.018752 
0.019673 0.0056359 0.0187474 
0.020438 0.0063947 0.019415 
0.020461 0.0071417 0.0194105 
0.020484 0.0078887 0.0194059 
0.020507 0.0086356 0.0194014 
0.020529 0.0093826 0.0193968 
0.020552 0.0101295 0.0193923 
0.020575 0.0108765 0.0193877 
0.020597 0.0116234 0.0193832 
0.02062 0.0123704 0.0193786 
0.020643 0.0131173 0.0193741 
0.020665 0.0138643 0.0193695 
0.020688 0.0146112 0.019365 
0.020711 0.0153582 0.0193604 
0.020734 0.0161052 0.0193559 
0.020756 0.0168521 0.0193513 
0.020037 0.0176126 0.0186744 
0.02006 0.0183612 0.0186699 
0.020083 0.0191097 0.0186653 
0.020105 0.0198583 0.0186607 
0.020128 0.0206068 0.0186562 
0.020151 0.0213554 0.0186516 
0.020174 0.0221039 0.0186471 
0.020196 0.0228525 0.0186425 
0.020219 0.023601 0.0186379 
0.020242 0.0243496 0.0186334 
0.020265 0.0250981 0.0186288 
0.020287 0.0258467 0.0186243 
0.02031 0.0265952 0.0186197 
0.020333 0.0273437 0.0186151 
0.020356 0.0280923 0.0186106 
0.020378 0.0288408 0.018606 
0.020401 0.0295894 0.0186014 
0.020424 0.0303379 0.0185969 
0.020447 0.0310865 0.0185923 
0.020469 0.031835 0.0185878 
0.020492 0.0325836 0.0185832 
0.020515 0.0333321 0.0185786 
0.020538 0.0340807 0.0185741 
0.02056 0.0348292 0.0185695 
0.020583 0.0355778 0.018565 
0.020606 0.0363263 0.0185604 
0.020629 0.0370749 0.0185558 
0.020651 0.0378234 0.0185513 
0.019934 0.0386301 0.0178741 
0.019957 0.0393803 0.0178696 
0.019979 0.0401304 0.017865 
0.020002 0.0408805 0.0178604 
0.020025 0.0416307 0.0178558 
0.020048 0.0423808 0.0178513 
0.02007 0.043131 0.0178467 
0.020093 0.0438811 0.0178421 
0.020116 0.0446312 0.0178376 
0.020139 0.0453814 0.017833 
0.020162 0.0461315 0.0178284 
0.020185 0.0468817 0.0178238 
0.020207 0.0476318 0.0178193 
0.02023 0.0483819 0.0178147 
0.020253 0.0491321 0.0178101 
0.020276 0.0498822 0.0178056 
0.020299 0.0506324 0.017801 
0.020321 0.0513825 0.0177964 
0.020344 0.0521326 0.0177919 
0.020367 0.0528828 0.0177873 
0.02039 0.0536329 0.0177827 
0.00429498 -0.0281785 0.00490481 
0.00654999 -0.0271615 0.006919 
0.00880402 -0.0261541 0.00893324 
0.00957098 -0.0253076 0.00960156 
0.010338 -0.0244643 0.0102699 
0.011105 -0.0236242 0.0109382 
0.012615 -0.0227163 0.0122796 
0.014125 -0.0218148 0.013621 
0.014891 -0.0209875 0.0142895 
0.015658 -0.0201632 0.0149579 
0.017167 -0.0192777 0.0162994 
0.017933 -0.0184614 0.0169679 
0.017956 -0.0177097 0.0169633 
0.018722 -0.0168982 0.0176319 
0.018745 -0.0161481 0.0176273 
0.018767 -0.015398 0.0176227 
0.01879 -0.0146478 0.0176182 
0.018813 -0.0138977 0.0176136 
0.018836 -0.0131475 0.017609 
0.018859 -0.0123974 0.0176044 
0.018881 -0.0116473 0.0175999 
0.018904 -0.0108971 0.0175953 
0.018927 -0.010147 0.0175907 
0.01895 -0.00939684 0.0175862 
0.018973 -0.0086467 0.0175816 
0.018995 -0.00789656 0.017577 
0.019018 -0.00714642 0.0175724 
0.019041 -0.00639628 0.0175679 
0.019064 -0.00564614 0.0175633 
0.019087 -0.004896 0.0175587 
0.019109 -0.00414586 0.0175542 
0.019132 -0.00339572 0.0175496 
0.019155 -0.00264558 0.017545 
0.019178 -0.00189544 0.0175404 
0.019201 -0.0011453 0.0175359 
0.019223 -0.00039516 0.0175313 
0.019246 0.000355 0.0175267 
0.019269 0.0011051 0.0175222 
0.020034 0.0018752 0.0181909 
0.020056 0.0026237 0.0181864 
0.020079 0.0033723 0.0181818 
0.020102 0.0041208 0.0181772 
0.020125 0.0048694 0.0181727 
0.020147 0.0056179 0.0181681 
0.02017 0.0063665 0.0181636 
0.020193 0.007115 0.018159 
0.020216 0.0078636 0.0181544 
0.020238 0.0086121 0.0181499 
0.020261 0.0093607 0.0181453 
0.020284 0.0101092 0.0181408 
0.020307 0.0108578 0.0181362 
0.020329 0.0116063 0.0181316 
0.020352 0.0123549 0.0181271 
0.020375 0.0131034 0.0181225 
0.020398 0.0138519 0.0181179 
0.02042 0.0146005 0.0181134 
0.020443 0.015349 0.0181088 
0.020466 0.0160976 0.0181043 
0.020489 0.0168461 0.0180997 
0.020511 0.0175947 0.0180951 
0.020534 0.0183432 0.0180906 
0.020557 0.0190918 0.018086 
0.019839 0.0198586 0.0174079 
0.019862 0.0206088 0.0174033 
0.019885 0.0213589 0.0173987 
0.019907 0.022109 0.0173942 
0.01993 0.0228592 0.0173896 
0.019953 0.0236093 0.017385 
0.019976 0.0243595 0.0173805 
0.019999 0.0251096 0.0173759 
0.020021 0.0258597 0.0173713 
0.020044 0.0266099 0.0173667 
0.020067 0.02736 0.0173622 
0.02009 0.0281102 0.0173576 
0.020113 0.0288603 0.017353 
0.020135 0.0296105 0.0173485 
0.020158 0.0303606 0.0173439 
0.020181 0.0311107 0.0173393 
0.020204 0.0318609 0.0173347 
0.020227 0.032611 0.0173302 
0.020249 0.0333611 0.0173256 
0.020272 0.0341113 0.017321 
0.020295 0.0348614 0.0173165 
0.020318 0.0356116 0.0173119 
0.020341 0.0363617 0.0173073 
0.020363 0.0371119 0.0173027 
0.020386 0.037862 0.0172982 
0.020409 0.0386121 0.0172936 
0.020432 0.0393623 0.017289 
0.019715 0.0401737 0.0166106 
0.019738 0.0409255 0.016606 
0.019761 0.0416772 0.0166015 
0.019784 0.0424289 0.0165969 
0.019807 0.0431806 0.0165923 
0.019829 0.0439324 0.0165877 
0.019852 0.0446841 0.0165831 
0.019875 0.0454358 0.0165786 
0.019898 0.0461876 0.016574 
0.019921 0.0469393 0.0165694 
0.019944 0.047691 0.0165648 
0.019967 0.0484428 0.0165602 
0.019989 0.0491945 0.0165556 
0.020012 0.0499462 0.0165511 
0.020035 0.050698 0.0165465 
0.020058 0.0514497 0.0165419 
0.020081 0.0522014 0.0165373 
0.020104 0.0529532 0.0165327 
0.020127 0.0537049 0.0165282 
0.020149 0.0544566 0.0165236 
0.00553302 -0.0281167 0.00497506 
0.00852698 -0.0270223 0.00766718 
0.010035 -0.0260953 0.00901093 
0.010801 -0.0252504 0.00968047 
0.011567 -0.0244086 0.01035 
0.013841 -0.0226637 0.0123635 
0.015349 -0.0217637 0.0137074 
0.016114 -0.0209379 0.0143771 
0.016879 -0.0201152 0.0150467 
0.017644 -0.0192958 0.0157165 
0.018409 -0.0184795 0.0163862 
0.018432 -0.0177277 0.0163816 
0.018455 -0.016976 0.016377 
0.01922 -0.0161661 0.0170468 
0.019243 -0.0154159 0.0170422 
0.019266 -0.0146658 0.0170376 
0.019288 -0.0139157 0.0170331 
0.019311 -0.0131655 0.0170285 
0.019334 -0.0124154 0.0170239 
0.019357 -0.0116652 0.0170193 
0.01938 -0.0109151 0.0170148 
0.019402 -0.010165 0.0170102 
0.019425 -0.00941482 0.0170056 
0.019448 -0.00866468 0.0170011 
0.019471 -0.00791454 0.0169965 
0.019493 -0.0071644 0.0169919 
0.019516 -0.00641426 0.0169873 
0.019539 -0.00566412 0.0169828 
0.018821 -0.00494828 0.0163037 
0.018844 -0.00419655 0.0162991 
0.018866 -0.00344481 0.0162945 
0.01963 -0.00266356 0.0169645 
0.019653 -0.00191342 0.0169599 
0.019676 -0.00116328 0.0169554 
0.019699 -0.00041314 0.0169508 
0.019722 0.000337 0.0169462 
0.019744 0.0010871 0.0169416 
0.019767 0.0018373 0.0169371 
0.01979 0.0025874 0.0169325 
0.019813 0.0033376 0.0169279 
0.019836 0.0040877 0.0169234 
0.020599 0.0048514 0.0175934 
0.020622 0.0056 0.0175888 
0.020644 0.0063485 0.0175843 
0.020667 0.0070971 0.0175797 
0.02069 0.0078456 0.0175751 
0.020713 0.0085942 0.0175706 
0.020735 0.0093427 0.017566 
0.020758 0.0100913 0.0175615 
0.020781 0.0108398 0.0175569 
0.020804 0.0115884 0.0175523 
0.020826 0.0123369 0.0175478 
0.020849 0.0130855 0.0175432 
0.020872 0.013834 0.0175387 
0.020895 0.0145825 0.0175341 
0.020177 0.0153398 0.0168548 
0.0202 0.0160899 0.0168502 
0.020223 0.0168401 0.0168456 
0.020246 0.0175902 0.0168411 
0.020269 0.0183404 0.0168365 
0.020292 0.0190905 0.0168319 
0.020314 0.0198406 0.0168274 
0.020337 0.0205908 0.0168228 
0.02036 0.0213409 0.0168182 
0.019643 0.0221141 0.0161388 
0.019666 0.0228658 0.0161342 
0.019689 0.0236176 0.0161296 
0.019712 0.0243693 0.0161251 
0.019735 0.025121 0.0161205 
0.019757 0.0258728 0.0161159 
0.01978 0.0266245 0.0161113 
0.019803 0.0273762 0.0161067 
0.019826 0.028128 0.0161021 
0.019849 0.0288797 0.0160976 
0.019872 0.0296314 0.016093 
0.019895 0.0303832 0.0160884 
0.019917 0.0311349 0.0160838 
0.01994 0.0318866 0.0160792 
0.019963 0.0326384 0.0160747 
0.019986 0.0333901 0.0160701 
0.020009 0.0341418 0.0160655 
0.020032 0.0348936 0.0160609 
0.020055 0.0356453 0.0160563 
0.020077 0.036397 0.0160518 
0.0201 0.0371488 0.0160472 
0.020123 0.0379005 0.0160426 
0.020146 0.0386522 0.016038 
0.020169 0.039404 0.0160334 
0.020192 0.0401557 0.0160289 
0.020214 0.0409074 0.0160243 
0.020237 0.0416592 0.0160197 
0.019522 0.0424769 0.01534 
0.019545 0.0432303 0.0153354 
0.019568 0.0439836 0.0153308 
0.019591 0.0447369 0.0153263 
0.019613 0.0454902 0.0153217 
0.019636 0.0462436 0.0153171 
0.019659 0.0469969 0.0153125 
0.019682 0.0477502 0.0153079 
0.019705 0.0485035 0.0153033 
0.019728 0.0492569 0.0152987 
0.019751 0.0500102 0.0152941 
0.019774 0.0507635 0.0152895 
0.019797 0.0515168 0.0152849 
0.01982 0.0522702 0.0152803 
0.019105 0.0531118 0.0146005 
0.019128 0.0538668 0.0145959 
0.019151 0.0546217 0.0145913 
0.00750897 -0.0279743 0.00572323 
0.009758 -0.0269619 0.00774484 
0.010523 -0.0261138 0.00841561 
0.011288 -0.0252688 0.00908639 
0.012052 -0.024427 0.00975718 
0.013559 -0.0235158 0.0111035 
0.015065 -0.022611 0.0124498 
0.015829 -0.0217819 0.0131207 
0.016593 -0.020956 0.0137916 
0.017357 -0.0201333 0.0144625 
0.018122 -0.0193138 0.0151335 
0.018145 -0.0185605 0.0151289 
0.018909 -0.0177458 0.0157998 
0.018931 -0.016994 0.0157952 
0.018954 -0.0162423 0.0157907 
0.018977 -0.0154906 0.0157861 
0.019 -0.0147388 0.0157815 
0.019023 -0.0139871 0.0157769 
0.019046 -0.0132354 0.0157723 
0.019068 -0.0124836 0.0157678 
0.019091 -0.0117319 0.0157632 
0.019114 -0.0109802 0.0157586 
0.019137 -0.0102284 0.015754 
0.01916 -0.0094767 0.0157494 
0.019183 -0.00872497 0.0157449 
0.019206 -0.00797323 0.0157403 
0.019228 -0.0072215 0.0157357 
0.019251 -0.00646977 0.0157311 
0.019274 -0.00571803 0.0157265 
0.019297 -0.0049663 0.015722 
0.01932 -0.00421457 0.0157174 
0.019343 -0.00346283 0.0157128 
0.019366 -0.0027111 0.0157082 
0.019388 -0.00195937 0.0157036 
0.019411 -0.00120764 0.015699 
0.019434 -0.0004559 0.0156945 
0.019457 0.0002958 0.0156899 
0.01948 0.0010476 0.0156853 
0.019503 0.0017993 0.0156807 
0.020265 0.0025694 0.016352 
0.020288 0.0033196 0.0163474 
0.020311 0.0040697 0.0163428 
0.020334 0.0048199 0.0163383 
0.020356 0.00557 0.0163337 
0.020379 0.0063201 0.0163291 
0.020402 0.0070703 0.0163245 
0.020425 0.0078204 0.01632 
0.021187 0.0085762 0.0169913 
0.02121 0.0093248 0.0169867 
0.021233 0.0100733 0.0169822 
0.020516 0.010821 0.0163017 
0.020539 0.0115711 0.0162971 
0.020562 0.0123213 0.0162925 
0.020584 0.0130714 0.016288 
0.020607 0.0138215 0.0162834 
0.02063 0.0145717 0.0162788 
0.020653 0.0153218 0.0162743 
0.020676 0.016072 0.0162697 
0.01996 0.016834 0.0155891 
0.019982 0.0175857 0.0155845 
0.020005 0.0183374 0.0155799 
0.020028 0.0190892 0.0155754 
0.020051 0.0198409 0.0155708 
0.020074 0.0205926 0.0155662 
0.020097 0.0213444 0.0155616 
0.02012 0.0220961 0.015557 
0.020142 0.0228478 0.0155525 
0.020165 0.0235995 0.0155479 
0.020188 0.0243513 0.0155433 
0.020211 0.025103 0.0155387 
0.020234 0.0258547 0.0155341 
0.020257 0.0266065 0.0155296 
0.020279 0.0273582 0.015525 
0.020302 0.0281099 0.0155204 
0.020325 0.0288617 0.0155158 
0.020348 0.0296134 0.0155112 
0.020371 0.0303651 0.0155066 
0.020394 0.0311169 0.0155021 
0.020417 0.0318686 0.0154975 
0.020439 0.0326203 0.0154929 
0.019724 0.033419 0.0148121 
0.019747 0.0341723 0.0148075 
0.01977 0.0349256 0.0148029 
0.019793 0.0356789 0.0147983 
0.019816 0.0364323 0.0147938 
0.019839 0.0371856 0.0147892 
0.019862 0.0379389 0.0147846 
0.019885 0.0386922 0.01478 
0.019908 0.0394456 0.0147754 
0.019931 0.0401989 0.0147708 
0.019953 0.0409522 0.0147662 
0.019976 0.0417056 0.0147616 
0.019999 0.0424589 0.014757 
0.020022 0.0432122 0.0147524 
0.020045 0.0439655 0.0147479 
0.020068 0.0447189 0.0147433 
0.020091 0.0454722 0.0147387 
0.020114 0.0462255 0.0147341 
0.020137 0.0469788 0.0147295 
0.019423 0.0478093 0.0140485 
0.019446 0.0485642 0.0140439 
0.019469 0.0493191 0.0140393 
0.019491 0.0500741 0.0140347 
0.019514 0.050829 0.0140301 
0.018801 0.051669 0.013349 
0.018824 0.0524255 0.0133444 
0.018847 0.053182 0.0133398 
0.018133 0.0540284 0.0126588 
0.018156 0.0547865 0.0126541 
0.005755 -0.029015 0.00309773 
0.00874103 -0.0279124 0.00579965 
0.010246 -0.0269804 0.0071483 
0.011751 -0.0260548 0.00849698 
0.012515 -0.0252114 0.00916899 
0.013278 -0.0243711 0.00984105 
0.014782 -0.0234615 0.0111898 
0.015546 -0.0226292 0.0118619 
0.016309 -0.0218001 0.012534 
0.017073 -0.0209742 0.0132062 
0.017836 -0.0201514 0.0138783 
0.018599 -0.0193319 0.0145505 
0.018622 -0.0185786 0.0145459 
0.018645 -0.0178252 0.0145413 
0.018668 -0.0170719 0.0145367 
0.019431 -0.0162603 0.0152089 
0.019453 -0.0155086 0.0152043 
0.019476 -0.0147568 0.0151997 
0.019499 -0.0140051 0.0151952 
0.019522 -0.0132534 0.0151906 
0.019545 -0.0125016 0.015186 
0.019568 -0.0117499 0.0151814 
0.01959 -0.0109982 0.0151768 
0.019613 -0.0102465 0.0151723 
0.019636 -0.00949472 0.0151677 
0.019659 -0.00874299 0.0151631 
0.018942 -0.008032 0.0144816 
0.018965 -0.00727867 0.014477 
0.018988 -0.00652534 0.0144724 
0.019011 -0.00577202 0.0144678 
0.019034 -0.00501869 0.0144632 
0.019057 -0.00426537 0.0144587 
0.01908 -0.00351204 0.0144541 
0.019103 -0.00275872 0.0144495 
0.019126 -0.00200539 0.0144449 
0.019148 -0.00125207 0.0144403 
0.019171 -0.00049874 0.0144357 
0.019933 0.0002778 0.0151081 
0.019956 0.0010295 0.0151035 
0.019979 0.0017813 0.015099 
0.020002 0.002533 0.0150944 
0.020025 0.0032847 0.0150898 
0.020047 0.0040365 0.0150852 
0.02007 0.0047882 0.0150806 
0.020832 0.005552 0.0157532 
0.020855 0.0063021 0.0157486 
0.020877 0.0070523 0.015744 
0.0209 0.0078024 0.0157394 
0.020923 0.0085526 0.0157349 
0.020946 0.0093027 0.0157303 
0.020969 0.0100529 0.0157257 
0.020991 0.010803 0.0157212 
0.021014 0.0115531 0.0157166 
0.021037 0.0123033 0.015712 
0.020322 0.0130573 0.0150303 
0.020344 0.013809 0.0150257 
0.020367 0.0145607 0.0150211 
0.02039 0.0153125 0.0150165 
0.020413 0.0160642 0.0150119 
0.020436 0.0168159 0.0150073 
0.020459 0.0175677 0.0150028 
0.019744 0.0183344 0.0143209 
0.019767 0.0190877 0.0143164 
0.01979 0.019841 0.0143118 
0.019813 0.0205944 0.0143072 
0.019835 0.0213477 0.0143026 
0.019858 0.022101 0.014298 
0.019881 0.0228543 0.0142934 
0.019904 0.0236077 0.0142888 
0.019927 0.024361 0.0142842 
0.01995 0.0251143 0.0142796 
0.019973 0.0258677 0.014275 
0.019996 0.026621 0.0142704 
0.020019 0.0273743 0.0142659 
0.020042 0.0281276 0.0142613 
0.020064 0.028881 0.0142567 
0.020087 0.0296343 0.0142521 
0.02011 0.0303876 0.0142475 
0.020133 0.0311409 0.0142429 
0.020156 0.0318943 0.0142383 
0.020179 0.0326476 0.0142337 
0.020202 0.0334009 0.0142291 
0.020225 0.0341542 0.0142245 
0.020248 0.0349076 0.0142199 
0.020271 0.0356609 0.0142154 
0.019557 0.0364674 0.0135333 
0.01958 0.0372224 0.0135287 
0.019603 0.0379773 0.0135241 
0.019626 0.0387322 0.0135195 
0.019649 0.0394871 0.0135149 
0.019672 0.040242 0.0135103 
0.019694 0.0409969 0.0135057 
0.019717 0.0417519 0.0135011 
0.01974 0.0425068 0.0134965 
0.019763 0.0432617 0.0134919 
0.019786 0.0440166 0.0134873 
0.019809 0.0447715 0.0134827 
0.019832 0.0455265 0.0134781 
0.019855 0.0462814 0.0134735 
0.019878 0.0470363 0.0134689 
0.019165 0.0478683 0.0127866 
0.019188 0.0486248 0.012782 
0.019211 0.0493813 0.0127774 
0.019234 0.0501379 0.0127728 
0.018521 0.0509779 0.0120905 
0.018544 0.051736 0.0120859 
0.017832 0.0525807 0.0114036 
0.017855 0.0533404 0.011399 
0.017878 0.0541001 0.0113943 
0.015695 0.0551342 0.00935656 
0.00698901 -0.0289515 0.00317168 
0.00997198 -0.0278503 0.00587855 
0.011474 -0.0269199 0.00722967 
0.012977 -0.0259958 0.00858081 
0.01374 -0.0251539 0.00925409 
0.014502 -0.0243152 0.00992736 
0.015265 -0.0234797 0.0106007 
0.016027 -0.0226474 0.011274 
0.01679 -0.0218183 0.0119473 
0.017552 -0.0209923 0.0126207 
0.018314 -0.0201695 0.0132941 
0.018337 -0.0194146 0.0132895 
0.019099 -0.0185966 0.0139629 
0.019122 -0.0178433 0.0139583 
0.019145 -0.01709 0.0139537 
0.019168 -0.0163366 0.0139491 
0.019191 -0.0155833 0.0139445 
0.019214 -0.01483 0.0139399 
0.019237 -0.0140767 0.0139353 
0.019259 -0.0133233 0.0139308 
0.019282 -0.01257 0.0139262 
0.019305 -0.0118167 0.0139216 
0.019328 -0.0110634 0.013917 
0.019351 -0.01031 0.0139124 
0.019374 -0.00955671 0.0139078 
0.019397 -0.00880338 0.0139032 
0.01942 -0.00805006 0.0138986 
0.019443 -0.00729673 0.013894 
0.019466 -0.00654341 0.0138894 
0.019488 -0.00579008 0.0138848 
0.019511 -0.00503675 0.0138803 
0.019534 -0.00428343 0.0138757 
0.018819 -0.00356133 0.0131929 
0.018842 -0.00280641 0.0131883 
0.019603 -0.00202345 0.0138619 
0.019626 -0.00127013 0.0138573 
0.019649 -0.0005168 0.0138527 
0.019672 0.0002365 0.0138481 
0.019695 0.0009898 0.0138435 
0.019717 0.0017432 0.0138389 
0.01974 0.0024965 0.0138344 
0.020501 0.0032667 0.014508 
0.020524 0.0040184 0.0145035 
0.020547 0.0047702 0.0144989 
0.020569 0.0055219 0.0144943 
0.020592 0.0062736 0.0144897 
0.020615 0.0070254 0.0144851 
0.020638 0.0077771 0.0144806 
0.020661 0.0085288 0.014476 
0.020684 0.0092806 0.0144714 
0.020707 0.0100323 0.0144668 
0.020729 0.010784 0.0144622 
0.020752 0.0115358 0.0144577 
0.020775 0.0122875 0.0144531 
0.020798 0.0130392 0.0144485 
0.020821 0.013791 0.0144439 
0.020844 0.0145427 0.0144393 
0.02013 0.015303 0.0137563 
0.020152 0.0160564 0.0137517 
0.020175 0.0168097 0.0137471 
0.020198 0.017563 0.0137425 
0.020221 0.0183163 0.013738 
0.020244 0.0190697 0.0137334 
0.020267 0.019823 0.0137288 
0.02029 0.0205763 0.0137242 
0.019576 0.021351 0.0130411 
0.019599 0.0221059 0.0130365 
0.019622 0.0228608 0.0130319 
0.019645 0.0236157 0.0130273 
0.019668 0.0243706 0.0130227 
0.019691 0.0251256 0.0130181 
0.019714 0.0258805 0.0130135 
0.019737 0.0266354 0.0130089 
0.01976 0.0273903 0.0130043 
0.019783 0.0281452 0.0129997 
0.019806 0.0289002 0.0129951 
0.019829 0.0296551 0.0129904 
0.019852 0.03041 0.0129859 
0.019875 0.0311649 0.0129812 
0.019897 0.0319198 0.0129767 
0.01992 0.0326747 0.012972 
0.019943 0.0334297 0.0129674 
0.019966 0.0341846 0.0129628 
0.019989 0.0349395 0.0129582 
0.020012 0.0356944 0.0129536 
0.0193 0.0365025 0.0122703 
0.019323 0.037259 0.0122657 
0.019346 0.0380155 0.0122611 
0.019368 0.0387721 0.0122565 
0.019391 0.0395286 0.0122519 
0.019414 0.0402851 0.0122473 
0.019438 0.0410416 0.0122427 
0.019461 0.0417981 0.0122381 
0.019483 0.0425546 0.0122335 
0.019506 0.0433111 0.0122288 
0.019529 0.0440676 0.0122242 
0.019552 0.0448241 0.0122196 
0.019575 0.0455807 0.012215 
0.019598 0.0463372 0.0122104 
0.019621 0.0470937 0.0122058 
0.019644 0.0478502 0.0122012 
0.018933 0.0486854 0.0115177 
0.018956 0.0494435 0.0115131 
0.018244 0.0502834 0.0108296 
0.017532 0.0511266 0.010146 
0.016821 0.0519729 0.00946248 
0.015375 0.052909 0.00809999 
0.014664 0.0537633 0.0074164 
0.00748297 -0.0289702 0.00256896 
0.010461 -0.0278689 0.00528077 
0.0127 -0.0268593 0.00731349 
0.014201 -0.0259367 0.00866713 
0.014224 -0.0251723 0.00866247 
0.014986 -0.0243335 0.00933698 
0.015747 -0.023498 0.0100115 
0.016509 -0.0226656 0.0106861 
0.01727 -0.0218364 0.0113607 
0.018031 -0.0210104 0.0120352 
0.018054 -0.0202539 0.0120306 
0.018815 -0.0194327 0.0127052 
0.018838 -0.0186778 0.0127006 
0.018861 -0.0179229 0.012696 
0.018884 -0.0171679 0.0126914 
0.018907 -0.016413 0.0126868 
0.01893 -0.0156581 0.0126822 
0.018953 -0.0149032 0.0126776 
0.018976 -0.0141483 0.012673 
0.018999 -0.0133934 0.0126684 
0.019022 -0.0126384 0.0126638 
0.019045 -0.0118835 0.0126592 
0.019068 -0.0111286 0.0126546 
0.019091 -0.0103737 0.01265 
0.019114 -0.00961877 0.0126454 
0.019137 -0.00886385 0.0126408 
0.01916 -0.00810894 0.0126362 
0.019183 -0.00735402 0.0126316 
0.019206 -0.0065991 0.012627 
0.019229 -0.00584418 0.0126224 
0.019251 -0.00508926 0.0126178 
0.019274 -0.00433435 0.0126132 
0.019297 -0.00357943 0.0126086 
0.01932 -0.00282451 0.012604 
0.019343 -0.00206959 0.0125994 
0.019366 -0.00131467 0.0125948 
0.019389 -0.00055975 0.0125902 
0.019412 0.0001952 0.0125856 
0.019435 0.0009501 0.012581 
0.019458 0.001705 0.0125764 
0.020218 0.0024784 0.0132514 
0.020241 0.0032318 0.0132468 
0.020263 0.0039851 0.0132422 
0.020286 0.0047384 0.0132376 
0.020309 0.0054917 0.013233 
0.021069 0.0062556 0.013908 
0.021091 0.0070074 0.0139034 
0.021114 0.0077591 0.0138988 
0.021137 0.0085108 0.0138942 
0.02116 0.0092626 0.0138896 
0.021183 0.0100143 0.0138851 
0.021206 0.010766 0.0138805 
0.020492 0.0115183 0.0131963 
0.020515 0.0122717 0.0131917 
0.020538 0.013025 0.0131871 
0.020561 0.0137783 0.0131825 
0.020584 0.0145316 0.0131779 
0.020607 0.015285 0.0131733 
0.019894 0.0160484 0.012489 
0.019917 0.0168034 0.0124844 
0.01994 0.0175583 0.0124798 
0.019963 0.0183132 0.0124752 
0.019986 0.0190681 0.0124706 
0.020009 0.019823 0.012466 
0.020032 0.020578 0.0124614 
0.020055 0.0213329 0.0124568 
0.020078 0.0220878 0.0124522 
0.019365 0.0228672 0.0117679 
0.019388 0.0236237 0.0117633 
0.019411 0.0243802 0.0117586 
0.019434 0.0251367 0.011754 
0.019457 0.0258932 0.0117494 
0.01948 0.0266497 0.0117448 
0.019503 0.0274063 0.0117402 
0.019526 0.0281628 0.0117356 
0.019549 0.0289193 0.011731 
0.019572 0.0296758 0.0117264 
0.019595 0.0304323 0.0117218 
0.019618 0.0311888 0.0117172 
0.019641 0.0319453 0.0117125 
0.019664 0.0327018 0.0117079 
0.019687 0.0334583 0.0117033 
0.01971 0.0342149 0.0116987 
0.019733 0.0349714 0.0116941 
0.019756 0.0357279 0.0116895 
0.019779 0.0364844 0.0116849 
0.019802 0.0372409 0.0116803 
0.019825 0.0379974 0.0116757 
0.019848 0.0387539 0.0116711 
0.019137 0.0395699 0.0109865 
0.01916 0.040328 0.0109818 
0.019183 0.0410862 0.0109772 
0.019206 0.0418443 0.0109726 
0.019229 0.0426024 0.010968 
0.019252 0.0433605 0.0109634 
0.019275 0.0441186 0.0109587 
0.019298 0.0448767 0.0109541 
0.019321 0.0456348 0.0109495 
0.019344 0.0463929 0.0109449 
0.019367 0.047151 0.0109403 
0.018656 0.0479861 0.0102555 
0.017945 0.0488245 0.00957081 
0.017235 0.049666 0.00888604 
0.016524 0.0505107 0.00820128 
0.015814 0.0513585 0.00751647 
0.015104 0.0522096 0.00683167 
0.012193 0.0533237 0.00410636 
0.00871399 -0.0289066 0.0026466 
0.011688 -0.0278067 0.00536335 
0.013924 -0.0267986 0.00739978 
0.014685 -0.0259551 0.00807551 
0.015446 -0.0251147 0.00875124 
0.016206 -0.0242775 0.00942701 
0.016967 -0.0234435 0.0101028 
0.017727 -0.0226127 0.0107786 
0.01775 -0.0218546 0.010774 
0.018511 -0.0210286 0.0114498 
0.018534 -0.0202721 0.0114452 
0.018557 -0.0195155 0.0114406 
0.01858 -0.018759 0.011436 
0.018603 -0.0180025 0.0114313 
0.018626 -0.017246 0.0114267 
0.019386 -0.0164311 0.0121026 
0.019409 -0.0156762 0.012098 
0.019431 -0.0149213 0.0120934 
0.019454 -0.0141664 0.0120888 
0.019477 -0.0134115 0.0120842 
0.0195 -0.0126565 0.0120796 
0.019523 -0.0119016 0.012075 
0.01881 -0.0111939 0.0113899 
0.018833 -0.0104374 0.0113852 
0.018856 -0.00968091 0.0113806 
0.018879 -0.0089244 0.011376 
0.018902 -0.00816789 0.0113714 
0.018925 -0.00741138 0.0113668 
0.018948 -0.00665487 0.0113622 
0.018971 -0.00589836 0.0113576 
0.018994 -0.00514185 0.011353 
0.019017 -0.00438534 0.0113484 
0.01904 -0.00362883 0.0113438 
0.019063 -0.00287231 0.0113391 
0.019086 -0.00211581 0.0113345 
0.019109 -0.00135929 0.0113299 
0.019132 -0.00060278 0.0113253 
0.019155 0.0001537 0.0113207 
0.019913 0.000932 0.0119968 
0.019936 0.0016869 0.0119922 
0.019959 0.0024418 0.0119876 
0.019982 0.0031967 0.011983 
0.020005 0.0039517 0.0119784 
0.020764 0.0047204 0.0126546 
0.020787 0.0054737 0.01265 
0.020809 0.006227 0.0126454 
0.020832 0.0069803 0.0126408 
0.020855 0.0077337 0.0126362 
0.020878 0.008487 0.0126316 
0.020901 0.0092403 0.0126271 
0.020924 0.0099936 0.0126225 
0.020947 0.010747 0.0126179 
0.02097 0.0115003 0.0126133 
0.020993 0.0122536 0.0126087 
0.02028 0.0130107 0.0119232 
0.020303 0.0137656 0.0119186 
0.020326 0.0145205 0.011914 
0.020349 0.0152754 0.0119094 
0.020372 0.0160303 0.0119048 
0.01966 0.016797 0.0112193 
0.019683 0.0175535 0.0112147 
0.019706 0.01831 0.0112101 
0.019729 0.0190665 0.0112055 
0.019752 0.019823 0.0112008 
0.019775 0.0205795 0.0111962 
0.019798 0.021336 0.0111916 
0.019821 0.0220925 0.011187 
0.019844 0.0228491 0.0111824 
0.019867 0.0236056 0.0111778 
0.01989 0.0243621 0.0111732 
0.019913 0.0251186 0.0111686 
0.019936 0.0258751 0.011164 
0.019959 0.0266316 0.0111594 
0.019982 0.0273881 0.0111547 
0.020005 0.0281446 0.0111501 
0.020028 0.0289011 0.0111455 
0.020051 0.0296577 0.0111409 
0.020074 0.0304142 0.0111363 
0.020097 0.0311707 0.0111317 
0.019386 0.0319707 0.010446 
0.019409 0.0327288 0.0104413 
0.019432 0.0334869 0.0104367 
0.019456 0.034245 0.0104321 
0.019479 0.0350032 0.0104275 
0.019502 0.0357613 0.0104229 
0.019525 0.0365194 0.0104183 
0.019548 0.0372775 0.0104136 
0.019571 0.0380356 0.010409 
0.019594 0.0387937 0.0104044 
0.019617 0.0395518 0.0103998 
0.01964 0.0403099 0.0103952 
0.019663 0.041068 0.0103905 
0.019686 0.0418261 0.0103859 
0.019709 0.0425842 0.0103813 
0.019732 0.0433423 0.0103767 
0.019755 0.0441004 0.0103721 
0.019045 0.0449291 0.00968613 
0.019068 0.0456888 0.0096815 
0.019091 0.0464485 0.00967687 
0.018382 0.0472836 0.00899093 
0.017672 0.0481219 0.00830495 
0.016962 0.0489634 0.00761898 
0.016253 0.049808 0.00693296 
0.015543 0.0506559 0.00624694 
0.014101 0.0515903 0.00487952 
0.01266 0.0525311 0.00351207 
0.010485 0.0535648 0.00146319 
0.00994299 -0.0288429 0.00272673 
0.012913 -0.0277445 0.00544841 
0.01441 -0.026817 0.00680693 
0.015906 -0.0258959 0.0081655 
0.015929 -0.025133 0.00816085 
0.016689 -0.0242958 0.00883785 
0.017448 -0.0234617 0.00951486 
0.018208 -0.0226309 0.0101919 
0.018231 -0.0218728 0.0101873 
0.018254 -0.0211147 0.0101827 
0.019013 -0.0202902 0.0108597 
0.019036 -0.0195337 0.0108551 
0.019059 -0.0187772 0.0108505 
0.019082 -0.0180207 0.0108459 
0.019105 -0.0172642 0.0108413 
0.019128 -0.0165077 0.0108367 
0.019151 -0.0157511 0.0108321 
0.019174 -0.0149946 0.0108274 
0.019197 -0.0142381 0.0108228 
0.01922 -0.0134816 0.0108182 
0.019243 -0.0127251 0.0108136 
0.019266 -0.0119686 0.010809 
0.019289 -0.0112121 0.0108044 
0.019312 -0.0104556 0.0107998 
0.019335 -0.00969905 0.0107952 
0.019358 -0.00894254 0.0107906 
0.019381 -0.00818603 0.010786 
0.019404 -0.00742952 0.0107813 
0.019427 -0.00667301 0.0107767 
0.01945 -0.00591649 0.0107721 
0.019473 -0.00515999 0.0107675 
0.019496 -0.00440347 0.0107629 
0.019519 -0.00364696 0.0107583 
0.019542 -0.00289045 0.0107537 
0.019565 -0.00213394 0.0107491 
0.019588 -0.00137743 0.0107445 
0.019611 -0.00062092 0.0107399 
0.019634 0.0001356 0.0107352 
0.019657 0.0008921 0.0107306 
0.01968 0.0016486 0.010726 
0.019703 0.0024051 0.0107214 
0.019726 0.0031616 0.0107168 
0.020483 0.0039336 0.0113942 
0.020506 0.0046885 0.0113896 
0.020529 0.0054434 0.011385 
0.020552 0.0061983 0.0113804 
0.020575 0.0069532 0.0113758 
0.020598 0.0077081 0.0113712 
0.020621 0.0084631 0.0113666 
0.020644 0.009218 0.011362 
0.020667 0.0099729 0.0113574 
0.02069 0.0107278 0.0113528 
0.020713 0.0114827 0.0113482 
0.020736 0.0122377 0.0113436 
0.020025 0.0129963 0.0106569 
0.020048 0.0137528 0.0106523 
0.020071 0.0145093 0.0106477 
0.020094 0.0152658 0.010643 
0.020117 0.0160223 0.0106384 
0.02014 0.0167788 0.0106338 
