# .PCD v0.7 - Point Cloud Data file format
VERSION 0.7
FIELDS x y z
SIZE 4 4 4
TYPE F F F
COUNT 1 1 1
WIDTH 1385
HEIGHT 1
VIEWPOINT 0 0 0 1 0 0 0
POINTS 1385
DATA ascii
0.61254412 0.042399641 0.048999388
0.61256605 0.043121111 0.048994992
0.61258799 0.043842584 0.048990592
0.61260992 0.044564057 0.048986197
0.61263186 0.045285527 0.048981801
0.61265379 0.046007 0.048977405
0.61267573 0.046728473 0.048973009
0.61269766 0.047449946 0.048968613
0.61271954 0.04817142 0.048964214
0.61274147 0.048892889 0.048959818
0.6127634 0.049614362 0.048955422
0.61278534 0.050335836 0.048951026
0.61280727 0.051057309 0.04894663
0.61282921 0.051778778 0.048942234
0.61285114 0.052500252 0.048937835
0.61209857 0.05329233 0.048302684
0.61212057 0.054015394 0.048298277
0.61214256 0.054738458 0.04829387
0.61216456 0.055461522 0.048289463
0.61218649 0.05618459 0.04828506
0.61220849 0.056907654 0.048280653
0.61223048 0.057630718 0.048276246
0.61225247 0.058353782 0.048271839
0.61227441 0.059076849 0.048267432
0.6122964 0.059799913 0.048263028
0.6123184 0.060522981 0.048258621
0.61234033 0.061246045 0.048254214
0.61236233 0.061969109 0.048249807
0.61238432 0.06269218 0.048245404
0.61240631 0.063415244 0.048240997
0.61242825 0.064138301 0.04823659
0.61245024 0.064861372 0.048232183
0.61247224 0.065584436 0.04822778
0.61249423 0.0663075 0.048223373
0.61251616 0.067030564 0.048218966
0.61253816 0.067753628 0.048214559
0.61256015 0.068476699 0.048210151
0.61258209 0.069199763 0.048205748
0.61260408 0.069922827 0.048201341
0.61262608 0.070645891 0.048196934
0.61187482 0.071479373 0.047561549
0.61189681 0.072204031 0.04755713
0.61191887 0.072928689 0.047552716
0.61194092 0.073653348 0.047548302
0.61196291 0.074378006 0.047543883
0.61198497 0.075102665 0.047539469
0.61200696 0.075827323 0.047535051
0.61202902 0.076551974 0.047530636
0.61127818 0.077399798 0.046895143
0.61130023 0.078126043 0.046890717
0.61132228 0.078852296 0.046886291
0.6113444 0.079578549 0.046881866
0.61136645 0.080304801 0.04687744
0.6113885 0.081031054 0.046873014
0.61141062 0.0817573 0.046868589
0.61143267 0.082483552 0.046864163
0.61145473 0.083209805 0.046859737
0.61147684 0.083936051 0.046855312
0.61149889 0.084662296 0.046850886
0.61152095 0.085388549 0.046846461
0.61154306 0.086114801 0.046842035
0.61156511 0.086841054 0.046837609
0.61158717 0.0875673 0.046833184
0.61160928 0.088293552 0.046828758
0.61163133 0.089019813 0.046824332
0.61165345 0.089746058 0.046819907
0.6116755 0.090472303 0.046815481
0.61169755 0.091198556 0.046811059
0.61171967 0.091924809 0.046806633
0.61174172 0.092651054 0.046802208
0.61176378 0.093377307 0.046797782
0.61178589 0.094103552 0.046793357
0.61180794 0.094829805 0.046788931
0.61183 0.095556058 0.046784505
0.61185211 0.096282303 0.04678008
0.61187416 0.097008556 0.046775654
0.61189622 0.097734809 0.046771228
0.61191833 0.098461062 0.046766803
0.61194038 0.099187307 0.046762377
0.61119109 0.10008609 0.046126589
0.61121327 0.10081393 0.046122156
0.61123538 0.10154178 0.046117719
0.61125749 0.10226963 0.046113286
0.61127961 0.10299747 0.046108849
0.61130172 0.10372531 0.046104416
0.61132383 0.10445315 0.046099979
0.61134601 0.10518099 0.046095543
0.61136812 0.10590883 0.04609111
0.61139023 0.10663668 0.046086673
0.61141235 0.10736452 0.04608224
0.61143446 0.10809236 0.046077803
0.61145657 0.10882021 0.046073366
0.61147875 0.10954805 0.046068933
0.61150086 0.11027589 0.046064496
0.61152297 0.11100373 0.046060063
0.61154509 0.11173158 0.046055626
0.61079669 0.11265904 0.045419648
0.6038115 0.02072602 0.041625969
0.60460955 0.021464521 0.04225301
0.60777849 0.023655655 0.04476586
0.60857612 0.024379825 0.045392986
0.60937363 0.025100809 0.046020154
0.61017102 0.025818609 0.046647321
0.61096835 0.026533222 0.047274526
0.61099035 0.02725788 0.047270112
0.6110124 0.027982537 0.047265694
0.61180949 0.028690781 0.047892921
0.61183149 0.029413845 0.047888514
0.61185348 0.030136911 0.047884107
0.61187541 0.030859975 0.047879703
0.61189741 0.031583041 0.047875296
0.6119194 0.032306105 0.047870889
0.6127162 0.0330032 0.048498202
0.61273813 0.033724673 0.048493806
0.61276007 0.034446146 0.048489407
0.612782 0.03516762 0.048485011
0.61280394 0.035889089 0.048480615
0.61282581 0.036610562 0.048476219
0.61284775 0.037332036 0.048471823
0.61286968 0.038053509 0.048467427
0.61289161 0.038774978 0.048463028
0.61291355 0.039496452 0.048458632
0.61293548 0.040217925 0.048454236
0.61295742 0.040939398 0.04844984
0.61297935 0.041660868 0.048445445
0.61300129 0.042382341 0.048441049
0.61302322 0.043103814 0.048436649
0.61304516 0.043825287 0.048432253
0.61306709 0.044546761 0.048427857
0.61308897 0.04526823 0.048423462
0.6131109 0.045989703 0.048419066
0.61313283 0.046711177 0.04841467
0.61315477 0.04743265 0.04841027
0.6131767 0.048154119 0.048405875
0.61319864 0.048875593 0.048401479
0.61322057 0.049597066 0.048397083
0.61324251 0.050318539 0.048392687
0.61249083 0.051105797 0.047756329
0.61251283 0.051828865 0.047751922
0.61253476 0.052551929 0.047747515
0.61255676 0.053274993 0.047743112
0.61257875 0.053998057 0.047738705
0.61260068 0.054721124 0.047734298
0.61262268 0.055444188 0.047729891
0.61264467 0.056167256 0.047725488
0.61266667 0.05689032 0.04772108
0.6126886 0.057613384 0.047716673
0.6127106 0.058336448 0.047712266
0.61273259 0.059059516 0.047707859
0.61275458 0.05978258 0.047703456
0.61277652 0.060505643 0.047699049
0.61279851 0.061228707 0.047694642
0.61282051 0.061951771 0.047690235
0.61284244 0.062674843 0.047685832
0.61286443 0.063397907 0.047681425
0.61288643 0.064120971 0.047677018
0.61290842 0.064844035 0.047672611
0.61293036 0.065567099 0.047668207
0.61295235 0.066290163 0.0476638
0.61297435 0.067013226 0.047659393
0.61299634 0.067736298 0.047654986
0.61301827 0.068459362 0.047650579
0.61304027 0.069182426 0.047646176
0.61228991 0.070012689 0.047009576
0.61231196 0.07073734 0.047005158
0.61233395 0.071461998 0.047000743
0.61235601 0.072186656 0.046996325
0.612378 0.072911315 0.046991911
0.61240005 0.073635973 0.046987496
0.61242211 0.074360631 0.046983078
0.6124441 0.07508529 0.046978664
0.61246616 0.075809948 0.046974249
0.61171627 0.07665614 0.04633753
0.61173832 0.077382386 0.046333104
0.61176038 0.078108631 0.046328679
0.61178249 0.078834884 0.046324253
0.61180454 0.079561137 0.046319827
0.6118266 0.080287389 0.046315402
0.61184871 0.081013642 0.046310976
0.61187077 0.081739888 0.046306554
0.61189282 0.08246614 0.046302129
0.61191493 0.083192393 0.046297703
0.61193699 0.083918639 0.046293277
0.61195904 0.084644891 0.046288852
0.61198115 0.085371137 0.046284426
0.61200321 0.086097389 0.04628
0.61202532 0.086823642 0.046275575
0.61204737 0.087549888 0.046271149
0.61206943 0.08827614 0.046266723
0.61209154 0.089002401 0.046262298
0.6121136 0.089728646 0.046257872
0.61213565 0.090454891 0.046253446
0.61215776 0.091181144 0.046249021
0.61217982 0.091907397 0.046244595
0.61220187 0.092633642 0.04624017
0.61145318 0.093518056 0.045603238
0.61147529 0.094245896 0.045598805
0.61149746 0.094973743 0.045594368
0.61151958 0.09570159 0.045589931
0.61154169 0.096429422 0.045585498
0.6115638 0.09715727 0.045581061
0.61158592 0.097885109 0.045576628
0.61160803 0.098612957 0.045572191
0.6116302 0.099340796 0.045567755
0.61165231 0.10006864 0.045563322
0.61167443 0.10079648 0.045558885
0.61169654 0.10152432 0.045554452
0.61171865 0.10225217 0.045550015
0.61174077 0.10298002 0.045545582
0.61176294 0.10370786 0.045541145
0.61178505 0.1044357 0.045536708
0.61103714 0.10534719 0.044899594
0.61105931 0.10607662 0.04489515
0.61108148 0.10680605 0.044890705
0.61110365 0.1075355 0.044886261
0.61112583 0.10826493 0.044881817
0.611148 0.10899436 0.044877369
0.61117017 0.1097238 0.044872925
0.61119235 0.11045324 0.04486848
0.61121452 0.11118267 0.044864036
0.61123669 0.11191211 0.044859592
0.61125886 0.11264155 0.044855144
0.60507679 0.021446843 0.041682344
0.6058737 0.0221822 0.042310659
0.607445 0.022910735 0.043571785
0.60824174 0.023638129 0.044200126
0.60903829 0.024362337 0.044828486
0.60983479 0.025083359 0.045456886
0.61063117 0.025801197 0.046085283
0.61065328 0.026527446 0.046080858
0.61144954 0.027240505 0.046709307
0.61147153 0.027965164 0.046704888
0.61149359 0.028689822 0.046700474
0.61228967 0.02939651 0.047328942
0.6123116 0.030119576 0.047324535
0.6123336 0.03084264 0.047320127
0.61235559 0.031565707 0.047315724
0.61237752 0.032288771 0.047311317
0.61239952 0.033011835 0.04730691
0.61242151 0.033734899 0.047302503
0.61244351 0.034457967 0.0472981
0.61246544 0.035181031 0.047293693
0.61248744 0.035904095 0.047289286
0.61250943 0.036627162 0.047284879
0.61253142 0.037350226 0.047280475
0.61255336 0.03807329 0.047276068
0.61257535 0.038796354 0.047271661
0.61259735 0.039519422 0.047267254
0.61261928 0.040242486 0.047262847
0.61264127 0.04096555 0.047258444
0.61266327 0.041688617 0.047254037
0.61268526 0.042411681 0.04724963
0.6127072 0.043134745 0.047245223
0.61272919 0.043857813 0.04724082
0.61275119 0.044580877 0.047236413
0.61277318 0.045303941 0.047232006
0.61279511 0.046027008 0.047227599
0.61281711 0.046750072 0.047223195
0.6128391 0.04747314 0.047218788
0.61286104 0.048196204 0.047214381
0.61288303 0.048919268 0.047209974
0.61290503 0.049642332 0.047205567
0.61292702 0.0503654 0.047201164
0.61294895 0.051088464 0.047196757
0.61297095 0.051811527 0.04719235
0.61299294 0.052534591 0.047187943
0.61301494 0.053257659 0.04718354
0.61303687 0.053980723 0.047179133
0.61305887 0.054703787 0.047174726
0.61308086 0.055426851 0.047170319
0.61310279 0.056149919 0.047165915
0.61312479 0.056872983 0.047161508
0.61314678 0.057596046 0.047157101
0.61316878 0.05831911 0.047152694
0.61319071 0.059042178 0.047148287
0.6132127 0.059765242 0.047143884
0.6132347 0.06048831 0.047139477
0.61325669 0.061211374 0.04713507
0.61327863 0.061934438 0.047130663
0.61330062 0.062657505 0.04712626
0.61332262 0.063380569 0.047121853
0.61334455 0.064103633 0.047117446
0.61336654 0.064826697 0.047113039
0.6126169 0.065647364 0.046475265
0.61263895 0.066372022 0.046470851
0.612661 0.06709668 0.046466433
0.612683 0.067821339 0.046462018
0.61270505 0.068545997 0.0464576
0.61272705 0.069270656 0.046453185
0.6127491 0.069995314 0.046448771
0.61277109 0.070719972 0.046444353
0.61279315 0.071444623 0.046439938
0.61281514 0.072169282 0.046435524
0.6128372 0.07289394 0.046431106
0.61285919 0.073618598 0.046426691
0.61288124 0.074343257 0.046422273
0.61213225 0.075186223 0.045784347
0.61215436 0.075912476 0.045779921
0.61217642 0.076638728 0.045775495
0.61219847 0.077364974 0.04577107
0.61222059 0.078091219 0.045766644
0.61224264 0.078817472 0.045762219
0.61226469 0.079543725 0.045757793
0.61228681 0.080269977 0.045753367
0.61230886 0.08099623 0.045748942
0.61233091 0.081722476 0.045744516
0.61235303 0.082448728 0.04574009
0.61237508 0.083174981 0.045735665
0.61239719 0.083901227 0.045731239
0.61241925 0.084627479 0.045726813
0.6124413 0.085353725 0.045722388
0.61246341 0.086079977 0.045717962
0.61171526 0.086950019 0.045079887
0.61173737 0.087677859 0.04507545
0.61175948 0.088405706 0.045071017
0.61178166 0.089133553 0.04506658
0.61180377 0.089861386 0.045062143
0.61182588 0.090589233 0.04505771
0.611848 0.091317073 0.045053273
0.61187011 0.09204492 0.04504884
0.61189222 0.092772752 0.045044404
0.6119144 0.093500607 0.04503997
0.61193651 0.094228446 0.045035534
0.61195862 0.094956294 0.045031097
0.61198074 0.095684141 0.045026664
0.61200285 0.096411973 0.045022227
0.61202496 0.09713982 0.045017794
0.61127764 0.098035336 0.044379544
0.61129981 0.098764777 0.044375099
0.61132193 0.099494211 0.044370651
0.6113441 0.10022365 0.044366207
0.61136627 0.10095309 0.044361763
0.61138844 0.10168252 0.044357318
0.61141062 0.10241196 0.044352874
0.61143279 0.10314139 0.044348426
0.61145496 0.10387083 0.044343982
0.61147714 0.10460026 0.044339538
0.61149931 0.1053297 0.044335093
0.61152148 0.10605913 0.044330649
0.61154366 0.10678857 0.044326201
0.61156583 0.10751801 0.044321757
0.611588 0.10824744 0.044317313
0.61161017 0.10897688 0.044312868
0.61163235 0.10970631 0.044308424
0.61165452 0.11043575 0.044303976
0.61167669 0.11116519 0.044299532
0.61169887 0.11189462 0.044295087
0.61095256 0.11282359 0.043656655
0.60163093 0.019940497 0.037950683
0.60320079 0.020688221 0.039214157
0.60633993 0.022164559 0.041741226
0.60713577 0.022896769 0.04237077
0.60793149 0.023625791 0.043000352
0.60950047 0.024344848 0.044263985
0.61029601 0.025065908 0.044893615
0.61109138 0.025783785 0.045523245
0.61111343 0.026510036 0.045518819
0.61190867 0.027223133 0.046148501
0.61193073 0.027947791 0.046144087
0.61195272 0.028672447 0.046139669
0.61197478 0.029397106 0.046135254
0.61199683 0.030121762 0.046130836
0.61201882 0.030846421 0.046126422
0.61204088 0.031571079 0.046122007
0.61283571 0.032271434 0.046751745
0.6128577 0.032994501 0.046747338
0.61287963 0.033717565 0.046742931
0.61290163 0.034440629 0.046738528
0.61292362 0.035163697 0.046734121
0.61217302 0.035919026 0.046095509
0.61219501 0.036643684 0.046091095
0.61221707 0.037368339 0.04608668
0.61223906 0.038092997 0.046082262
0.61226112 0.038817655 0.046077847
0.61228317 0.039542314 0.046073433
0.61230516 0.040266972 0.046069015
0.61232722 0.04099163 0.0460646
0.61312139 0.04167128 0.046694465
0.61314338 0.042394347 0.046690058
0.61316538 0.043117411 0.046685651
0.61318737 0.043840475 0.046681248
0.61320931 0.044563543 0.046676841
0.6132313 0.045286607 0.046672434
0.6132533 0.046009671 0.046668027
0.61327529 0.046732735 0.04666362
0.61329722 0.047455803 0.046659216
0.61331922 0.048178867 0.046654809
0.61334121 0.04890193 0.046650402
0.61336315 0.049624994 0.046645995
0.61338514 0.050348062 0.046641592
0.61340714 0.051071126 0.046637185
0.61342913 0.051794194 0.046632778
0.61345106 0.052517258 0.046628371
0.61347306 0.053240322 0.046623968
0.61349505 0.053963386 0.046619561
0.61351699 0.054686453 0.046615154
0.61353898 0.055409517 0.046610747
0.61356097 0.056132585 0.04660634
0.61281174 0.0569341 0.045967452
0.6128338 0.057658754 0.045963034
0.61285585 0.058383413 0.04595862
0.61287785 0.059108071 0.045954201
0.6128999 0.059832729 0.045949787
0.61292189 0.060557388 0.045945372
0.61294395 0.061282046 0.045940954
0.61296594 0.062006701 0.04593654
0.612988 0.062731363 0.045932125
0.61300999 0.063456021 0.045927707
0.61303204 0.06418068 0.045923293
0.61305404 0.064905331 0.045918874
0.61307609 0.065629989 0.04591446
0.61309808 0.066354647 0.045910046
0.61312014 0.067079306 0.045905627
0.61314219 0.067803964 0.045901213
0.61316419 0.068528622 0.045896798
0.61318624 0.069253281 0.04589238
0.61320823 0.069977939 0.045887966
0.61323029 0.070702597 0.045883548
0.61325228 0.071427248 0.045879133
0.61327434 0.072151907 0.045874719
0.61329633 0.072876565 0.0458703
0.61254829 0.073716305 0.04523116
0.61257035 0.074442565 0.045226734
0.61259246 0.075168811 0.045222308
0.61261451 0.075895064 0.045217883
0.61263657 0.076621316 0.045213457
0.61265868 0.077347562 0.045209032
0.61268073 0.078073807 0.045204606
0.61270279 0.07880006 0.04520018
0.6127249 0.079526313 0.045195755
0.61197734 0.080381982 0.044556532
0.61199945 0.081109822 0.044552099
0.61202157 0.081837669 0.044547662
0.61204368 0.082565509 0.044543229
0.61206585 0.083293349 0.044538792
0.61208797 0.084021188 0.044534359
0.61211008 0.084749036 0.044529922
0.61213219 0.085476883 0.044525485
0.6121543 0.086204723 0.044521052
0.61217642 0.08693257 0.044516616
0.61219859 0.08766041 0.044512182
0.6122207 0.088388249 0.044507746
0.61224282 0.089116096 0.044503309
0.61226493 0.089843936 0.044498876
0.61228704 0.090571783 0.044494439
0.61154026 0.091452934 0.043855045
0.61156243 0.092182368 0.043850601
0.6115846 0.092911802 0.043846156
0.61160678 0.093641236 0.043841708
0.61162895 0.094370671 0.043837264
0.61165112 0.095100112 0.04383282
0.6116733 0.095829546 0.043828376
0.61169547 0.096558981 0.043823931
0.61171764 0.097288422 0.043819483
0.61173981 0.098017849 0.043815039
0.61176199 0.098747291 0.043810595
0.61178416 0.099476725 0.043806151
0.61180633 0.10020616 0.043801706
0.6110602 0.10110961 0.043162193
0.61108243 0.10184064 0.043157738
0.61110467 0.10257166 0.043153282
0.6111269 0.10330269 0.043148831
0.61114907 0.10403372 0.043144375
0.61117131 0.10476474 0.04313992
0.61119354 0.10549578 0.043135464
0.61121577 0.1062268 0.043131009
0.611238 0.10695784 0.043126557
0.61126018 0.10768887 0.043122102
0.61128241 0.10841989 0.043117646
0.61130464 0.10915092 0.043113191
0.61132687 0.10988194 0.043108735
0.61134905 0.11061297 0.043104284
0.61137128 0.111344 0.043099828
0.61139351 0.11207503 0.043095373
0.61141574 0.11280607 0.043090917
0.60210317 0.019922627 0.037373852
0.60367107 0.020670427 0.038639795
0.60523874 0.021411857 0.039905775
0.60682851 0.022882724 0.041167308
0.6083957 0.023608226 0.042433385
0.6099627 0.02432736 0.043699481
0.61075717 0.025048459 0.044330344
0.61155152 0.025766373 0.04496121
0.61157364 0.026492624 0.044956785
0.61159569 0.027218873 0.044952359
0.61161774 0.027945124 0.044947933
0.61241192 0.028655075 0.045578863
0.61243391 0.029379731 0.045574449
0.61245596 0.030104389 0.045570035
0.61247802 0.030829048 0.045565616
0.61250001 0.031553704 0.045561202
0.61252207 0.032278363 0.045556784
0.61254406 0.033003021 0.045552369
0.61256611 0.033727676 0.045547955
0.61258811 0.034452334 0.045543537
0.61261016 0.035176992 0.045539122
0.61263216 0.035901651 0.045534708
0.61265421 0.036626309 0.045530289
0.6126762 0.037350968 0.045525875
0.61269826 0.038075622 0.045521457
0.61272025 0.038800281 0.045517042
0.6127423 0.039524939 0.045512628
0.61276436 0.040249597 0.04550821
0.61278635 0.040974256 0.045503795
0.61280841 0.04169891 0.045499381
0.6128304 0.042423572 0.045494962
0.61285245 0.043148227 0.045490548
0.61287445 0.043872885 0.04548613
0.6128965 0.044597544 0.045481715
0.6129185 0.045322202 0.045477301
0.61294055 0.046046857 0.045472883
0.61296254 0.046771515 0.045468468
0.6129846 0.047496174 0.045464054
0.61300659 0.048220832 0.045459636
0.61302865 0.04894549 0.045455221
0.6130507 0.049670149 0.045450803
0.61307269 0.050394807 0.045446388
0.61309475 0.051119462 0.045441974
0.61311674 0.05184412 0.045437556
0.61313879 0.052568778 0.045433141
0.61316079 0.053293437 0.045428727
0.61318284 0.054018095 0.045424309
0.61320484 0.05474275 0.045419894
0.61322689 0.055467408 0.045415476
0.61324888 0.056192067 0.045411061
0.61327094 0.056916725 0.045406647
0.61329293 0.057641383 0.045402229
0.61331499 0.058366038 0.045397814
0.61333704 0.0590907 0.0453934
0.61335903 0.059815355 0.045388982
0.61338109 0.060540013 0.045384567
0.61340308 0.061264671 0.045380149
0.61342514 0.061989326 0.045375735
0.61344713 0.062713988 0.04537132
0.61346918 0.063438646 0.045366902
0.61349118 0.064163305 0.045362487
0.61351323 0.064887963 0.045358073
0.61353523 0.065612614 0.045353655
0.61355728 0.066337273 0.04534924
0.61357927 0.067061931 0.045344822
0.61360133 0.067786589 0.045340408
0.61362338 0.068511248 0.045335993
0.61364537 0.069235906 0.045331575
0.61289811 0.070067652 0.04469125
0.61292017 0.070793897 0.044686824
0.61294222 0.07152015 0.044682398
0.61296433 0.072246395 0.044677973
0.61298639 0.072972648 0.044673547
0.61300844 0.073698893 0.044669122
0.61303055 0.074425153 0.044664696
0.61305261 0.075151399 0.04466027
0.61307466 0.075877652 0.044655845
0.61309677 0.076603904 0.044651419
0.61235005 0.077453159 0.044011004
0.61237216 0.078180999 0.044006571
0.61239427 0.078908838 0.044002134
0.61241639 0.079636686 0.043997698
0.6124385 0.080364533 0.043993264
0.61246061 0.081092373 0.043988828
0.61248279 0.08182022 0.043984395
0.6125049 0.08254806 0.043979958
0.61252701 0.083275899 0.043975521
0.61254913 0.084003739 0.043971088
0.61257124 0.084731586 0.043966651
0.61259335 0.085459433 0.043962218
0.61261553 0.086187273 0.043957781
0.61186939 0.087058835 0.043317214
0.61189157 0.087788261 0.043312766
0.61191374 0.088517703 0.043308321
0.61193591 0.089247145 0.043303877
0.61195809 0.089976572 0.043299433
0.61198026 0.090706013 0.043294989
0.61200243 0.091435447 0.043290544
0.61202461 0.092164882 0.043286096
0.61127901 0.093050763 0.042645458
0.61130124 0.093781799 0.042641006
0.61132342 0.094512828 0.042636551
0.61134565 0.095243849 0.042632096
0.61136788 0.095974885 0.04262764
0.61139011 0.096705906 0.042623185
0.61141229 0.097436942 0.042618733
0.61143452 0.098167963 0.042614277
0.61145675 0.098898999 0.042609822
0.61147898 0.099630021 0.042605367
0.61150122 0.10036106 0.042600915
0.61152339 0.10109208 0.042596459
0.61154562 0.10182311 0.042592004
0.61156785 0.10255414 0.042587548
0.61159009 0.10328516 0.042583093
0.61161232 0.10401619 0.042578641
0.61163449 0.10474722 0.042574186
0.61165673 0.10547826 0.04256973
0.61167896 0.10620927 0.042565275
0.61170119 0.10694031 0.04256082
0.61172336 0.10767134 0.042556368
0.6117456 0.10840236 0.042551912
0.61176783 0.10913339 0.042547457
0.61179006 0.10986442 0.042543001
0.61181229 0.11059545 0.042538546
0.61183447 0.11132648 0.042534094
0.6118567 0.1120575 0.042529639
0.61187893 0.11278854 0.042525183
0.60180384 0.019901907 0.03616057
0.60414129 0.020652633 0.03806543
0.6088599 0.023590662 0.041866418
0.60965353 0.024316577 0.042498466
0.61121833 0.025031008 0.043767076
0.61124045 0.025758851 0.043762639
0.61203378 0.026475212 0.044394746
0.61205584 0.027201461 0.044390321
0.61207795 0.027927712 0.044385895
0.61210001 0.028653963 0.044381469
0.61212206 0.029380212 0.044377044
0.61214417 0.030106463 0.044372618
0.61216623 0.030832713 0.044368193
0.61218828 0.031558964 0.044363767
0.61221039 0.032285213 0.044359341
0.61223245 0.033011466 0.044354916
0.6122545 0.033737715 0.04435049
0.61227661 0.034463964 0.044346064
0.61229867 0.035190217 0.044341639
0.61232078 0.035916466 0.044337213
0.61234283 0.036642715 0.044332787
0.61236489 0.037368968 0.044328362
0.612387 0.038095217 0.044323936
0.61240906 0.038821466 0.04431951
0.61243111 0.039547719 0.044315085
0.61245322 0.040273968 0.044310659
0.61247528 0.041000217 0.044306234
0.61326754 0.041681539 0.044938575
0.61328959 0.042406198 0.044934157
0.61331159 0.043130856 0.044929743
0.61333364 0.043855511 0.044925325
0.61335564 0.044580169 0.04492091
0.61337769 0.045304827 0.044916496
0.61339968 0.046029486 0.044912077
0.61342174 0.046754144 0.044907663
0.61344373 0.047478803 0.044903249
0.61346579 0.048203457 0.04489883
0.61348778 0.048928116 0.044894416
0.61350983 0.049652774 0.044889998
0.61353189 0.050377432 0.044885583
0.61355388 0.051102087 0.044881169
0.61357594 0.051826745 0.044876751
0.61359793 0.052551404 0.044872336
0.61361998 0.053276062 0.044867922
0.61364198 0.05400072 0.044863503
0.61366403 0.054725379 0.044859089
0.61368603 0.055450033 0.044854674
0.61370808 0.056174692 0.044850256
0.61373007 0.05689935 0.044845842
0.61375213 0.057624009 0.044841424
0.61377412 0.058348663 0.044837009
0.61379617 0.059073325 0.044832595
0.61381823 0.059797984 0.044828176
0.61384022 0.060522638 0.044823762
0.61386228 0.061247297 0.044819344
0.61311543 0.062061477 0.044177894
0.61313754 0.062787734 0.044173468
0.6131596 0.063513979 0.044169042
0.61318165 0.064240232 0.044164617
0.61320376 0.064966485 0.044160191
0.61322582 0.06569273 0.044155765
0.61324787 0.066418983 0.04415134
0.61326998 0.067145228 0.044146914
0.61329204 0.067871481 0.044142488
0.61331409 0.068597734 0.044138063
0.61333621 0.069323987 0.044133637
0.61335826 0.07005024 0.044129211
0.61338031 0.070776485 0.044124786
0.61340243 0.071502738 0.04412036
0.61342448 0.072228983 0.044115935
0.61344653 0.072955236 0.044111509
0.61346865 0.073681481 0.044107083
0.61272269 0.074524336 0.043465476
0.61274481 0.075252175 0.04346104
0.61276698 0.075980023 0.043456607
0.61278909 0.076707862 0.04345217
0.61281121 0.07743571 0.043447737
0.61283332 0.078163549 0.0434433
0.61285543 0.078891389 0.043438863
0.61287755 0.079619236 0.04343443
0.61213207 0.080476418 0.042792715
0.61215425 0.08120586 0.042788271
0.61217642 0.081935294 0.042783827
0.61219859 0.082664728 0.042779379
0.61222076 0.083394162 0.042774934
0.61224294 0.084123597 0.04277049
0.61226511 0.084853038 0.042766046
0.61228728 0.085582472 0.042761602
0.61230946 0.086311907 0.042757154
0.61233163 0.087041348 0.042752709
0.6123538 0.087770775 0.042748265
0.61237597 0.088500217 0.042743821
0.6116311 0.089378104 0.042101998
0.61165333 0.090109132 0.042097542
0.61167556 0.090840161 0.042093091
0.61169773 0.091571182 0.042088635
0.61171997 0.092302218 0.04208418
0.6117422 0.093033239 0.042079724
0.61176443 0.093764268 0.042075269
0.6117866 0.094495296 0.042070817
0.61180884 0.095226325 0.042066362
0.61183107 0.095957361 0.042061906
0.6118533 0.096688382 0.042057451
0.61110902 0.097585388 0.041415513
0.61113131 0.098318003 0.04141105
0.61115354 0.099050619 0.041406583
0.61117584 0.099783242 0.04140212
0.61119807 0.10051586 0.041397657
0.61122036 0.1012485 0.041393191
0.61124265 0.1019811 0.041388728
0.61126488 0.10271373 0.041384261
0.61128718 0.10344635 0.041379798
0.61130941 0.10417897 0.041375335
0.6113317 0.10491159 0.041370869
0.61135399 0.10564421 0.041366406
0.61137623 0.10637683 0.041361939
0.61139852 0.10710946 0.041357476
0.61142075 0.10784207 0.041353013
0.61144304 0.1085747 0.041348547
0.61146533 0.10930732 0.041344084
0.61148757 0.11003993 0.041339617
0.61150986 0.11077256 0.041335154
0.61153209 0.11150517 0.041330691
0.61155438 0.1122378 0.041326225
0.61157668 0.11297043 0.041321762
0.60227716 0.019883998 0.035582513
0.60384101 0.020633545 0.036853373
0.60540468 0.02137672 0.038124252
0.60855371 0.023578173 0.040661696
0.61011672 0.024299052 0.041932732
0.61167955 0.025013559 0.043203805
0.61170167 0.025741402 0.043199372
0.61172378 0.026469244 0.043194935
0.61251605 0.027184049 0.043828283
0.6125381 0.0279103 0.043823857
0.61256015 0.028636551 0.043819431
0.61258227 0.029362801 0.043815006
0.61260432 0.030089051 0.04381058
0.61262637 0.030815301 0.043806154
0.61264849 0.031541552 0.043801729
0.61267054 0.032267801 0.043797303
0.61269259 0.032994054 0.043792877
0.61271471 0.033720303 0.043788452
0.61273676 0.034446552 0.043784026
0.61275887 0.035172805 0.0437796
0.61278093 0.035899054 0.043775175
0.61280298 0.036625303 0.043770749
0.6128251 0.037351556 0.043766327
0.61284715 0.038077805 0.043761902
0.6128692 0.038804054 0.043757476
0.61289132 0.039530307 0.04375305
0.61291337 0.040256556 0.043748625
0.61293542 0.040982805 0.043744199
0.61295754 0.041709058 0.043739773
0.61297959 0.042435307 0.043735348
0.61300164 0.04316156 0.043730922
0.61302376 0.043887809 0.043726496
0.61304581 0.044614058 0.043722071
0.61306787 0.045340311 0.043717645
0.61308998 0.04606656 0.043713219
0.61311203 0.046792809 0.043708794
0.61313415 0.047519062 0.043704368
0.6131562 0.048245311 0.043699943
0.61317825 0.04897156 0.043695517
0.61320037 0.049697809 0.043691091
0.61322242 0.050424062 0.043686666
0.61324447 0.051150315 0.04368224
0.61326659 0.05187656 0.043677814
0.61328864 0.052602813 0.043673389
0.61331069 0.053329065 0.043668963
0.61333281 0.054055315 0.043664537
0.61335486 0.054781564 0.043660112
0.61337692 0.055507813 0.043655686
0.61339903 0.056234065 0.04365126
0.61342108 0.056960315 0.043646835
0.61344314 0.057686567 0.043642409
0.61346525 0.058412816 0.043637984
0.6134873 0.059139065 0.043633558
0.61350936 0.059865318 0.043629132
0.61353147 0.060591567 0.043624707
0.61355352 0.061317816 0.043620281
0.61357564 0.062044065 0.043615855
0.61359769 0.062770322 0.04361143
0.61361974 0.063496567 0.043607004
0.61364186 0.06422282 0.043602578
0.61366391 0.064949073 0.043598153
0.61368597 0.065675318 0.043593727
0.61370808 0.066401571 0.043589301
0.61373013 0.067127816 0.043584876
0.61375219 0.067854069 0.04358045
0.6137743 0.068580322 0.043576024
0.61379635 0.069306575 0.043571599
0.61381841 0.070032828 0.043567173
0.61384052 0.070759073 0.043562748
0.6130954 0.071595512 0.042919949
0.61311752 0.072323352 0.042915512
0.61313963 0.073051199 0.042911075
0.61316174 0.073779039 0.042906642
0.61318392 0.074506886 0.042902205
0.61320603 0.075234726 0.042897772
0.61322814 0.075962573 0.042893335
0.61248338 0.076811753 0.042250436
0.61250556 0.077541187 0.042245992
0.61252773 0.078270622 0.042241547
0.6125499 0.079000063 0.042237103
0.61257207 0.079729497 0.042232659
0.61259425 0.080458932 0.042228211
0.61261642 0.081188373 0.042223766
0.61263859 0.081917807 0.042219322
0.61266077 0.082647242 0.042214878
0.61268294 0.083376676 0.042210434
0.61193877 0.084243372 0.041567445
0.61196095 0.084974401 0.041562993
0.61198318 0.085705429 0.041558538
0.61200541 0.086436458 0.041554082
0.61202765 0.087167487 0.041549627
0.61204988 0.087898515 0.041545171
0.61207205 0.088629544 0.04154072
0.61209428 0.089360572 0.041536264
0.61211652 0.090091601 0.041531809
0.61213875 0.090822637 0.041527353
0.61216098 0.091553658 0.041522898
0.61141735 0.092439473 0.040879797
0.61143959 0.093172088 0.040875331
0.61146188 0.093904711 0.040870868
0.61148417 0.094637327 0.040866405
0.6115064 0.09536995 0.040861938
0.61152869 0.09610258 0.040857475
0.61155093 0.096835189 0.040853009
0.61157322 0.097567819 0.040848546
0.61159551 0.098300435 0.040844083
0.61161774 0.099033058 0.040839616
0.61164004 0.099765681 0.040835153
0.61166227 0.1004983 0.040830687
0.61168456 0.10123093 0.040826224
0.61094159 0.10213903 0.040182967
0.61096394 0.10287325 0.040178493
0.61098623 0.10360746 0.040174019
0.61100858 0.10434168 0.040169545
0.61103088 0.10507589 0.04016507
0.61105323 0.10581011 0.040160596
0.61107552 0.10654431 0.040156122
0.61109781 0.10727853 0.040151648
0.61112016 0.10801274 0.040147174
0.61114246 0.10874695 0.0401427
0.61116481 0.10948117 0.040138226
0.61195177 0.11002237 0.04077265
0.61197406 0.110755 0.040768187
0.61199629 0.11148761 0.040763721
0.61201859 0.11222024 0.040759258
0.61204088 0.11295286 0.040754795
0.60198081 0.019863164 0.034365512
0.60354269 0.020614378 0.035638828
0.60510439 0.021359224 0.036912184
0.60666591 0.022097697 0.038185578
0.60901892 0.023560571 0.040093496
0.61057991 0.024281524 0.041366994
0.6113714 0.025004331 0.042001527
0.61216283 0.025723951 0.0426361
0.61218494 0.026451794 0.042631663
0.61220706 0.027179638 0.04262723
0.61222917 0.02790748 0.042622793
0.61225134 0.028635323 0.04261836
0.61227345 0.029363167 0.042613924
0.61306447 0.030071639 0.043248545
0.61308658 0.030797889 0.04324412
0.61310863 0.03152414 0.043239694
0.61313075 0.032250389 0.043235268
0.61238408 0.03300238 0.042591747
0.61240619 0.033730224 0.04258731
0.61242831 0.034458067 0.042582877
0.61245042 0.035185911 0.04257844
0.61247253 0.035913754 0.042574007
0.61326319 0.036607891 0.043208715
0.61328524 0.037334144 0.043204289
0.6133073 0.038060393 0.043199863
0.61332941 0.038786642 0.043195438
0.61335146 0.039512895 0.043191012
0.61337352 0.040239144 0.043186586
0.61339563 0.040965393 0.043182161
0.61341769 0.041691646 0.043177735
0.61343974 0.042417895 0.043173309
0.61346185 0.043144148 0.043168884
0.61348391 0.043870397 0.043164458
0.61350602 0.044596646 0.043160032
0.61352807 0.045322899 0.043155607
0.61355013 0.046049148 0.043151181
0.61357224 0.046775397 0.043146756
0.61359429 0.04750165 0.04314233
0.61361635 0.048227899 0.043137904
0.61363846 0.048954148 0.043133479
0.61366051 0.049680397 0.043129053
0.61368257 0.05040665 0.043124627
0.61370468 0.051132903 0.043120202
0.61372674 0.051859148 0.043115776
0.61374879 0.052585401 0.04311135
0.6137709 0.053311653 0.043106925
0.61379296 0.054037903 0.043102499
0.61381501 0.054764152 0.043098073
0.61383712 0.055490401 0.043093648
0.61385918 0.056216653 0.043089222
0.61388123 0.056942903 0.043084797
0.61390334 0.057669155 0.043080371
0.6139254 0.058395404 0.043075945
0.61394751 0.059121653 0.04307152
0.61396956 0.059847906 0.043067094
0.61399162 0.060574155 0.043062668
0.61401373 0.061300404 0.043058243
0.61403579 0.062026653 0.043053817
0.61405784 0.06275291 0.043049391
0.61407995 0.063479163 0.043044966
0.61410201 0.064205408 0.04304054
0.61412406 0.064931661 0.043036118
0.61414617 0.065657906 0.043031693
0.61416823 0.066384159 0.043027267
0.61419028 0.067110404 0.043022841
0.61421239 0.067836657 0.043018416
0.61346811 0.068666697 0.042374417
0.61349022 0.069394536 0.042369984
0.61351234 0.070122376 0.042365547
0.61353445 0.070850216 0.042361114
0.61355656 0.071578063 0.042356677
0.61357868 0.072305903 0.042352241
0.61360085 0.073033743 0.042347807
0.61362296 0.07376159 0.042343371
0.6128791 0.074605964 0.041699268
0.61290127 0.075335398 0.041694824
0.61292344 0.076064833 0.041690379
0.61294556 0.076794267 0.041685935
0.61296773 0.077523701 0.041681491
0.6129899 0.078253135 0.041677047
0.61224639 0.079108648 0.041032895
0.61226863 0.079839677 0.04102844
0.61229086 0.080570713 0.041023985
0.61231309 0.081301734 0.041019529
0.61233526 0.082032762 0.041015074
0.6123575 0.082763791 0.041010622
0.61237973 0.08349482 0.041006166
0.61240196 0.084225848 0.041001711
0.61242419 0.084956877 0.040997256
0.61244637 0.085687906 0.0409928
0.6124686 0.086418934 0.040988348
0.61249083 0.087149963 0.040983893
0.61251307 0.087880991 0.040979438
0.6125353 0.08861202 0.040974982
0.6117925 0.089491419 0.040330686
0.61181474 0.090224043 0.040326223
0.61183703 0.090956666 0.040321756
0.61185926 0.091689281 0.040317293
0.61188155 0.092421904 0.04031283
0.61190385 0.09315452 0.040308364
0.61192608 0.09388715 0.040303901
0.61118364 0.09477929 0.039659508
0.611206 0.095513508 0.039655033
0.61122829 0.096247725 0.039650559
0.61125064 0.096981935 0.039646085
0.61127293 0.097716153 0.039641611
0.61129522 0.098450355 0.039637137
0.61131757 0.09918458 0.039632663
0.61133987 0.09991879 0.039628189
0.61136222 0.100653 0.039623715
0.61138451 0.10138722 0.039619241
0.6114068 0.10212144 0.039614767
0.61142915 0.10285565 0.039610293
0.61145145 0.10358986 0.039605819
0.6114738 0.10432408 0.039601345
0.61149609 0.10505828 0.039596871
0.61151844 0.1057925 0.039592396
0.61154073 0.10652671 0.039587922
0.61156303 0.10726093 0.039583448
0.61158538 0.10799515 0.039578974
0.61160767 0.10872936 0.0395745
0.61163002 0.10946357 0.039570026
0.61165231 0.11019778 0.039565552
0.61167461 0.110932 0.039561078
0.61169696 0.1116662 0.039556604
0.61171925 0.11240042 0.03955213
0.6117416 0.11313464 0.039547656
0.60245508 0.019845217 0.033786219
0.60401499 0.020596508 0.035062
0.60557467 0.02134143 0.036337819
0.60948414 0.023542967 0.039525297
0.6110431 0.024263998 0.040801261
0.61183357 0.024986843 0.041437026
0.61262399 0.025706502 0.042072829
0.6126461 0.026434343 0.042068396
0.61266828 0.027162187 0.042063959
0.61269039 0.02789003 0.042059526
0.6127125 0.028617874 0.042055089
0.61273462 0.029345715 0.042050652
0.61275673 0.030073559 0.042046219
0.61277884 0.030801402 0.042041782
0.61280102 0.031529244 0.042037349
0.61282313 0.032257088 0.042032912
0.61284524 0.032984931 0.042028476
0.61286736 0.033712775 0.042024042
0.61288947 0.034440618 0.042019606
0.61291158 0.035168462 0.042015173
0.61293375 0.035896305 0.042010736
0.61295587 0.036624148 0.042006303
0.61297798 0.037351988 0.042001866
0.61300009 0.038079832 0.041997429
0.61302221 0.038807675 0.041992996
0.61304432 0.039535519 0.041988559
0.61306649 0.040263362 0.041984126
0.61308861 0.040991206 0.041979689
0.61311072 0.041719049 0.041975252
0.61313283 0.042446889 0.041970819
0.61315495 0.043174732 0.041966382
0.61317706 0.043902576 0.041961949
0.61319923 0.044630419 0.041957512
0.61322135 0.045358263 0.041953079
0.61324346 0.046086106 0.041948643
0.61326557 0.04681395 0.041944206
0.61328769 0.047541793 0.041939773
0.6133098 0.048269633 0.041935336
0.61333197 0.048997477 0.041930903
0.61335409 0.04972532 0.041926466
0.6133762 0.050453164 0.041922029
0.61339831 0.051181007 0.041917596
0.61342043 0.051908851 0.041913159
0.61344254 0.052636694 0.041908726
0.61346471 0.053364538 0.041904289
0.61348683 0.054092377 0.041899856
0.61350894 0.054820221 0.041895419
0.61353105 0.055548064 0.041890983
0.61355317 0.056275908 0.041886549
0.61357528 0.057003751 0.041882113
0.61359739 0.057731595 0.04187768
0.61361957 0.058459435 0.041873243
0.61364168 0.059187282 0.041868806
0.61366379 0.059915125 0.041864373
0.61368591 0.060642965 0.041859936
0.61370802 0.061370809 0.041855503
0.61373013 0.062098652 0.041851066
0.61375231 0.062826499 0.041846629
0.61377442 0.063554339 0.041842196
0.61379653 0.064282179 0.041837759
0.61381865 0.065010026 0.041833326
0.61384076 0.065737866 0.041828889
0.61386287 0.066465713 0.041824456
0.61388505 0.067193553 0.041820019
0.61390716 0.067921393 0.041815583
0.61392927 0.06864924 0.04181115
0.61395139 0.06937708 0.041806713
0.6139735 0.070104927 0.04180228
0.61399561 0.070832767 0.041797843
0.61325258 0.071670726 0.041152548
0.61327475 0.07240016 0.041148104
0.61329693 0.073129594 0.041143656
0.6133191 0.073859029 0.041139212
0.61334127 0.07458847 0.041134767
0.61336344 0.075317904 0.041130323
0.61338562 0.076047339 0.041125879
0.61264294 0.076898038 0.040480524
0.61266518 0.077629067 0.040476069
0.61268741 0.078360096 0.040471613
0.61270958 0.079091124 0.040467158
0.61273181 0.079822153 0.040462706
0.61275405 0.080553181 0.040458251
0.61277628 0.08128421 0.040453795
0.61279851 0.082015239 0.04044934
0.61282068 0.082746267 0.040444884
0.61284292 0.083477296 0.040440433
0.61210084 0.084345512 0.03979497
0.61212307 0.085078128 0.039790507
0.61214536 0.085810751 0.039786041
0.6121676 0.086543374 0.039781578
0.61218989 0.087275997 0.039777111
0.61221218 0.088008612 0.039772648
0.61223441 0.088741235 0.039768185
0.61225671 0.089473858 0.039763719
0.61227894 0.090206474 0.039759256
0.61153728 0.091090627 0.039113678
0.61155963 0.091824837 0.039109204
0.61158192 0.092559054 0.03910473
0.61160427 0.093293265 0.039100256
0.61162657 0.094027482 0.039095782
0.61164886 0.094761685 0.039091308
0.61167121 0.095495902 0.039086834
0.6116935 0.096230127 0.03908236
0.61095232 0.097128592 0.038436715
0.61097467 0.097864404 0.038432229
0.61099702 0.098600201 0.038427748
0.61101943 0.099336013 0.038423263
0.61104178 0.10007182 0.038418777
0.61106414 0.10080763 0.038414296
0.61108649 0.10154343 0.038409811
0.6111089 0.10227924 0.038405329
0.61113125 0.10301505 0.038400844
0.6111536 0.10375085 0.038396358
0.61117595 0.10448666 0.038391877
0.61119831 0.10522246 0.038387392
0.61122072 0.10595828 0.038382906
0.61124307 0.10669407 0.038378425
0.61126542 0.10742988 0.03837394
0.61128777 0.10816569 0.038369458
0.61131018 0.10890149 0.038364973
0.61133254 0.10963731 0.038360488
0.61135489 0.1103731 0.038356006
0.61137724 0.11110891 0.038351521
0.61139959 0.11184472 0.038347039
0.60216182 0.019824268 0.032565542
0.60448724 0.020578638 0.034485172
0.60604495 0.021323636 0.035763457
0.60994941 0.023525365 0.038957093
0.61073899 0.024253024 0.039594084
0.61152852 0.0249775 0.040231071
0.61231798 0.02569879 0.040868077
0.61234015 0.026428225 0.040863633
0.61236233 0.027157661 0.040859189
0.6123845 0.027887097 0.040854745
0.61240667 0.028616533 0.0408503
0.61242884 0.029345969 0.040845852
0.61245102 0.030075405 0.040841408
0.61247319 0.030804839 0.040836964
0.61249536 0.031534277 0.04083252
0.61251748 0.032263711 0.040828075
0.61253965 0.032993145 0.040823627
0.61256182 0.033722583 0.040819183
0.61258399 0.034452017 0.040814739
0.6133728 0.035151012 0.041451901
0.61339492 0.035878852 0.041447468
0.61341703 0.036606696 0.041443031
0.61343914 0.037334539 0.041438594
0.61346126 0.038062382 0.041434161
0.61348343 0.038790226 0.041429725
0.61350554 0.039518069 0.041425291
0.61352766 0.040245913 0.041420855
0.61354977 0.040973753 0.041416418
0.61357188 0.041701596 0.041411985
0.613594 0.04242944 0.041407548
0.61361617 0.043157283 0.041403115
0.61363828 0.043885127 0.041398678
0.6136604 0.04461297 0.041394241
0.61368251 0.045340814 0.041389808
0.61370462 0.046068657 0.041385371
0.61372674 0.046796497 0.041380938
0.61374891 0.04752434 0.041376501
0.61377102 0.048252184 0.041372068
0.61379313 0.048980027 0.041367631
0.61381525 0.049707871 0.041363195
0.61383736 0.050435714 0.041358761
0.61385947 0.051163558 0.041354325
0.61388159 0.051891398 0.041349892
0.61390376 0.052619241 0.041345455
0.61392587 0.053347088 0.041341018
0.61394799 0.054074928 0.041336585
0.6139701 0.054802772 0.041332148
0.61399221 0.055530615 0.041327715
0.61401433 0.056258459 0.041323278
0.6140365 0.056986302 0.041318845
0.61405861 0.057714142 0.041314408
0.61408073 0.058441985 0.041309971
0.61410284 0.059169833 0.041305538
0.61412495 0.059897672 0.041301101
0.61414707 0.060625516 0.041296668
0.61416924 0.061353359 0.041292232
0.61419135 0.062081199 0.041287795
0.61421347 0.06280905 0.041283362
0.61423558 0.06353689 0.041278925
0.61425769 0.06426473 0.041274492
0.61427981 0.064992577 0.041270055
0.61430198 0.065720417 0.041265622
0.61432409 0.066448264 0.041261185
0.61434621 0.067176104 0.041256748
0.61360389 0.068006061 0.040610269
0.61362606 0.068735495 0.040605824
0.61364824 0.069464929 0.04060138
0.61367041 0.070194371 0.040596936
0.61369258 0.070923805 0.040592492
0.61371475 0.071653239 0.040588044
0.61373693 0.072382674 0.040583599
0.6137591 0.073112108 0.040579155
0.61301726 0.0739564 0.039932609
0.61303949 0.074687429 0.039928153
0.61306173 0.075418457 0.039923698
0.61308396 0.076149486 0.039919242
0.61310613 0.076880507 0.039914787
0.61312836 0.077611536 0.039910335
0.6131506 0.078342572 0.03990588
0.61317283 0.0790736 0.039901424
0.61243141 0.079932213 0.039254788
0.6124537 0.080664843 0.039250325
0.61247593 0.081397459 0.039245859
0.61249822 0.082130082 0.039241396
0.61252046 0.082862705 0.039236933
0.61254275 0.083595321 0.039232466
0.61256504 0.084327944 0.039228003
0.61258727 0.085060567 0.039223537
0.61260957 0.08579319 0.039219074
0.6126318 0.086525805 0.039214611
0.61189091 0.087401956 0.038567849
0.61191326 0.088136166 0.038563374
0.61193556 0.088870376 0.0385589
0.61195791 0.089604594 0.038554426
0.6119802 0.090338804 0.038549952
0.61200249 0.091073021 0.038545478
0.61202484 0.091807231 0.038541004
0.61204714 0.092541449 0.03853653
0.61130673 0.09343192 0.0378897
0.61132908 0.094167724 0.037885215
0.61135143 0.094903536 0.037880734
0.61137378 0.095639341 0.037876248
0.61139619 0.096375152 0.037871767
0.61141855 0.097110949 0.037867282
0.6114409 0.097846761 0.037862796
0.61146325 0.098582558 0.037858315
0.61148566 0.09931837 0.03785383
0.61150801 0.10005418 0.037849344
0.61153036 0.10078999 0.037844863
0.61155272 0.1015258 0.037840378
0.61157513 0.1022616 0.037835896
0.61159748 0.10299741 0.037831411
0.61161983 0.1037332 0.037826926
0.61164218 0.10446902 0.037822444
0.61166453 0.10520482 0.037817959
0.61168694 0.10594063 0.037813477
0.6117093 0.10667644 0.037808992
0.61173165 0.10741224 0.037804507
0.611754 0.10814805 0.037800025
0.61177641 0.10888385 0.03779554
0.61103702 0.10981097 0.037148468
0.61182112 0.11035546 0.037786573
0.61184347 0.11109127 0.037782088
0.61186582 0.11182708 0.037777606
0.60263711 0.019806283 0.031985015
0.60495955 0.020560768 0.033908345
0.60651517 0.021305842 0.035189096
0.60964829 0.023512684 0.037746228
0.61120325 0.024235459 0.039027117
0.61199176 0.024959972 0.039665338
0.61201394 0.025691001 0.039660882
0.61280233 0.026410736 0.040299132
0.6128245 0.027140172 0.040294688
0.61284667 0.027869608 0.04029024
0.61286885 0.028599044 0.040285796
0.61289102 0.02932848 0.040281352
0.61291319 0.030057916 0.040276907
0.61293536 0.030787351 0.040272463
0.61295754 0.031516787 0.040268015
0.61297971 0.032246225 0.040263571
0.61300188 0.032975659 0.040259127
0.61302406 0.033705093 0.040254682
0.61304623 0.034434531 0.040250238
0.6130684 0.035163965 0.04024579
0.61309057 0.035893403 0.040241346
0.61311275 0.036622837 0.040236901
0.61313492 0.037352271 0.040232457
0.61315709 0.038081709 0.040228013
0.61317927 0.038811143 0.040223565
0.61320138 0.039540581 0.040219121
0.61322355 0.040270016 0.040214676
0.61324573 0.040999454 0.040210232
0.6132679 0.041728888 0.040205788
0.61329007 0.042458322 0.040201344
0.61331224 0.04318776 0.040196896
0.61333442 0.043917194 0.040192451
0.61335659 0.044646632 0.040188007
0.61337876 0.045376066 0.040183563
0.61340094 0.0461055 0.040179119
0.61342311 0.046834935 0.040174671
0.61344528 0.047564372 0.040170226
0.61346745 0.04829381 0.040165782
0.61348963 0.049023245 0.040161338
0.6135118 0.049752679 0.040156893
0.61353397 0.050482117 0.040152445
0.61355615 0.051211551 0.040148001
0.61357832 0.051940985 0.040143557
0.61360049 0.052670423 0.040139113
0.61362267 0.053399861 0.040134668
0.61364484 0.054129295 0.04013022
0.61366701 0.054858729 0.040125776
0.61368918 0.055588163 0.040121332
0.61371136 0.056317601 0.040116888
0.61373353 0.057047036 0.040112443
0.6137557 0.057776473 0.040107999
0.61377788 0.058505908 0.040103551
0.61380005 0.059235346 0.040099107
0.61382222 0.05996478 0.040094662
0.61384439 0.060694214 0.040090218
0.61386657 0.061423652 0.040085774
0.61388874 0.062153086 0.040081326
0.61391091 0.06288252 0.040076882
0.61393309 0.063611962 0.040072437
0.61395526 0.064341396 0.040067993
0.61397743 0.06507083 0.040063549
0.61399961 0.065800264 0.040059101
0.61402178 0.066529699 0.040054657
0.61404395 0.067259133 0.040050212
0.61406612 0.067988575 0.040045768
0.6140883 0.068718009 0.040041324
0.61411041 0.069447443 0.040036876
0.61336935 0.070283733 0.039389145
0.61339158 0.071014762 0.039384689
0.61341381 0.071745791 0.039380237
0.61343604 0.072476812 0.039375782
0.61345828 0.07320784 0.039371327
0.61348045 0.073938869 0.039366871
0.61350268 0.074669905 0.039362419
0.61352491 0.075400926 0.039357964
0.61354715 0.076131955 0.039353509
0.61280656 0.076984167 0.038705681
0.61282879 0.07771679 0.038701214
0.61285108 0.078449413 0.038696751
0.61287338 0.079182029 0.038692284
0.61289561 0.079914652 0.038687821
0.6129179 0.080647275 0.038683359
0.61294013 0.081379898 0.038678892
0.61296242 0.082112521 0.038674429
0.61298472 0.082845137 0.038669962
0.61224455 0.083713278 0.038022019
0.6122669 0.084447496 0.038017545
0.61228919 0.085181706 0.038013071
0.61231154 0.085915923 0.038008597
0.61233383 0.086650133 0.038004123
0.61235613 0.087384351 0.037999649
0.61237848 0.088118561 0.037995175
0.61240077 0.088852778 0.0379907
0.61242312 0.089586996 0.037986226
0.61168349 0.090471059 0.037338205
0.61170584 0.091206864 0.037333719
0.61172819 0.091942668 0.037329234
0.6117506 0.092678472 0.037324753
0.61177295 0.093414277 0.037320267
0.61179531 0.094150081 0.037315782
0.61181766 0.094885893 0.037311301
0.61184001 0.095621705 0.037306815
0.61110085 0.096520111 0.036658686
0.61112326 0.097257502 0.036654193
0.61114568 0.097994909 0.0366497
0.61116809 0.0987323 0.036645208
0.6111905 0.099469706 0.036640711
0.61121291 0.1002071 0.036636218
0.61123532 0.1009445 0.036631726
0.61125773 0.1016819 0.036627233
0.61128014 0.10241929 0.03662274
0.61130255 0.1031567 0.036618244
0.61132497 0.10389409 0.036613751
0.61134738 0.1046315 0.036609259
0.61136979 0.10536889 0.036604766
0.6113922 0.1061063 0.036600269
0.61141461 0.10684369 0.036595777
0.61143702 0.10758109 0.036591284
0.61145943 0.10831849 0.036586791
0.61148185 0.10905589 0.036582299
0.61150426 0.10979329 0.036577802
0.61152667 0.11053068 0.036573309
0.61154908 0.11126809 0.036568817
0.61157149 0.11200548 0.036564324
0.60387802 0.019791378 0.032048341
0.6054318 0.020542899 0.033331517
0.60698545 0.021288048 0.034614731
0.61011446 0.023495043 0.037176795
0.61090213 0.024224373 0.037816219
0.61168969 0.024950515 0.038455684
0.61247718 0.025673475 0.039095145
0.61249936 0.026404504 0.039090693
0.61252159 0.027135532 0.039086238
0.61254382 0.027866561 0.039081782
0.61256605 0.028597588 0.039077327
0.61258823 0.029328616 0.039072871
0.61261046 0.030059645 0.039068419
0.61263269 0.030790674 0.039063964
0.61265492 0.0315217 0.039059509
0.61267716 0.032252729 0.039055053
0.61269933 0.032983758 0.039050598
0.61272156 0.033714786 0.039046146
0.61274379 0.034445815 0.039041691
0.61276603 0.035176843 0.039037235
0.61278826 0.035907872 0.03903278
0.61281043 0.036638901 0.039028324
0.61283267 0.037369929 0.039023872
0.61361927 0.038064219 0.039663509
0.61364144 0.038793657 0.039659064
0.61289936 0.039563015 0.039010506
0.61292154 0.04029404 0.039006051
0.61294377 0.041025069 0.039001599
0.612966 0.041756097 0.038997144
0.61298823 0.042487126 0.038992688
0.61301041 0.043218154 0.038988233
0.61303264 0.043949183 0.038983777
0.61305487 0.044680212 0.038979325
