# .PCD v0.7 - Point Cloud Data file format
VERSION 0.7
FIELDS x y z
SIZE 4 4 4
TYPE F F F
COUNT 1 1 1
WIDTH 1341
HEIGHT 1
VIEWPOINT 0 0 0 1 0 0 0
POINTS 1341
DATA ascii
0.61548871 0.026846137 0.018099697
0.61551142 0.027594684 0.018095136
0.61553419 0.02834323 0.018090574
0.61555696 0.029091779 0.018086012
0.61483902 0.029858628 0.017407885
0.61486185 0.030608768 0.017403314
0.61488461 0.031358909 0.017398743
0.61490744 0.032109048 0.017394172
0.61493021 0.032859188 0.017389601
0.61495304 0.033609327 0.01738503
0.61497581 0.03435947 0.017380459
0.61499864 0.035109609 0.017375888
0.61502141 0.035859749 0.017371316
0.61504424 0.036609888 0.017366745
0.61506706 0.037360031 0.017362174
0.61508983 0.038110171 0.017357603
0.61511266 0.03886031 0.017353032
0.61513543 0.039610449 0.017348461
0.61515826 0.040360589 0.01734389
0.61518103 0.041110732 0.017339319
0.61520386 0.041860871 0.017334748
0.61522663 0.04261101 0.017330175
0.61524945 0.04336115 0.017325604
0.61527222 0.044111293 0.017321033
0.61529505 0.044861432 0.017316462
0.61531782 0.045611572 0.017311892
0.61534065 0.046361711 0.017307321
0.61536342 0.04711185 0.01730275
0.61538625 0.047861993 0.017298179
0.61540908 0.048612133 0.017293608
0.61543185 0.049362272 0.017289035
0.61471528 0.050173715 0.016610617
0.61473811 0.050925452 0.016606035
0.61476094 0.051677182 0.016601454
0.61478382 0.052428916 0.016596874
0.61480665 0.05318065 0.016592292
0.61482948 0.053932384 0.016587712
0.61485237 0.054684114 0.016583132
0.6148752 0.055435847 0.01657855
0.61489803 0.056187578 0.016573969
0.61492091 0.056939311 0.016569389
0.61494374 0.057691045 0.016564807
0.61496657 0.058442779 0.016560227
0.61498946 0.059194513 0.016555646
0.61501229 0.059946246 0.016551066
0.61503518 0.060697976 0.016546484
0.615058 0.06144971 0.016541904
0.61508083 0.062201444 0.016537324
0.61510372 0.062953174 0.016532741
0.61512655 0.063704915 0.016528161
0.61514938 0.064456642 0.016523581
0.60053253 -0.018116709 0.0049750633
0.60352671 -0.017022347 0.0076671839
0.60503536 -0.01609532 0.0090109305
0.60580122 -0.015250362 0.0096804686
0.60656703 -0.014408597 0.010350027
0.60884076 -0.012663682 0.012363496
0.61034858 -0.011763728 0.013707407
0.61111391 -0.010937887 0.014377062
0.61187917 -0.01011523 0.015046736
0.61264431 -0.0092957579 0.01571645
0.61340934 -0.0084794713 0.016386162
0.61343217 -0.0077277375 0.016381582
0.61345506 -0.0069760038 0.016377
0.6142199 -0.0061660851 0.017046774
0.61424267 -0.0054159448 0.017042203
0.6142655 -0.0046658046 0.017037632
0.61428833 -0.0039156643 0.017033061
0.6143111 -0.0031655275 0.01702849
0.61433393 -0.0024153872 0.017023917
0.6143567 -0.0016652468 0.017019346
0.61437953 -0.00091510272 0.017014775
0.61440229 -0.00016496425 0.017010204
0.61442512 0.00058517611 0.017005634
0.61444789 0.0013353165 0.017001063
0.61447072 0.0020854569 0.016996492
0.61449349 0.0028355953 0.016991921
0.61451632 0.0035857374 0.016987348
0.61453909 0.0043358761 0.016982777
0.61382061 0.0050517218 0.016303707
0.6138435 0.0058034542 0.016299127
0.61386633 0.006555188 0.016294546
0.61463034 0.0073364372 0.016964493
0.61465311 0.008086578 0.016959922
0.61467594 0.0088367164 0.016955351
0.61469871 0.0095868586 0.016950781
0.61472154 0.010336999 0.016946208
0.61474431 0.011087137 0.016941637
0.61476713 0.011837279 0.016937066
0.6147899 0.01258742 0.016932495
0.61481273 0.013337558 0.016927924
0.6148355 0.014087698 0.016923353
0.61559898 0.014851429 0.017593388
0.61562169 0.015599977 0.017588826
0.61564445 0.016348524 0.017584264
0.61566722 0.017097073 0.017579703
0.61568999 0.017845619 0.017575141
0.6157127 0.018594166 0.017570579
0.61573547 0.019342715 0.017566018
0.61575824 0.020091262 0.017561456
0.61578095 0.02083981 0.017556895
0.61580372 0.021588357 0.017552333
0.61582649 0.022336904 0.017547771
0.61584926 0.023085453 0.017543212
0.61587197 0.023833999 0.01753865
0.61589473 0.024582546 0.017534088
0.61517751 0.025339803 0.016854785
0.61520034 0.026089942 0.016850214
0.61522311 0.026840083 0.016845644
0.61524594 0.027590223 0.016841073
0.61526871 0.028340362 0.016836502
0.61529154 0.029090503 0.016831929
0.61531436 0.029840643 0.016827358
0.61533713 0.030590784 0.016822787
0.61535996 0.031340923 0.016818216
0.61464322 0.032114107 0.016138796
0.61466604 0.032865837 0.016134216
0.61468887 0.033617571 0.016129635
0.61471176 0.034369305 0.016125053
0.61473459 0.035121039 0.016120473
0.61475742 0.035872769 0.016115893
0.61478031 0.036624502 0.016111311
0.61480314 0.037376236 0.01610673
0.61482596 0.03812797 0.01610215
0.61484885 0.0388797 0.016097568
0.61487168 0.039631434 0.016092988
0.61489451 0.040383168 0.016088407
0.6149174 0.041134901 0.016083827
0.61494023 0.041886631 0.016079245
0.61496311 0.042638365 0.016074665
0.61498594 0.043390099 0.016070085
0.61500877 0.044141833 0.016065503
0.61503166 0.044893567 0.016060922
0.61505449 0.045645297 0.016056342
0.61507732 0.04639703 0.01605176
0.6151002 0.04714876 0.01604718
0.61512303 0.047900498 0.016042599
0.61514586 0.048652228 0.016038017
0.61516875 0.049403962 0.016033437
0.61519158 0.050155692 0.016028857
0.61521441 0.050907429 0.016024275
0.6152373 0.051659159 0.016019695
0.61452192 0.052476935 0.015340025
0.61454481 0.05323026 0.015335434
0.6145677 0.053983584 0.015330844
0.61459059 0.054736912 0.015326253
0.61461347 0.055490237 0.015321663
0.61463642 0.056243561 0.015317072
0.61465931 0.056996889 0.015312482
0.6146822 0.057750214 0.015307891
0.61470509 0.058503538 0.0153033
0.61472797 0.059256863 0.015298709
0.61475086 0.060010191 0.015294119
0.61477381 0.060763516 0.015289528
0.6147967 0.06151684 0.015284938
0.61481959 0.062270164 0.015280347
0.61410493 0.063111834 0.014600511
0.61412787 0.063866757 0.01459591
0.61415082 0.064621672 0.01459131
0.60250932 -0.017974341 0.0057232315
0.60475773 -0.016961941 0.0077448427
0.60552275 -0.016113764 0.0084156143
0.60628766 -0.015268767 0.0090863854
0.60705245 -0.014426963 0.009757177
0.6085586 -0.013515781 0.011103485
0.61006451 -0.012610973 0.012449831
0.61082894 -0.011781904 0.013120719
0.61159325 -0.010956025 0.013791607
0.6123575 -0.01013333 0.014462513
0.61312163 -0.009313819 0.01513346
0.61314452 -0.0085604908 0.01512887
0.61390853 -0.0077457605 0.015799824
0.61393136 -0.0069940262 0.015795244
0.61395419 -0.0062422925 0.015790662
0.61397707 -0.0054905587 0.015786082
0.6139999 -0.0047388282 0.015781501
0.61402273 -0.0039870944 0.015776921
0.61404562 -0.0032353639 0.015772339
0.61406845 -0.0024836299 0.015767759
0.61409128 -0.0017318996 0.015763178
0.61411417 -0.00098016183 0.015758596
0.61413699 -0.00022842972 0.015754016
0.61415982 0.00052330241 0.015749436
0.61418271 0.0012750346 0.015744854
0.61420554 0.0020267668 0.015740274
0.61422837 0.0027785008 0.015735693
0.61425126 0.0035302348 0.015731111
0.61427408 0.0042819669 0.015726531
0.61429697 0.0050336989 0.015721951
0.6143198 0.0057854312 0.015717369
0.61434263 0.006537165 0.015712788
0.61436552 0.0072888974 0.015708208
0.61438835 0.0080406293 0.015703626
0.61441118 0.0087923631 0.015699046
0.61443406 0.0095440978 0.015694465
0.61445689 0.01029583 0.015689883
0.61447972 0.011047562 0.015685303
0.61450261 0.011799295 0.015680723
0.61526525 0.012569435 0.01635197
0.61528802 0.013319573 0.016347399
0.61531085 0.014069714 0.016342828
0.61533362 0.014819855 0.016338255
0.61535645 0.015569995 0.016333684
0.61537921 0.016320135 0.016329113
0.61540204 0.017070275 0.016324542
0.61542481 0.017820416 0.016319972
0.61618704 0.01857622 0.016991286
0.61620975 0.019324768 0.016986724
0.61623251 0.020073315 0.016982162
0.61551601 0.020820975 0.016301688
0.61553884 0.021571117 0.016297115
0.61556166 0.022321256 0.016292544
0.61558443 0.023071397 0.016287973
0.61560726 0.023821536 0.016283402
0.61563003 0.024571678 0.016278831
0.61565286 0.025321817 0.01627426
0.61567563 0.026071958 0.016269689
0.6149596 0.026833953 0.015589105
0.61498243 0.027585685 0.015584525
0.61500525 0.028337417 0.015579944
0.61502814 0.029089151 0.015575362
0.61505097 0.029840885 0.015570782
0.6150738 0.030592617 0.015566201
0.61509669 0.03134435 0.01556162
0.61511952 0.032096084 0.01555704
0.61514235 0.032847814 0.015552458
0.61516523 0.033599548 0.015547877
0.61518806 0.034351282 0.015543297
0.61521089 0.035103016 0.015538716
0.61523378 0.035854746 0.015534135
0.61525661 0.036606479 0.015529554
0.61527944 0.037358213 0.015524973
0.61530232 0.038109947 0.015520392
0.61532515 0.038861677 0.015515812
0.61534798 0.039613411 0.015511231
0.61537087 0.040365145 0.015506649
0.6153937 0.041116878 0.015502069
0.61541653 0.041868608 0.015497488
0.61543941 0.042620342 0.015492907
0.61472446 0.043418966 0.01481212
0.61474735 0.044172294 0.01480753
0.61477023 0.044925619 0.014802939
0.61479318 0.045678943 0.014798349
0.61481607 0.046432272 0.014793758
0.61483896 0.047185592 0.014789168
0.61486185 0.047938921 0.014784577
0.61488473 0.048692245 0.014779987
0.61490762 0.049445573 0.014775396
0.61493057 0.050198898 0.014770806
0.61495346 0.050952222 0.014766215
0.61497635 0.05170555 0.014761625
0.61499923 0.052458871 0.014757034
0.61502212 0.053212199 0.014752443
0.61504501 0.053965524 0.014747852
0.61506796 0.054718852 0.014743262
0.61509085 0.055472177 0.014738671
0.61511374 0.056225501 0.014734081
0.61513662 0.056978829 0.014729491
0.61442262 0.057809308 0.01404849
0.61444557 0.058564227 0.014043889
0.61446851 0.059319142 0.014039289
0.61449146 0.060074061 0.014034688
0.61451441 0.06082898 0.014030089
0.61380076 0.061669014 0.01334905
0.61382371 0.062425524 0.01334444
0.61384672 0.063182034 0.01333983
0.61313325 0.064028442 0.012658752
0.61315626 0.064786546 0.012654132
0.6007551 -0.01901501 0.0030977346
0.60374141 -0.01791238 0.0057996484
0.60524619 -0.016980423 0.0071482952
0.60675073 -0.016054831 0.0084969811
0.60751456 -0.015211396 0.0091689937
0.60827833 -0.01437114 0.0098410472
0.6097824 -0.013461475 0.01118983
0.61054587 -0.012629187 0.01186191
0.61130929 -0.01180008 0.012534032
0.61207265 -0.010974162 0.01320615
0.61283582 -0.010151429 0.013878291
0.61359894 -0.0093318801 0.014550471
0.61362183 -0.0085785519 0.01454588
0.61364478 -0.0078252284 0.01454129
0.61366767 -0.0070719006 0.014536698
0.61443055 -0.0062603154 0.015208906
0.61445338 -0.0055085812 0.015204324
0.6144762 -0.0047568511 0.015199743
0.61449909 -0.0040051169 0.015195163
0.61452192 -0.0032533868 0.015190582
0.61454475 -0.0025016528 0.015186001
0.61456764 -0.0017499225 0.01518142
0.61459047 -0.00099818478 0.015176839
0.61461329 -0.0002464526 0.015172258
0.61463618 0.00050527952 0.015167678
0.61465901 0.0012570117 0.015163097
0.61394244 0.0019680036 0.014481612
0.61396533 0.0027213292 0.014477022
0.61398822 0.0034746551 0.014472431
0.61401111 0.004227981 0.01446784
0.614034 0.0049813068 0.01446325
0.61405689 0.0057346309 0.014458659
0.61407983 0.0064879581 0.014454069
0.61410272 0.0072412821 0.014449478
0.61412561 0.007994608 0.014444888
0.6141485 0.0087479334 0.014440297
0.61417139 0.0095012598 0.014435707
0.61493319 0.010277807 0.015108126
0.61495608 0.011029539 0.015103546
0.61497891 0.011781272 0.015098965
0.61500174 0.012533005 0.015094384
0.61502463 0.013284737 0.015089803
0.61504745 0.014036471 0.015085222
0.61507028 0.014788204 0.015080641
0.61583173 0.015552011 0.015753161
0.61585456 0.01630215 0.01574859
0.61587733 0.017052291 0.015744019
0.61590016 0.01780243 0.015739447
0.61592293 0.018552572 0.015734876
0.61594576 0.019302711 0.015730305
0.61596853 0.020052852 0.015725734
0.61599135 0.020802991 0.015721163
0.61601412 0.021553133 0.015716592
0.61603695 0.022303272 0.015712021
0.61532164 0.023057265 0.015030252
0.61534446 0.023808997 0.015025672
0.61536735 0.024560731 0.01502109
0.61539018 0.025312463 0.015016509
0.61541301 0.026064197 0.015011929
0.6154359 0.02681593 0.015007348
0.61545873 0.027567662 0.015002767
0.61474383 0.028334396 0.014320943
0.61476672 0.029087722 0.014316352
0.61478966 0.029841049 0.014311762
0.61481255 0.030594373 0.014307171
0.61483544 0.031347699 0.014302581
0.61485833 0.032101024 0.01429799
0.61488122 0.032854348 0.014293399
0.61490411 0.033607677 0.014288808
0.61492699 0.034361001 0.014284218
0.61494994 0.035114326 0.014279627
0.61497283 0.035867654 0.014275037
0.61499572 0.036620978 0.014270446
0.61501861 0.037374303 0.014265856
0.61504149 0.038127627 0.014261265
0.61506438 0.038880955 0.014256675
0.61508733 0.03963428 0.014252084
0.61511022 0.040387604 0.014247494
0.61513311 0.041140929 0.014242903
0.61515599 0.041894257 0.014238313
0.61517888 0.042647582 0.014233722
0.61520177 0.043400906 0.014229131
0.61522472 0.044154234 0.01422454
0.61524761 0.044907559 0.01421995
0.6152705 0.045660883 0.014215359
0.61455679 0.046467435 0.013533271
0.61457974 0.047222354 0.01352867
0.61460268 0.047977272 0.01352407
0.61462563 0.048732191 0.01351947
0.61464858 0.049487107 0.01351487
0.61467153 0.050242025 0.01351027
0.61469448 0.050996944 0.013505669
0.61471742 0.051751863 0.01350107
0.61474037 0.052506778 0.013496469
0.61476332 0.053261697 0.013491869
0.61478627 0.054016616 0.013487268
0.61480916 0.054771535 0.013482668
0.6148321 0.055526454 0.013478068
0.61485505 0.056281369 0.013473468
0.614878 0.057036288 0.013468867
0.61416513 0.057868324 0.012786644
0.61418813 0.058624834 0.012782034
0.61421108 0.059381343 0.012777423
0.61423409 0.060137853 0.012772813
0.61352146 0.06097785 0.012090542
0.61354446 0.061735954 0.012085923
0.61283195 0.062580727 0.011403602
0.61285502 0.063340425 0.011398972
0.61287808 0.064100124 0.011394342
0.61069489 0.065134168 0.0093565639
0.60198927 -0.018951531 0.0031716768
0.60497153 -0.017850343 0.0058785495
0.60647422 -0.016919898 0.0072296713
0.60797668 -0.015995828 0.0085808113
0.6087395 -0.015153944 0.0092540877
0.60950214 -0.014315244 0.0099273622
0.61026478 -0.013479727 0.010600677
0.61102724 -0.012647401 0.01127399
0.61178964 -0.011818255 0.011947344
0.61255199 -0.0109923 0.012620696
0.61331415 -0.010169528 0.013294068
0.6133371 -0.0094146105 0.013289467
0.6140992 -0.0085966131 0.013962889
0.61412209 -0.0078432895 0.013958299
0.61414498 -0.0070899618 0.013953708
0.61416787 -0.0063366378 0.013949118
0.61419076 -0.00558331 0.013944527
0.61421365 -0.004829986 0.013939937
0.61423659 -0.004076662 0.013935346
0.61425948 -0.0033233345 0.013930756
0.61428237 -0.0025700105 0.013926165
0.61430526 -0.0018166866 0.013921574
0.61432815 -0.0010633571 0.013916983
0.61435103 -0.00031003315 0.013912393
0.61437398 0.00044329264 0.013907802
0.61439687 0.0011966184 0.013903212
0.61441976 0.0019499424 0.013898621
0.61444265 0.0027032681 0.013894031
0.61446553 0.003456594 0.01388944
0.61448842 0.0042099198 0.01388485
0.61451137 0.0049632457 0.013880259
0.61453426 0.0057165697 0.013875669
0.613819 0.0064386739 0.013192862
0.61384195 0.0071935914 0.013188262
0.61460292 0.0079765469 0.013861896
0.61462581 0.0087298732 0.013857306
0.6146487 0.0094831986 0.013852715
0.61467165 0.010236524 0.013848125
0.61469454 0.010989849 0.013843535
0.61471742 0.011743176 0.013838944
0.61474031 0.0124965 0.013834354
0.61550093 0.013266714 0.014508045
0.61552376 0.014018448 0.014503465
0.61554664 0.014770181 0.014498884
0.61556947 0.015521915 0.014494303
0.6155923 0.016273646 0.014489722
0.61561519 0.017025379 0.014485141
0.61563802 0.017777111 0.014480561
0.61566085 0.018528845 0.01447598
0.61568373 0.019280577 0.014471399
0.61570656 0.020032311 0.014466818
0.61572939 0.020784045 0.014462237
0.61575228 0.021535777 0.014457656
0.61577511 0.022287508 0.014453076
0.61579794 0.023039242 0.014448495
0.61582083 0.023790974 0.014443913
0.61584365 0.024542708 0.014439333
0.61512959 0.025303034 0.013756314
0.61515248 0.026056359 0.013751724
0.61517537 0.026809685 0.013747133
0.61519825 0.027563011 0.013742542
0.61522114 0.028316336 0.013737951
0.61524409 0.029069662 0.013733361
0.61526698 0.029822987 0.01372877
0.61528987 0.030576313 0.01372418
0.61457622 0.031350974 0.013041054
0.61459917 0.032105889 0.013036453
0.61462206 0.032860808 0.013031853
0.614645 0.033615727 0.013027253
0.61466795 0.034370646 0.013022653
0.6146909 0.035125565 0.013018052
0.61471385 0.03588048 0.013013452
0.6147368 0.036635399 0.013008852
0.61475974 0.037390318 0.013004252
0.61478269 0.038145237 0.012999651
0.61480564 0.038900156 0.012995051
0.61482859 0.039655071 0.01299045
0.61485153 0.04040999 0.012985851
0.61487448 0.041164909 0.01298125
0.61489743 0.041919827 0.01297665
0.61492038 0.042674746 0.012972049
0.61494333 0.043429662 0.01296745
0.61496627 0.04418458 0.012962849
0.61498922 0.044939499 0.012958249
0.61501217 0.045694418 0.012953648
0.61429954 0.046502523 0.012270339
0.61432254 0.047259033 0.012265729
0.61434555 0.048015546 0.012261119
0.6143685 0.048772056 0.012256509
0.61439151 0.049528565 0.012251899
0.61441451 0.050285075 0.012247289
0.61443752 0.051041588 0.012242679
0.61446053 0.051798098 0.012238069
0.61448348 0.052554607 0.012233458
0.61450648 0.053311121 0.012228848
0.61452949 0.05406763 0.012224239
0.6145525 0.054824144 0.012219629
0.61457545 0.055580653 0.012215019
0.61459845 0.056337163 0.012210409
0.61462146 0.057093672 0.012205799
0.61464447 0.057850186 0.012201189
0.61393267 0.058685366 0.011517714
0.61395568 0.059443466 0.011513094
0.613244 0.060283426 0.01082957
0.61253244 0.061126571 0.010146046
0.61182094 0.061972897 0.0094624832
0.61037505 0.062909044 0.0080999872
0.60966378 0.063763343 0.0074163955
0.60248274 -0.018970205 0.0025689646
0.60546094 -0.017868862 0.0052807676
0.60770023 -0.0168593 0.0073134908
0.60920066 -0.015936745 0.0086671263
0.60922384 -0.015172273 0.0086624678
0.60998553 -0.014333534 0.0093369754
0.61074716 -0.013497979 0.010011522
0.61150861 -0.012665614 0.01068607
0.61227 -0.011836431 0.011360655
0.61303133 -0.011010437 0.012035239
0.61305434 -0.010253926 0.012030629
0.61381543 -0.0094327098 0.012705244
0.61383837 -0.0086777927 0.012700643
0.61386132 -0.0079228748 0.012696044
0.61388427 -0.0071679535 0.012691443
0.61390722 -0.006413036 0.012686843
0.61393017 -0.0056581185 0.012682242
0.61395311 -0.0049032005 0.012677643
0.61397606 -0.004148283 0.012673042
0.61399901 -0.0033933655 0.012668442
0.61402196 -0.002638448 0.012663841
0.6140449 -0.0018835304 0.012659241
0.61406785 -0.0011286072 0.012654641
0.6140908 -0.00037368957 0.012650041
0.61411375 0.00038122802 0.01264544
0.6141367 0.0011361457 0.01264084
0.61415964 0.0018910632 0.01263624
0.61418259 0.0026459808 0.01263164
0.61420554 0.0034009002 0.012627039
0.61422849 0.0041558179 0.012622439
0.61425143 0.0049107354 0.012617839
0.61427438 0.0056656529 0.012613239
0.61429733 0.0064205746 0.012608638
0.61432028 0.0071754921 0.012604038
0.61434323 0.0079304092 0.012599437
0.61436617 0.0086853271 0.012594838
0.61438912 0.009440247 0.012590237
0.61441207 0.010195164 0.012585637
0.61443502 0.010950082 0.012581036
0.61445791 0.011705001 0.012576437
0.61521763 0.012478439 0.013251361
0.61524051 0.013231765 0.013246771
0.61526346 0.01398509 0.01324218
0.61528635 0.014738416 0.01323759
0.61530924 0.015491742 0.013232999
0.61606866 0.016255623 0.013907963
0.61609149 0.017007357 0.013903382
0.61611432 0.017759088 0.013898802
0.61613721 0.018510822 0.013894221
0.61616004 0.019262554 0.01388964
0.61618286 0.020014288 0.013885059
0.61620575 0.020766022 0.013880478
0.6154924 0.021518346 0.013196275
0.61551529 0.02227167 0.013191684
0.61553824 0.023024997 0.013187094
0.61556113 0.023778321 0.013182503
0.61558402 0.024531648 0.013177913
0.6156069 0.025284972 0.013173322
0.61489391 0.026048446 0.012489031
0.61491686 0.026803365 0.012484431
0.61493981 0.027558282 0.012479831
0.61496276 0.028313201 0.012475231
0.6149857 0.029068118 0.01247063
0.61500865 0.029823037 0.01246603
0.6150316 0.030577954 0.012461429
0.61505455 0.031332873 0.01245683
0.6150775 0.032087792 0.012452229
0.61436498 0.032867189 0.011767861
0.61438799 0.033623703 0.01176325
0.614411 0.034380212 0.01175864
0.61443394 0.035136722 0.01175403
0.61445695 0.035893235 0.01174942
0.61447996 0.036649745 0.011744811
0.61450297 0.037406255 0.011740201
0.61452597 0.038162768 0.011735591
0.61454892 0.038919277 0.011730981
0.61457193 0.039675787 0.011726371
0.61459494 0.040432297 0.011721761
0.61461794 0.04118881 0.011717151
0.61464089 0.04194532 0.011712541
0.6146639 0.042701833 0.011707931
0.61468691 0.043458343 0.011703321
0.61470991 0.044214852 0.011698711
0.61473292 0.044971365 0.011694101
0.61475587 0.045727875 0.011689492
0.61477888 0.046484385 0.011684882
0.61480188 0.047240894 0.011680271
0.61482489 0.047997408 0.011675661
0.6148479 0.048753917 0.011671051
0.61413652 0.049569946 0.010986461
0.61415952 0.05032805 0.010981841
0.61418259 0.051086154 0.010977222
0.6142056 0.051844258 0.010972602
0.61422867 0.052602362 0.010967982
0.61425173 0.053360462 0.010963363
0.61427474 0.05411857 0.010958743
0.61429781 0.05487667 0.010954123
0.61432081 0.055634774 0.010949504
0.61434388 0.056392878 0.010944884
0.61436695 0.057150982 0.010940264
0.6136561 0.057986125 0.010255537
0.61294538 0.058824454 0.0095708091
0.61223477 0.059665967 0.008886043
0.61152428 0.060510661 0.0082012769
0.61081386 0.061358549 0.0075164717
0.61010355 0.062209617 0.0068316665
0.60719264 0.063323654 0.0041063633
0.60371387 -0.018906614 0.0026466039
0.60668802 -0.017806709 0.005363347
0.60892421 -0.016798627 0.007399777
0.609685 -0.015955074 0.0080755083
0.61044574 -0.015114706 0.0087512387
0.61120635 -0.014277523 0.0094270082
0.61196691 -0.013443523 0.010102778
0.61272734 -0.012612712 0.010778586
0.61275035 -0.011854607 0.010773967
0.61351067 -0.011028575 0.011449784
0.61353368 -0.010272063 0.011445174
0.61355662 -0.0095155528 0.011440565
0.61357963 -0.008759045 0.011435955
0.61360264 -0.0080025336 0.011431345
0.61362565 -0.0072460189 0.011426735
0.61438555 -0.0064311353 0.01210262
0.61440849 -0.0056762178 0.01209802
0.61443144 -0.0049212999 0.012093419
0.61445439 -0.0041663824 0.012088819
0.61447734 -0.0034114649 0.012084219
0.61450028 -0.0026565474 0.012079619
0.61452323 -0.0019016296 0.012075018
0.61380959 -0.0011939323 0.011389854
0.61383259 -0.00043742289 0.011385245
0.6138556 0.00031908837 0.011380635
0.61387855 0.0010755997 0.011376025
0.61390156 0.0018321091 0.011371415
0.61392456 0.0025886204 0.011366805
0.61394757 0.0033451316 0.011362195
0.61397052 0.0041016429 0.011357585
0.61399353 0.004858152 0.011352975
0.61401653 0.0056146635 0.011348365
0.61403954 0.0063711749 0.011343755
0.61406255 0.0071276859 0.011339145
0.6140855 0.0078841951 0.011334535
0.6141085 0.0086407065 0.011329926
0.61413151 0.009397218 0.011325316
0.61415452 0.010153729 0.011320706
0.61491334 0.010931983 0.011996814
0.61493629 0.011686902 0.011992214
0.61495924 0.01244182 0.011987614
0.61498219 0.013196738 0.011983014
0.61500514 0.013951655 0.011978413
0.61576366 0.014720355 0.012654601
0.61578655 0.015473681 0.01265001
0.61580944 0.016227005 0.01264542
0.61583233 0.016980331 0.012640828
0.61585528 0.017733656 0.012636238
0.61587816 0.018486982 0.012631647
0.61590105 0.019240307 0.012627057
0.61592394 0.019993633 0.012622466
0.61594683 0.020746959 0.012617876
0.61596972 0.021500284 0.012613285
0.61599267 0.02225361 0.012608695
0.61528045 0.023010673 0.01192321
0.6153034 0.023765592 0.01191861
0.61532634 0.024520511 0.011914009
0.61534929 0.025275428 0.011909409
0.61537224 0.026030347 0.011904809
0.61466038 0.026796967 0.011219286
0.61468339 0.027553476 0.011214676
0.61470634 0.028309988 0.011210066
0.61472934 0.029066499 0.011205456
0.61475235 0.029823009 0.011200846
0.61477536 0.03057952 0.011196236
0.61479837 0.031336032 0.011191626
0.61482131 0.032092541 0.011187016
0.61484432 0.032849055 0.011182406
0.61486733 0.033605564 0.011177796
0.61489034 0.034362074 0.011173186
0.61491328 0.035118584 0.011168576
0.61493629 0.035875097 0.011163967
0.6149593 0.036631607 0.011159357
0.61498231 0.037388116 0.011154747
0.61500531 0.038144629 0.011150137
0.61502826 0.038901139 0.011145527
0.61505127 0.039657652 0.011140916
0.61507428 0.040414162 0.011136306
0.61509728 0.041170672 0.011131696
0.61438644 0.041970737 0.01044597
0.61440945 0.042728841 0.01044135
0.61443251 0.043486945 0.01043673
0.61445552 0.044245049 0.010432111
0.61447859 0.045003153 0.010427491
0.61450166 0.045761254 0.010422871
0.61452466 0.046519358 0.010418252
0.61454773 0.047277458 0.010413632
0.61457074 0.048035566 0.010409012
0.6145938 0.048793666 0.010404393
0.61461687 0.04955177 0.010399773
0.61463988 0.050309874 0.010395153
0.61466295 0.051067978 0.010390534
0.61468595 0.051826082 0.010385914
0.61470902 0.052584186 0.010381294
0.61473209 0.053342286 0.010376675
0.61475509 0.054100394 0.010372055
0.61404508 0.054929126 0.0096861329
0.61406821 0.055688821 0.0096815042
0.61409128 0.056448519 0.0096768746
0.61338151 0.057283621 0.0089909341
0.61267179 0.058121912 0.0083049545
0.6119622 0.058963388 0.0076189754
0.61125267 0.059808049 0.0069329566
0.61054325 0.060655892 0.0062469402
0.6091013 0.061590295 0.0048795235
0.60765958 0.062531069 0.0035120677
0.60548544 0.063564762 0.0014631945
0.60494304 -0.018842945 0.0027267269
0.60791308 -0.01774448 0.0054484089
0.60940957 -0.016816994 0.0068069254
0.61090595 -0.015895879 0.0081655011
0.61092913 -0.015132996 0.0081608519
0.61168873 -0.014295775 0.0088378536
0.61244828 -0.013461737 0.0095148562
0.6132077 -0.012630887 0.010191897
0.61323071 -0.011872782 0.010187278
0.61325377 -0.011114681 0.010182658
0.61401302 -0.010290201 0.010859717
0.61403596 -0.0095336903 0.010855107
0.61405897 -0.0087771825 0.010850498
0.61408198 -0.0080206711 0.010845887
0.61410499 -0.0072641564 0.010841277
0.61412799 -0.0065076449 0.010836667
0.61415094 -0.0057511372 0.010832057
0.61417395 -0.0049946262 0.010827447
0.61419696 -0.0042381147 0.010822837
0.61421996 -0.0034816035 0.010818227
0.61424291 -0.0027250922 0.010813617
0.61426592 -0.0019685847 0.010809007
0.61428893 -0.0012120698 0.010804397
0.61431193 -0.0004555604 0.010799787
0.61433494 0.00030095087 0.010795178
0.61435789 0.0010574621 0.010790568
0.6143809 0.0018139716 0.010785958
0.6144039 0.0025704827 0.010781348
0.61442691 0.0033269941 0.010776738
0.61444992 0.0040835054 0.010772128
0.61447287 0.0048400145 0.010767518
0.61449587 0.005596526 0.010762908
0.61451888 0.0063530374 0.010758298
0.61454189 0.0071095484 0.010753687
0.61456484 0.0078660576 0.010749077
0.61458784 0.008622569 0.010744467
0.61461085 0.0093790805 0.010739858
0.61463386 0.010135592 0.010735248
0.61465687 0.010892101 0.010730638
0.61467981 0.011648614 0.010726028
0.61470282 0.012405124 0.010721418
0.61472583 0.013161635 0.010716808
0.61548346 0.013933555 0.011394189
0.61550641 0.014688475 0.011389589
0.61552936 0.015443393 0.011384988
0.61555231 0.016198311 0.011380388
0.61557525 0.01695323 0.011375788
0.6155982 0.017708147 0.011371188
0.61562115 0.018463066 0.011366587
0.61564404 0.019217983 0.011361987
0.61566699 0.019972902 0.011357387
0.61568993 0.020727819 0.011352787
0.61571288 0.021482738 0.011348186
0.61573583 0.022237657 0.011343586
0.61502475 0.022996275 0.010656878
0.61504775 0.023752786 0.010652268
0.61507076 0.024509296 0.010647658
0.61509371 0.025265807 0.010643048
0.61511672 0.026022319 0.010638438
0.61513972 0.026778828 0.010633828
0.61516273 0.02753534 0.010629219
0.61518574 0.028291851 0.010624609
0.61520869 0.029048361 0.010619999
0.61449808 0.029822906 0.0099331951
0.61452115 0.030581011 0.0099285757
0.61454415 0.031339113 0.0099239564
0.61456722 0.032097217 0.0099193361
0.61459029 0.032855321 0.0099147167
0.61461329 0.033613425 0.0099100973
0.61463636 0.034371525 0.0099054771
0.61465937 0.035129629 0.0099008577
0.61468244 0.035887733 0.0098962383
0.6147055 0.036645837 0.009891618
0.61472851 0.037403941 0.0098869987
0.61475158 0.038162045 0.0098823793
0.61477458 0.038920149 0.009877759
0.61479765 0.03967825 0.0098731397
0.61482066 0.040436354 0.0098685203
0.61484373 0.041194458 0.0098639
0.61486679 0.041952562 0.0098592807
0.6148898 0.042710666 0.0098546613
0.61491287 0.04346877 0.009850041
0.61493587 0.044226874 0.0098454216
0.61422628 0.045034863 0.0091583943
0.61424935 0.045794562 0.0091537647
0.61427248 0.046554256 0.0091491351
0.61429554 0.047313951 0.0091445064
0.61431867 0.048073649 0.0091398768
0.61434174 0.048833344 0.0091352472
0.6143648 0.049593039 0.0091306176
0.61438793 0.050352734 0.0091259889
0.614411 0.051112432 0.0091213593
0.61443412 0.051872127 0.0091167297
0.61445719 0.052631825 0.0091121001
0.61448026 0.05339152 0.0091074714
0.61450338 0.054151218 0.0091028418
0.61452645 0.054910913 0.0090982122
0.61381757 0.055742793 0.0084110582
0.61384076 0.056504082 0.0084064193
0.613132 0.057340741 0.0077192169
0.61169153 0.05825755 0.0063494416
0.61098301 0.05910217 0.0056622112
0.60954291 0.060030125 0.004292368
0.60883462 0.06088271 0.0036050894
0.60739487 0.061821815 0.0022351781
0.60595524 0.062767282 0.00086522807
0.60451585 0.063719131 -0.00050476077
0.60840052 -0.017762924 0.0048530935
0.61063057 -0.016756201 0.0068969303
0.61138934 -0.015914168 0.0075751161
0.61141253 -0.015151286 0.0075704674
0.61217111 -0.014314028 0.0082487008
0.61292964 -0.013479951 0.0089269355
0.61295271 -0.012720256 0.0089223059
0.61371106 -0.011890958 0.00960059
0.61373413 -0.011132857 0.0095959697
0.61375719 -0.010374752 0.0095913503
0.6137802 -0.0096166506 0.009586731
0.61380327 -0.0088585457 0.0095821107
0.61382627 -0.0081004445 0.0095774913
0.61384934 -0.0073423358 0.009572872
0.61387241 -0.0065842345 0.0095682517
0.61389542 -0.0058261296 0.0095636323
0.61391848 -0.0050680283 0.0095590129
0.61394149 -0.0043099234 0.0095543927
0.61396456 -0.0035518224 0.0095497733
0.61398762 -0.0027937174 0.0095451539
0.61401063 -0.0020356162 0.0095405336
0.6140337 -0.0012775094 0.0095359143
0.61405671 -0.00051940634 0.0095312949
0.61407977 0.0002386967 0.0095266746
0.61410284 0.00099679979 0.0095220553
0.61412585 0.0017549028 0.0095174359
0.61414891 0.0025130059 0.0095128156
0.61417192 0.0032711108 0.0095081963
0.61419499 0.0040292139 0.0095035769
0.61421806 0.004787317 0.0094989566
0.61424106 0.0055454201 0.0094943373
0.61426413 0.0063035251 0.0094897179
0.61428714 0.0070616277 0.0094850976
0.6143102 0.0078197308 0.0094804782
0.61433327 0.0085778339 0.0094758589
0.61435628 0.009335937 0.0094712386
0.61437935 0.01009404 0.0094666192
0.61440235 0.010852143 0.0094619999
0.61515915 0.011630476 0.010140574
0.61518216 0.012386986 0.010135964
0.61520517 0.013143498 0.010131354
0.61522818 0.013900007 0.010126743
0.61525118 0.014656519 0.010122133
0.61527413 0.015413029 0.010117523
0.61529714 0.016169539 0.010112913
0.61532015 0.01692605 0.010108303
0.61534315 0.017682562 0.010103694
0.6153661 0.018439073 0.010099084
0.61538911 0.019195583 0.010094474
0.61541212 0.019952094 0.010089864
0.61543512 0.020708604 0.010085254
0.61545813 0.021465115 0.010080644
0.61548108 0.022221627 0.010076034
0.61550409 0.022978138 0.010071424
0.61552709 0.023734648 0.010066814
0.61481714 0.024498006 0.0093788449
0.61484021 0.02525611 0.0093742255
0.61486322 0.026014213 0.0093696062
0.61488628 0.026772317 0.0093649859
0.61490929 0.027530421 0.0093603665
0.61493236 0.028288523 0.0093557471
0.61495543 0.029046627 0.0093511268
0.61497843 0.029804731 0.0093465075
0.6150015 0.030562835 0.0093418881
0.61502451 0.031320937 0.0093372678
0.61504757 0.032079041 0.0093326485
0.61507064 0.032837145 0.0093280291
0.61509365 0.033595249 0.0093234088
0.61511672 0.034353349 0.0093187895
0.61513972 0.035111453 0.0093141701
0.61516279 0.035869557 0.0093095498
0.61518586 0.036627661 0.0093049305
0.61520886 0.037385765 0.0093003111
0.61523193 0.038143869 0.0092956908
0.61525494 0.038901974 0.0092910714
0.614546 0.039698776 0.008602879
0.61456907 0.040458474 0.0085982494
0.61459219 0.041218169 0.0085936198
0.61461526 0.041977864 0.0085889902
0.61463839 0.042737562 0.0085843615
0.61466146 0.043497257 0.0085797319
0.61468458 0.044256955 0.0085751023
0.61470765 0.04501665 0.0085704727
0.61473072 0.045776345 0.008565844
0.61475384 0.04653604 0.0085612144
0.61404544 0.047350366 0.0078729354
0.61406857 0.048111655 0.0078682965
0.61409169 0.04887294 0.0078636566
0.61411482 0.049634229 0.0078590177
0.61413801 0.050395519 0.0078543788
0.61416113 0.051156808 0.0078497399
0.61418426 0.051918097 0.0078451009
0.61420739 0.052679386 0.0078404611
0.61423057 0.053440675 0.0078358222
0.6142537 0.054201964 0.0078311833
0.61354578 0.055033807 0.0071427785
0.61356896 0.055796687 0.0071381298
0.61286128 0.056633305 0.0064497148
0.61215365 0.057473116 0.0057612597
0.61071527 0.058393028 0.0043890201
0.61000788 0.059240799 0.0037005169
0.60642505 0.061969806 0.00026726309
0.60815328 -0.017862152 0.0035736999
0.61038041 -0.016853727 0.0056212251
0.61113816 -0.016010059 0.0063006533
0.61189586 -0.015169577 0.0069800825
0.61191905 -0.014406694 0.0069754333
0.61267662 -0.013570987 0.0076549104
0.61343408 -0.01273847 0.0083343852
0.61345714 -0.011978772 0.0083297556
0.61348027 -0.011219077 0.008325126
0.61350334 -0.010459382 0.0083204964
0.61426055 -0.0096348263 0.0090000443
0.61428362 -0.0088767214 0.008995425
0.61430663 -0.0081186201 0.0089908047
0.6143297 -0.0073605115 0.0089861853
0.61435276 -0.0066024102 0.0089815659
0.61437577 -0.0058443053 0.0089769457
0.61439884 -0.005086204 0.0089723263
0.61442184 -0.0043280991 0.0089677069
0.61444491 -0.0035699978 0.0089630866
0.61446798 -0.0028118929 0.0089584673
0.61449099 -0.0020537919 0.0089538479
0.61451405 -0.0012956851 0.0089492276
0.61453706 -0.00053758197 0.0089446083
0.61456013 0.00022052111 0.0089399889
0.61458319 0.0009786241 0.0089353686
0.6146062 0.0017367272 0.0089307493
0.61462927 0.0024948302 0.0089261299
0.61465228 0.0032529351 0.0089215096
0.61467534 0.0040110382 0.0089168902
0.61469841 0.0047691413 0.0089122709
0.61472142 0.0055272444 0.0089076506
0.61474448 0.0062853494 0.0089030312
0.61476749 0.0070434525 0.0088984119
0.61479056 0.0078015556 0.0088937916
0.61481357 0.0085596582 0.0088891722
0.61483663 0.0093177613 0.0088845529
0.6148597 0.010075864 0.0088799326
0.61488271 0.010833967 0.0088753132
0.61490577 0.011592072 0.0088706939
0.61492878 0.012350176 0.0088660736
0.61495185 0.013108279 0.0088614542
0.61497492 0.013866382 0.0088568348
0.61499792 0.014624487 0.0088522146
0.61502099 0.01538259 0.0088475952
0.615044 0.016140692 0.0088429758
0.61579949 0.016907914 0.0095228478
0.61582249 0.017664423 0.0095182378
0.6158455 0.018420935 0.0095136277
0.61513621 0.019173106 0.0088244965
0.61515921 0.01993121 0.0088198772
0.61518228 0.020689314 0.0088152569
0.61520535 0.021447418 0.0088106375
0.61522835 0.02220552 0.0088060182
0.61525142 0.022963624 0.0088013979
0.61527443 0.023721727 0.0087967785
0.6152975 0.024479831 0.0087921591
0.61532056 0.025237935 0.0087875389
0.61534357 0.025996037 0.0087829195
0.61463481 0.026765728 0.008093657
0.61465788 0.027525425 0.0080890274
0.61468101 0.028285122 0.0080843987
0.61470407 0.029044816 0.0080797691
0.6147272 0.029804513 0.0080751395
0.61475027 0.030564209 0.0080705099
0.61477339 0.031323906 0.0080658812
0.61479646 0.032083601 0.0080612516
0.61481953 0.032843299 0.008056622
0.61484265 0.033602994 0.0080519924
0.61486572 0.034362689 0.0080473628
0.61488885 0.035122387 0.0080427341
0.61491191 0.035882082 0.0080381045
0.61493498 0.03664178 0.0080334749
0.61495811 0.037401475 0.0080288453
0.61498117 0.03816117 0.0080242166
0.6150043 0.038920868 0.008019587
0.61502737 0.039680563 0.0080149574
0.61505044 0.040440258 0.0080103278
0.61507356 0.041199956 0.0080056991
0.61436582 0.042003091 0.0073162573
0.61438894 0.042764381 0.007311618
0.61441213 0.04352567 0.007306979
0.61443526 0.044286959 0.0073023397
0.61445838 0.045048248 0.0072977007
0.61448151 0.045809537 0.0072930618
0.61450464 0.046570823 0.0072884224
0.61452782 0.047332112 0.0072837835
0.61455095 0.048093401 0.0072791446
0.61457407 0.04885469 0.0072745052
0.6145972 0.049615979 0.0072698663
0.61462039 0.050377268 0.0072652274
0.61464351 0.051138557 0.007260588
0.61466664 0.051899847 0.0072559491
0.61395961 0.052726872 0.0065663401
0.6139828 0.053489752 0.0065616914
0.61400598 0.054252636 0.0065570422
0.61329919 0.055086032 0.0058674132
0.61259246 0.055922613 0.0051777461
0.61188585 0.056762382 0.0044880784
0.61117929 0.057605334 0.003798394
0.60974306 0.05852836 0.0024236494
0.60760087 0.060313448 0.00035908239
0.60790813 -0.017961457 0.0022918642
0.61013228 -0.016951324 0.0043430738
0.61088908 -0.016106028 0.0050237072
0.61164582 -0.015263914 0.0057043782
0.61240244 -0.014424984 0.0063850475
0.613159 -0.013589239 0.0070657572
0.61318213 -0.012827951 0.0070611183
0.61320525 -0.012066662 0.0070564793
0.61322844 -0.011305373 0.00705184
0.6139847 -0.010477596 0.0077325772
0.61400777 -0.0097179003 0.0077279476
0.6140309 -0.0089582056 0.0077233184
0.61405396 -0.0081985071 0.0077186888
0.61407709 -0.0074388087 0.0077140597
0.61410016 -0.006679114 0.0077094301
0.61412328 -0.0059194192 0.0077048009
0.61414635 -0.005159724 0.0077001713
0.61416942 -0.0044000256 0.0076955422
0.61419255 -0.0036403306 0.0076909126
0.61421561 -0.0028806359 0.0076862834
0.61423874 -0.0021209409 0.0076816538
0.61426181 -0.0013612406 0.0076770242
0.61428487 -0.00060154573 0.0076723951
0.614308 0.00015815099 0.0076677655
0.61433107 0.00091784581 0.0076631363
0.61435419 0.0016775426 0.0076585067
0.61437726 0.0024372374 0.0076538776
0.61440033 0.0031969359 0.007649248
0.61442345 0.0039566308 0.0076446189
0.61444652 0.0047163274 0.0076399893
0.61446965 0.0054760226 0.0076353601
0.61449271 0.0062357192 0.0076307305
0.61451578 0.0069954158 0.0076261014
0.61453891 0.0077551105 0.0076214718
0.61456198 0.0085148076 0.0076168426
0.6145851 0.0092745041 0.007612213
0.61460817 0.010034201 0.0076075839
0.61463124 0.010793895 0.0076029543
0.61465436 0.011553592 0.0075983251
0.61540914 0.012332 0.0082793841
0.6154322 0.013090103 0.0082747648
0.61545527 0.013848206 0.0082701454
0.61547828 0.014606311 0.0082655251
0.61550134 0.015364414 0.0082609057
0.61552435 0.016122516 0.0082562864
0.61554742 0.01688062 0.0082516661
0.61557049 0.017638724 0.0082470467
0.61559349 0.018396828 0.0082424274
0.61561656 0.01915493 0.0082378071
0.61563957 0.019913035 0.0082331877
0.61566263 0.020671139 0.0082285684
0.61495453 0.021429643 0.0075381431
0.61497766 0.022189338 0.0075335135
0.61500072 0.022949034 0.0075288843
0.61502379 0.023708731 0.0075242547
0.61504692 0.024468426 0.0075196256
0.61506999 0.025228122 0.007514996
0.61509311 0.025987819 0.0075103668
0.61511618 0.026747515 0.0075057372
0.61513925 0.027507212 0.0075011081
0.61516237 0.028266907 0.0074964785
0.61518544 0.029026603 0.0074918494
0.61520857 0.0297863 0.0074872198
0.61523163 0.030545995 0.0074825906
0.6152547 0.031305693 0.007477961
0.61527783 0.032065388 0.0074733319
0.61530089 0.032825083 0.0074687023
0.61532402 0.033584781 0.0074640731
0.61534709 0.034344476 0.0074594435
0.61463994 0.035133239 0.0067688557
0.61466306 0.035894528 0.0067642168
0.61468619 0.036655817 0.0067595779
0.61470938 0.037417106 0.0067549385
0.6147325 0.038178395 0.0067502996
0.61475563 0.038939685 0.0067456607
0.61477876 0.039700974 0.0067410213
0.61480194 0.040462263 0.0067363824
0.61482507 0.041223552 0.0067317435
0.6148482 0.041984838 0.0067271041
0.61487132 0.04274613 0.0067224652
0.61489445 0.043507416 0.0067178258
0.61491764 0.044268705 0.0067131869
0.61421114 0.045079768 0.0060224417
0.61423433 0.045842648 0.006017793
0.61425751 0.046605531 0.0060131438
0.6142807 0.047368411 0.0060084951
0.61430389 0.048131295 0.0060038464
0.61432707 0.048894174 0.0059991977
0.61435026 0.049657058 0.005994549
0.61437345 0.050419938 0.0059898999
0.61439663 0.051182821 0.0059852512
0.61441982 0.051945701 0.0059806025
0.614443 0.052708581 0.0059759538
0.61373711 0.053538755 0.0052851136
0.61376035 0.054303229 0.0052804551
0.61305457 0.055138182 0.0045895642
0.61234891 0.055976316 0.0038986728
0.61091447 0.0568913 0.002521513
0.61020905 0.057737403 0.0018305761
0.6087749 0.058663536 0.00045334548
0.607665 -0.018060841 0.00100754
0.60988611 -0.017048998 0.0030624589
0.61064202 -0.01620207 0.0037443126
0.61139774 -0.015358328 0.0044261888
0.61215347 -0.014517767 0.0051081004
0.61290902 -0.013680393 0.005790012
0.61293221 -0.01291751 0.0057853633
0.61295539 -0.012154629 0.0057807146
0.61297858 -0.01139175 0.0057760659
0.61373395 -0.010562337 0.0064580482
0.61375707 -0.0098010488 0.0064534089
0.6137802 -0.0090397596 0.0064487699
0.61380333 -0.0082784714 0.0064441306
0.61382651 -0.007517179 0.0064394916
0.61384964 -0.0067558945 0.0064348527
0.61387277 -0.0059946058 0.0064302133
0.61462772 -0.0051779379 0.0071122516
0.61465079 -0.0044182395 0.0071076225
0.61467391 -0.0036585445 0.0071029929
0.61469698 -0.0028988498 0.0070983637
0.61472005 -0.0021391548 0.0070937341
0.61474317 -0.0013794544 0.007089105
0.61476624 -0.00061975955 0.0070844754
0.61478937 0.00013993718 0.0070798462
0.61481243 0.00089963205 0.0070752166
0.61483556 0.0016593287 0.007070587
0.61485863 0.0024190235 0.0070659579
0.61488169 0.0031787222 0.0070613283
0.61490482 0.003938417 0.0070566991
0.61419672 0.0046634371 0.0063652662
0.61421984 0.0054247254 0.0063606272
0.61424303 0.0061860159 0.0063559883
0.61426616 0.0069473046 0.0063513489
0.61428928 0.0077085928 0.00634671
0.61431241 0.0084698815 0.0063420711
0.61506647 0.0092562903 0.0070242933
0.61508954 0.010015987 0.0070196642
0.6151126 0.010775682 0.0070150346
0.61513573 0.011535378 0.0070104054
0.6151588 0.012295076 0.0070057758
0.61518192 0.01305477 0.0070011467
0.61520499 0.013814467 0.0069965171
0.61522806 0.014574164 0.0069918879
0.61525118 0.015333859 0.0069872583
0.61527425 0.016093556 0.0069826292
0.61529738 0.016853252 0.0069779996
0.61532044 0.017612947 0.0069733704
0.61534351 0.018372644 0.0069687408
0.61536664 0.019132338 0.0069641117
0.6153897 0.019892035 0.0069594821
0.61541283 0.020651732 0.006954853
0.6154359 0.021411428 0.0069502234
0.61545897 0.022171125 0.0069455942
0.61548209 0.022930821 0.0069409646
0.61550516 0.023690516 0.006936335
0.61479837 0.024456946 0.0062446501
0.61482149 0.025218233 0.0062400112
0.61484462 0.025979523 0.0062353718
0.61486775 0.026740812 0.0062307329
0.61489093 0.027502101 0.006226094
0.61491406 0.02826339 0.0062214546
0.61493719 0.029024677 0.0062168157
0.61496031 0.029785967 0.0062121763
0.6149835 0.030547256 0.0062075374
0.61500663 0.031308543 0.0062028985
0.61502975 0.032069832 0.0061982591
0.61505288 0.032831121 0.0061936202
0.61507601 0.03359241 0.0061889812
0.61509919 0.0343537 0.0061843419
0.61512232 0.035114989 0.0061797029
0.61514544 0.035876278 0.006175064
0.61516857 0.036637567 0.0061704246
0.61519176 0.037398852 0.0061657857
0.61521488 0.038160145 0.0061611468
0.61450899 0.038958427 0.0054692454
0.61453217 0.039721306 0.0054645967
0.61455536 0.04048419 0.005459948
0.61457855 0.04124707 0.0054552993
0.61460173 0.042009953 0.0054506506
0.61462492 0.042772833 0.0054460014
0.6146481 0.043535713 0.0054413527
0.61467129 0.044298597 0.005436704
0.61469448 0.04506148 0.0054320553
0.61471766 0.04582436 0.0054274066
0.61474085 0.04658724 0.0054227575
0.61476403 0.04735012 0.0054181088
0.61405885 0.04816911 0.0047261035
0.6140821 0.048933581 0.004721445
0.61410528 0.049698055 0.0047167866
0.61412853 0.050462529 0.0047121281
0.61415178 0.051227007 0.0047074696
0.61417502 0.051991478 0.0047028111
0.61419827 0.052755952 0.0046981527
0.61349338 0.053587679 0.0040060505
0.61278868 0.054422595 0.0033139454
0.61208403 0.055260692 0.0026218235
0.61137944 0.056101974 0.0019296634
0.61067498 0.056946445 0.0012375027
0.6092428 0.057869319 -0.00014217226
0.60742384 -0.018160298 -0.00027922899
0.6089105 -0.017226061 0.0010915963
0.61039692 -0.016298192 0.0024624574
0.61115175 -0.015452815 0.0031455543
0.61190647 -0.01461063 0.0038286676
0.61266106 -0.01377162 0.0045118248
0.61268431 -0.013007144 0.0045071663
0.61270756 -0.012242672 0.0045025079
0.61346197 -0.01141004 0.0051856823
0.61348516 -0.010647158 0.0051810336
0.61350834 -0.0098842755 0.0051763849
0.61353153 -0.0091213975 0.0051717358
0.61355472 -0.0083585149 0.0051670871
0.61430883 -0.0075354311 0.0058503388
0.61433202 -0.0067741466 0.0058456995
0.61435515 -0.0060128579 0.0058410605
0.61437827 -0.0052515692 0.0058364216
0.6144014 -0.004490281 0.0058317822
0.61442459 -0.0037289923 0.0058271433
0.61444771 -0.0029677039 0.0058225044
0.61447084 -0.0022064154 0.005817865
0.61449397 -0.0014451231 0.0058132261
0.61451709 -0.0006838346 0.0058085867
0.61454028 7.74539e-05 0.0058039478
0.61456341 0.00083874242 0.0057993089
0.61458653 0.0016000309 0.0057946695
0.61460966 0.0023613195 0.0057900306
0.61463284 0.0031226079 0.0057853917
0.61465597 0.0038838964 0.0057807523
0.6146791 0.0046451851 0.0057761134
0.61470222 0.0054064733 0.0057714744
0.61472535 0.0061677638 0.0057668351
0.61474854 0.0069290525 0.0057621961
0.61477166 0.0076903407 0.0057575572
0.61479479 0.0084516294 0.0057529178
0.61481792 0.0092129176 0.0057482789
0.61484104 0.0099742068 0.0057436395
0.61486423 0.010735495 0.0057390006
0.61488736 0.011496785 0.0057343617
0.61491048 0.012258074 0.0057297223
0.61493361 0.013019362 0.0057250834
0.6149568 0.013780651 0.0057204445
0.61497992 0.01454194 0.0057158051
0.61500305 0.015303229 0.0057111662
0.61502618 0.016064517 0.0057065273
0.6150493 0.016825806 0.0057018879
0.61507249 0.017587094 0.005697249
0.61509562 0.018348385 0.0056926096
0.61511874 0.019109672 0.0056879707
0.61514187 0.019870961 0.0056833318
0.61516505 0.02063225 0.0056786924
0.61518818 0.021393539 0.0056740534
0.61521131 0.022154827 0.0056694145
0.61523443 0.022916116 0.0056647751
0.61525756 0.023677405 0.0056601362
0.61528075 0.024438694 0.0056554973
0.61530387 0.025199981 0.0056508579
0.615327 0.025961271 0.005646219
0.61535013 0.02672256 0.0056415801
0.61537331 0.027483849 0.0056369407
0.61539644 0.028245138 0.0056323018
0.61541957 0.029006425 0.0056276624
0.61471415 0.029785559 0.0049346476
0.61473733 0.03054844 0.0049299989
0.61476052 0.031311322 0.0049253502
0.6147837 0.032074202 0.0049207015
0.61480689 0.032837085 0.0049160523
0.61483008 0.033599965 0.0049114036
0.61485326 0.034362849 0.0049067549
0.61487645 0.035125729 0.0049021062
0.61489964 0.035888609 0.0048974575
0.61492282 0.036651492 0.0048928084
0.61494601 0.037414372 0.0048881597
0.61496919 0.038177256 0.004883511
0.61499238 0.038940135 0.0048788623
0.61501557 0.039703019 0.0048742136
0.61503875 0.040465899 0.0048695644
0.61506194 0.041228779 0.0048649157
0.61435735 0.042034987 0.0041717547
0.6143806 0.042799462 0.0041670962
0.61440378 0.043563936 0.0041624377
0.61442703 0.04432841 0.0041577793
0.61445028 0.045092884 0.0041531208
0.61447352 0.045857359 0.0041484623
0.61449677 0.046621833 0.0041438038
0.61452001 0.047386304 0.0041391454
0.6145432 0.048150782 0.0041344869
0.61456645 0.048915252 0.0041298284
0.61458969 0.049679726 0.0041251699
0.61388564 0.050505046 0.0034318706
0.61390895 0.051271114 0.0034272023
0.61393225 0.052037183 0.0034225341
0.61322838 0.052868869 0.0027292205
0.61325175 0.053636529 0.0027245427
0.61254805 0.054472998 0.0020311973
0.61184442 0.055312652 0.0013378107
0.61041403 0.056227483 -4.4279495e-05
0.6086694 -0.017323928 -0.00019520418
0.6094234 -0.016472142 0.00048910885
0.61017728 -0.015623543 0.0011734166
0.6109311 -0.014778129 0.0018577656
0.6116848 -0.013935901 0.002542115
0.61243844 -0.013096861 0.0032264811
0.61246169 -0.012330791 0.0032218129
0.61321515 -0.011496528 0.0039062297
0.61323839 -0.010732052 0.0039015713
0.61326164 -0.0099675804 0.0038969128
0.61401492 -0.0091396878 0.0045813499
0.61403811 -0.0083768051 0.0045767007
0.6140613 -0.0076139197 0.004572052
0.61408448 -0.0068510412 0.0045674033
0.61410767 -0.006088159 0.0045627546
0.61413085 -0.0053252769 0.0045581055
0.61415404 -0.0045623984 0.0045534568
0.61417723 -0.003799516 0.0045488081
0.61420041 -0.0030366338 0.0045441594
0.6142236 -0.0022737554 0.0045395107
0.61424679 -0.0015108696 0.0045348615
0.61426997 -0.00074798922 0.0045302128
0.61429316 1.4892922e-05 0.0045255641
0.61431634 0.00077777321 0.0045209154
0.61433953 0.0015406554 0.0045162668
0.61436272 0.0023035358 0.0045116176
0.6143859 0.003066418 0.0045069689
0.61440909 0.0038292999 0.0045023202
0.61443228 0.0045921803 0.0044976715
0.61445546 0.0053550606 0.0044930228
0.61447865 0.0061179446 0.0044883736
0.61450183 0.0068808249 0.0044837249
0.61452502 0.0076437052 0.0044790762
0.61454821 0.0084065879 0.0044744276
0.61457139 0.0091694696 0.0044697789
