# .PCD v0.7 - Point Cloud Data file format
VERSION 0.7
FIELDS x y z
SIZE 4 4 4
TYPE F F F
COUNT 1 1 1
WIDTH 1402
HEIGHT 1
VIEWPOINT 0 0 0 1 0 0 0
POINTS 1402
DATA ascii
0.61110121 0.087202542 0.042681098
0.61112344 0.08793357 0.042676643
0.61114568 0.088664599 0.042672187
0.61116791 0.089395627 0.042667732
0.61119014 0.090126656 0.04266328
0.61121231 0.090857685 0.042658824
0.61123455 0.091588713 0.042654369
0.61125678 0.092319742 0.042649914
0.61127901 0.093050763 0.042645458
0.61130124 0.093781799 0.042641006
0.61132342 0.094512828 0.042636551
0.61134565 0.095243849 0.042632096
0.61136788 0.095974885 0.04262764
0.61139011 0.096705906 0.042623185
0.61141229 0.097436942 0.042618733
0.61143452 0.098167963 0.042614277
0.61145675 0.098898999 0.042609822
0.61147898 0.099630021 0.042605367
0.61150122 0.10036106 0.042600915
0.61152339 0.10109208 0.042596459
0.61154562 0.10182311 0.042592004
0.61156785 0.10255414 0.042587548
0.61159009 0.10328516 0.042583093
0.61161232 0.10401619 0.042578641
0.61163449 0.10474722 0.042574186
0.61165673 0.10547826 0.04256973
0.61167896 0.10620927 0.042565275
0.61170119 0.10694031 0.04256082
0.61172336 0.10767134 0.042556368
0.6117456 0.10840236 0.042551912
0.61176783 0.10913339 0.042547457
0.61179006 0.10986442 0.042543001
0.61181229 0.11059545 0.042538546
0.61183447 0.11132648 0.042534094
0.6118567 0.1120575 0.042529639
0.61187893 0.11278854 0.042525183
0.61190116 0.11351956 0.042520728
0.6119234 0.11425059 0.042516273
0.61194557 0.11498162 0.042511821
0.6119678 0.11571265 0.042507365
0.61199003 0.11644368 0.04250291
0.61124605 0.11738371 0.041861944
0.61126834 0.11811634 0.041857477
0.61129057 0.11884895 0.041853014
0.61131287 0.11958157 0.041848548
0.6113351 0.1203142 0.041844085
0.61135739 0.12104682 0.041839622
0.61137968 0.12177943 0.041835155
0.61140192 0.12251206 0.041830692
0.61142421 0.12324468 0.041826226
0.61144644 0.1239773 0.041821763
0.61146873 0.12470992 0.0418173
0.61149102 0.12544255 0.041812833
0.61074764 0.1264033 0.041171722
0.61076993 0.1271375 0.041167248
0.61079228 0.12787172 0.041162774
0.61081457 0.12860593 0.0411583
0.61007148 0.12957464 0.040517155
0.61009383 0.13031045 0.040512674
0.61011618 0.13104625 0.040508188
0.60106552 0.071762927 0.033935089
0.60108835 0.072514661 0.03393051
0.60187942 0.073156156 0.034563091
0.60267037 0.073794484 0.035195675
0.60346127 0.074429609 0.035828296
0.60425198 0.07506156 0.036460914
0.60504264 0.075690322 0.037093576
0.60583323 0.076315902 0.037726235
0.60662365 0.076938294 0.038358916
0.60664618 0.077678882 0.038354401
0.60820431 0.078173526 0.039624348
0.60822672 0.078910924 0.039619856
0.6090169 0.079522163 0.040252622
0.60903925 0.080257975 0.040248141
0.60982919 0.080864444 0.040880915
0.60985154 0.081598654 0.040876441
0.60987383 0.082332872 0.040871967
0.60989618 0.083067082 0.040867493
0.61068594 0.08366558 0.041500337
0.61070818 0.084398203 0.041495871
0.61073047 0.085130826 0.041491408
0.6107527 0.085863449 0.041486945
0.61077499 0.086596064 0.041482478
0.61079729 0.087328687 0.041478015
0.61081952 0.088061303 0.041473549
0.61084181 0.088793933 0.041469086
0.6116311 0.089378104 0.042101998
0.61165333 0.090109132 0.042097542
0.61167556 0.090840161 0.042093091
0.61169773 0.091571182 0.042088635
0.61171997 0.092302218 0.04208418
0.6117422 0.093033239 0.042079724
0.61176443 0.093764268 0.042075269
0.6117866 0.094495296 0.042070817
0.61180884 0.095226325 0.042066362
0.61183107 0.095957361 0.042061906
0.6118533 0.096688382 0.042057451
0.61187553 0.097419418 0.042052995
0.61189771 0.09815044 0.042048544
0.61191994 0.098881468 0.042044088
0.61194217 0.099612489 0.042039633
0.6119644 0.10034353 0.042035177
0.61198664 0.10107455 0.042030722
0.61200881 0.10180558 0.04202627
0.61203104 0.10253661 0.042021815
0.61205328 0.10326764 0.042017359
0.61207551 0.10399866 0.042012904
0.61209774 0.10472969 0.042008448
0.61211991 0.10546073 0.042003997
0.61214215 0.10619175 0.041999541
0.61216438 0.10692278 0.041995086
0.61218661 0.10765381 0.04199063
0.61220878 0.10838484 0.041986175
0.61146533 0.10930732 0.041344084
0.61148757 0.11003993 0.041339617
0.61150986 0.11077256 0.041335154
0.61153209 0.11150517 0.041330691
0.61155438 0.1122378 0.041326225
0.61157668 0.11297043 0.041321762
0.61159891 0.11370304 0.041317295
0.6116212 0.11443567 0.041312832
0.61164343 0.11516828 0.041308369
0.61166573 0.11590091 0.041303903
0.61168802 0.11663353 0.04129944
0.61171025 0.11736614 0.041294973
0.61173254 0.11809877 0.04129051
0.61175478 0.11883139 0.041286048
0.61177707 0.11956401 0.041281581
0.61179936 0.12029663 0.041277118
0.61182159 0.12102925 0.041272651
0.61184388 0.12176187 0.041268189
0.61186612 0.1224945 0.041263726
0.61188841 0.12322711 0.041259259
0.61114591 0.12418305 0.040616944
0.61116821 0.12491726 0.04061247
0.61119056 0.12565146 0.040607996
0.61121285 0.12638569 0.040603522
0.61123514 0.1271199 0.040599048
0.61125749 0.12785411 0.040594574
0.61051536 0.12882119 0.039952207
0.61053771 0.129557 0.039947726
0.61056006 0.1302928 0.039943241
0.61058241 0.13102861 0.039938755
0.60907626 0.13224289 0.038658395
0.60151899 0.07099317 0.033357915
0.60230911 0.071637899 0.033991709
0.60233194 0.072388031 0.033987138
0.60235476 0.073138177 0.033982567
0.60314465 0.073776536 0.034616381
0.60316741 0.074525081 0.034611821
0.60472429 0.075043693 0.035884086
0.60551393 0.075672492 0.036517981
0.60553652 0.076416261 0.036513448
0.60632604 0.077040285 0.037147351
0.60711545 0.077661127 0.037781272
0.60713792 0.078401707 0.037776757
0.6079272 0.079017766 0.038410727
0.60871637 0.079630643 0.039044697
0.60950547 0.080240332 0.039678708
0.60952783 0.080976136 0.039674222
0.60955018 0.081711948 0.039669737
0.61033905 0.082315266 0.040303767
0.6103614 0.083049484 0.040299293
0.61038369 0.083783694 0.040294819
0.61040604 0.084517904 0.040290345
0.61042833 0.085252121 0.04028587
0.61045063 0.085986331 0.040281396
0.61123919 0.086578503 0.040915512
0.61126149 0.087311126 0.040911049
0.61128372 0.088043742 0.040906582
0.61130601 0.088776365 0.040902119
0.61132824 0.089508988 0.040897653
0.61135054 0.090241604 0.04089319
0.61137283 0.090974227 0.040888727
0.61139506 0.09170685 0.04088426
0.61141735 0.092439473 0.040879797
0.61143959 0.093172088 0.040875331
0.61146188 0.093904711 0.040870868
0.61148417 0.094637327 0.040866405
0.6115064 0.09536995 0.040861938
0.61152869 0.09610258 0.040857475
0.61155093 0.096835189 0.040853009
0.61157322 0.097567819 0.040848546
0.61159551 0.098300435 0.040844083
0.61161774 0.099033058 0.040839616
0.61164004 0.099765681 0.040835153
0.61166227 0.1004983 0.040830687
0.61168456 0.10123093 0.040826224
0.61170685 0.10196354 0.040821761
0.61172909 0.10269617 0.040817294
0.61175138 0.10342878 0.040812831
0.61177361 0.1041614 0.040808365
0.6117959 0.10489403 0.040803902
0.61181819 0.10562665 0.040799439
0.61184043 0.10635926 0.040794972
0.61186272 0.10709189 0.040790509
0.61188495 0.10782451 0.040786043
0.61190724 0.10855713 0.04078158
0.61192954 0.10928975 0.040777117
0.61195177 0.11002237 0.04077265
0.61197406 0.110755 0.040768187
0.61199629 0.11148761 0.040763721
0.61201859 0.11222024 0.040759258
0.61204088 0.11295286 0.040754795
0.61206311 0.11368547 0.040750328
0.6120854 0.1144181 0.040745866
0.61210763 0.11515072 0.040741399
0.61136562 0.1160891 0.040097959
0.61138797 0.1168233 0.040093485
0.61141026 0.11755752 0.040089011
0.61143261 0.11829174 0.040084537
0.6114549 0.11902595 0.040080063
0.6114772 0.11976016 0.040075589
0.61149955 0.12049437 0.040071115
0.61152184 0.12122859 0.040066641
0.61154419 0.1219628 0.040062167
0.61156648 0.12269702 0.040057693
0.61158878 0.12343122 0.040053219
0.61161113 0.12416545 0.040048745
0.61163342 0.12489966 0.04004427
0.61165577 0.12563387 0.040039796
0.61167806 0.12636809 0.040035322
0.61093682 0.12733193 0.039391741
0.61095917 0.12806775 0.03938726
0.61098158 0.12880355 0.039382774
0.61100394 0.12953936 0.039378293
0.61026293 0.13051118 0.038734645
0.61028534 0.13124858 0.038730152
0.60954446 0.13222517 0.038086496
0.60197246 0.070223413 0.032780737
0.60276163 0.070869774 0.033415753
0.60278445 0.071619913 0.033411182
0.60280722 0.072370052 0.033406612
0.60359621 0.073010042 0.034041651
0.60361898 0.073758587 0.034037087
0.60440785 0.074393794 0.034672175
0.6044305 0.075140752 0.034667622
0.60521919 0.075771183 0.035302717
0.60600781 0.076398432 0.035937853
0.60679632 0.077022493 0.036572985
0.60681885 0.077764668 0.036568463
0.60760719 0.078383952 0.037203629
0.60839546 0.079000048 0.037838832
0.60841793 0.079739042 0.037834328
0.60920602 0.080350362 0.038469538
0.60922843 0.081087761 0.038465045
0.61001641 0.081694305 0.039100304
0.61003882 0.082430109 0.039095823
0.61006117 0.083165914 0.039091337
0.61008352 0.083901718 0.039086856
0.61087126 0.084500305 0.039722145
0.61089355 0.085234515 0.039717671
0.61091584 0.085968733 0.039713196
0.61093819 0.086702943 0.039708722
0.61096048 0.08743716 0.039704248
0.61098284 0.08817137 0.039699774
0.61100513 0.088905588 0.0396953
0.61102742 0.089639798 0.039690826
0.61104977 0.090374015 0.039686352
0.61107206 0.091108233 0.039681878
0.61109442 0.091842435 0.039677404
0.61111671 0.09257666 0.03967293
0.61113906 0.09331087 0.039668456
0.61116135 0.09404508 0.039663982
0.61118364 0.09477929 0.039659508
0.6119706 0.095352381 0.040294971
0.6119929 0.096085012 0.040290508
0.61201519 0.096817628 0.040286042
0.61203742 0.097550258 0.040281579
0.61205971 0.098282874 0.040277112
0.61208194 0.099015489 0.040272649
0.61210424 0.099748112 0.040268186
0.61212653 0.10048074 0.04026372
0.61214876 0.10121337 0.040259257
0.61217105 0.10194597 0.04025479
0.61219329 0.1026786 0.040250327
0.61221558 0.10341122 0.040245865
0.61223787 0.10414384 0.040241398
0.6122601 0.10487646 0.040236935
0.6122824 0.10560908 0.040232468
0.61154073 0.10652671 0.039587922
0.61156303 0.10726093 0.039583448
0.61158538 0.10799515 0.039578974
0.61160767 0.10872936 0.0395745
0.61163002 0.10946357 0.039570026
0.61165231 0.11019778 0.039565552
0.61167461 0.110932 0.039561078
0.61169696 0.1116662 0.039556604
0.61171925 0.11240042 0.03955213
0.6117416 0.11313464 0.039547656
0.61176389 0.11386885 0.039543182
0.61178619 0.11460306 0.039538708
0.61180854 0.11533727 0.039534234
0.61183083 0.11607149 0.039529759
0.61185318 0.1168057 0.039525285
0.61187547 0.11753991 0.039520811
0.61189783 0.11827414 0.039516337
0.61192012 0.11900835 0.039511863
0.61194241 0.11974256 0.039507389
0.61196476 0.12047677 0.039502915
0.61198705 0.12121099 0.039498441
0.61200941 0.12194519 0.039493967
0.6120317 0.12267941 0.039489493
0.61129123 0.12363526 0.038844731
0.61131358 0.12437107 0.038840245
0.61133599 0.12510689 0.03883576
0.61135834 0.12584268 0.038831279
0.6113807 0.12657849 0.038826793
0.61140305 0.12731428 0.038822312
0.6114254 0.1280501 0.038817827
0.61144781 0.12878591 0.038813341
0.61070776 0.12975609 0.038168475
0.61073017 0.13049349 0.038163982
0.60999024 0.13146845 0.037519101
0.60925043 0.13244662 0.036874186
0.60851073 0.13342793 0.036229268
0.60323697 0.070851788 0.03283523
0.60402501 0.071494997 0.03347148
0.60404778 0.072243549 0.033466917
0.60407048 0.072992094 0.033462357
0.60409325 0.073740639 0.033457797
0.60488111 0.074375883 0.034094114
0.60490382 0.075122841 0.034089562
0.60569149 0.075753316 0.03472589
0.60647911 0.076380596 0.035362259
0.6065017 0.077124365 0.035357725
0.60728914 0.077746876 0.035994101
0.60807645 0.078366198 0.036630496
0.60809898 0.079106785 0.036625985
0.60888618 0.079721324 0.037262429
0.60967326 0.080332689 0.037898876
0.60969567 0.08107008 0.037894379
0.60971808 0.081807479 0.037889887
0.6097405 0.082544878 0.037885394
0.6105274 0.083148278 0.038521904
0.61054975 0.083884083 0.038517423
0.6105721 0.084619887 0.038512938
0.61059445 0.085355692 0.038508456
0.61061686 0.086091496 0.038503971
0.61063921 0.086827308 0.038499486
0.61066157 0.087563112 0.038495004
0.61068392 0.088298917 0.038490519
0.61147034 0.088887982 0.0391271
0.61149269 0.0896222 0.039122626
0.61151499 0.09035641 0.039118152
0.61153728 0.091090627 0.039113678
0.61155963 0.091824837 0.039109204
0.61158192 0.092559054 0.03910473
0.61160427 0.093293265 0.039100256
0.61162657 0.094027482 0.039095782
0.61164886 0.094761685 0.039091308
0.61167121 0.095495902 0.039086834
0.6116935 0.096230127 0.03908236
0.61171585 0.096964329 0.039077885
0.61173815 0.097698547 0.039073411
0.61176044 0.098432757 0.039068937
0.61178279 0.099166974 0.039064463
0.61180508 0.099901184 0.039059989
0.61182743 0.1006354 0.039055515
0.61184973 0.10136961 0.039051041
0.61187208 0.10210383 0.039046567
0.61189437 0.10283805 0.039042093
0.61191666 0.10357225 0.039037619
0.61193901 0.10430647 0.039033145
0.61196131 0.10504068 0.039028671
0.61198366 0.10577489 0.039024197
0.61200595 0.1065091 0.039019722
0.61202824 0.10724333 0.039015248
0.61205059 0.10797754 0.039010774
0.61207289 0.10871175 0.0390063
0.61209524 0.10944597 0.039001826
0.61211753 0.11018018 0.038997352
0.61213982 0.11091439 0.038992878
0.61216217 0.1116486 0.038988404
0.61218446 0.11238281 0.03898393
0.61144435 0.11331633 0.038338069
0.61146671 0.11405214 0.038333587
0.61148906 0.11478795 0.038329102
0.61151147 0.11552375 0.038324621
0.61153382 0.11625956 0.038320135
0.61155617 0.11699536 0.03831565
0.61157852 0.11773118 0.038311169
0.61160088 0.11846698 0.038306683
0.61162329 0.11920279 0.038302198
0.61164564 0.11993859 0.038297717
0.61166799 0.12067439 0.038293231
0.61169034 0.12141021 0.03828875
0.61171275 0.122146 0.038284265
0.61173511 0.12288181 0.038279779
0.61175746 0.12361762 0.038275298
0.61177981 0.12435343 0.038270812
0.61180216 0.12508924 0.038266331
0.61182457 0.12582503 0.038261846
0.6110853 0.12678882 0.037615784
0.61110771 0.12752622 0.037611291
0.61113012 0.12826362 0.037606794
0.61115253 0.12900102 0.037602302
0.611175 0.12973842 0.037597809
0.61043602 0.13071175 0.03695171
0.61045849 0.13145073 0.036947206
0.60971969 0.13242885 0.036301054
0.6082198 0.13365085 0.035013266
0.6074813 0.13463694 0.03436707
0.60598171 0.13587008 0.033079196
0.60372132 0.1373551 0.031149616
0.6022222 0.13860258 0.029861655
0.60072327 0.13985646 0.028573655
0.60447657 0.070728503 0.03289675
0.60449928 0.071477048 0.032892186
0.60452205 0.0722256 0.032887626
0.60454482 0.072974145 0.032883063
0.60456759 0.073722698 0.032878503
0.60535437 0.074357979 0.033516053
0.60614109 0.074990079 0.034153603
0.60616374 0.075735442 0.034149062
0.60695034 0.076362766 0.03478666
0.60697293 0.077106535 0.03478213
0.60775936 0.077729084 0.03541974
0.60778195 0.078471258 0.035415217
0.60856819 0.079089031 0.036052853
0.60935444 0.079703607 0.036690533
0.60937691 0.0804426 0.036686029
0.60939932 0.081181593 0.036681525
0.61018533 0.081789806 0.037319221
0.61020774 0.082527205 0.037314728
0.61023015 0.083264597 0.037310235
0.61025256 0.084001996 0.037305743
0.61103833 0.084602244 0.037943505
0.61106068 0.085338049 0.037939023
0.61108309 0.086073861 0.037934538
0.61110544 0.086809665 0.037930053
0.61112779 0.087545477 0.037925571
0.61115015 0.088281274 0.037921086
0.6111725 0.089017086 0.037916604
0.61119491 0.08975289 0.037912119
0.61121726 0.090488695 0.037907634
0.61123961 0.091224506 0.037903152
0.61126196 0.091960303 0.037898667
0.61128438 0.092696115 0.037894186
0.61130673 0.09343192 0.0378897
0.61132908 0.094167724 0.037885215
0.61135143 0.094903536 0.037880734
0.61137378 0.095639341 0.037876248
0.61139619 0.096375152 0.037871767
0.61141855 0.097110949 0.037867282
0.6114409 0.097846761 0.037862796
0.61146325 0.098582558 0.037858315
0.61148566 0.09931837 0.03785383
0.61150801 0.10005418 0.037849344
0.61153036 0.10078999 0.037844863
0.61155272 0.1015258 0.037840378
0.61157513 0.1022616 0.037835896
0.61159748 0.10299741 0.037831411
0.61161983 0.1037332 0.037826926
0.61164218 0.10446902 0.037822444
0.61166453 0.10520482 0.037817959
0.61168694 0.10594063 0.037813477
0.6117093 0.10667644 0.037808992
0.61173165 0.10741224 0.037804507
0.611754 0.10814805 0.037800025
0.61177641 0.10888385 0.03779554
0.61179876 0.10961966 0.037791058
0.61182112 0.11035546 0.037786573
0.61184347 0.11109127 0.037782088
0.61186582 0.11182708 0.037777606
0.61188823 0.11256289 0.037773121
0.61191058 0.1132987 0.037768636
0.61193293 0.1140345 0.037764154
0.61195529 0.11477031 0.037759669
0.6119777 0.11550611 0.037755188
0.61200005 0.11624192 0.037750702
0.6120224 0.11697771 0.037746217
0.61204475 0.11771353 0.037741736
0.6120671 0.11844935 0.03773725
0.61208951 0.11918514 0.037732769
0.61211187 0.11992095 0.037728284
0.61213422 0.12065675 0.037723798
0.61215657 0.12139256 0.037719317
0.61217898 0.12212836 0.037714832
0.61144048 0.12308415 0.037067585
0.61146289 0.12382154 0.037063092
0.6114853 0.12455895 0.037058599
0.61150771 0.12529635 0.037054107
0.61153013 0.12603374 0.03704961
0.61155254 0.12677115 0.037045117
0.61157495 0.12750854 0.037040625
0.61159736 0.12824595 0.037036132
0.61085939 0.12921605 0.036388818
0.61088181 0.12995504 0.036384314
0.61090428 0.13069403 0.03637981
0.61016643 0.1316705 0.035732437
0.6094287 0.13265018 0.035085063
0.6086911 0.13363302 0.034437671
0.60719341 0.13486132 0.033147361
0.6056959 0.136096 0.031857014
0.60419863 0.13733704 0.030566625
0.60270154 0.13858445 0.0292762
0.60120463 0.13983823 0.027985733
0.5997079 0.14109839 0.026695229
0.59897125 0.14211309 0.026047643
0.60492808 0.06996201 0.032322016
0.60495085 0.070710555 0.032317456
0.60497361 0.071459107 0.032312892
0.60499638 0.072207652 0.032308333
0.60578227 0.072846159 0.032947097
0.60580498 0.073593117 0.032942545
0.60582769 0.074340068 0.032937992
0.6066134 0.074972212 0.033576775
0.60663605 0.075717576 0.033572234
0.60742164 0.076344937 0.034211066
0.60744423 0.077088706 0.034206536
0.60822964 0.077711284 0.034845375
0.60825223 0.078453466 0.034840852
0.60903746 0.079071276 0.035479724
0.60905999 0.079811856 0.035475213
0.6098451 0.080424882 0.03611413
0.60986757 0.081163876 0.036109626
0.60989004 0.081902862 0.036105126
0.61067498 0.082509525 0.036744062
0.61069739 0.083246924 0.036739569
0.6107198 0.083984323 0.036735076
0.61074221 0.084721722 0.036730584
0.61076462 0.085459113 0.036726091
0.61078703 0.086196512 0.036721595
0.61080945 0.086933918 0.036717102
0.61083186 0.087671317 0.036712609
0.61085427 0.088408716 0.036708117
0.61087668 0.089146115 0.03670362
0.61089909 0.089883514 0.036699127
0.6109215 0.090620913 0.036694635
0.61094391 0.091358311 0.036690142
0.61096632 0.09209571 0.036685649
0.6109888 0.092833117 0.036681153
0.61101121 0.093570508 0.03667666
0.61179531 0.094150081 0.037315782
0.61181766 0.094885893 0.037311301
0.61184001 0.095621705 0.037306815
0.61186242 0.096357509 0.037302334
0.61188477 0.097093314 0.037297849
0.61190712 0.097829118 0.037293363
0.61192948 0.098564923 0.037288882
0.61195189 0.099300727 0.037284397
0.61197424 0.10003654 0.037279915
0.61199659 0.10077234 0.03727543
0.61201894 0.10150816 0.037270945
0.61204129 0.10224396 0.037266463
0.61206371 0.10297976 0.037261978
0.61208606 0.10371557 0.037257496
0.61210841 0.10445137 0.037253011
0.61213076 0.10518718 0.037248526
0.61215317 0.10592299 0.037244044
0.61217552 0.10665879 0.037239559
0.61219788 0.1073946 0.037235074
0.61222023 0.10813041 0.037230592
0.61224264 0.10886621 0.037226107
0.61226499 0.10960202 0.037221625
0.61228734 0.11033782 0.03721714
0.61230969 0.11107363 0.037212655
0.61157149 0.11200548 0.036564324
0.6115939 0.11274289 0.036559831
0.61161637 0.11348028 0.036555335
0.61163878 0.11421768 0.036550842
0.6116612 0.11495508 0.03654635
0.61168361 0.11569248 0.036541857
0.61170602 0.11642988 0.03653736
0.61172843 0.11716728 0.036532868
0.61175084 0.11790468 0.036528375
0.61177325 0.11864208 0.036523882
0.61179566 0.11937948 0.03651939
0.61181808 0.12011687 0.036514893
0.61184049 0.12085427 0.0365104
0.6118629 0.12159167 0.036505908
0.61188531 0.12232907 0.036501415
0.61190772 0.12306647 0.036496919
0.61193013 0.12380387 0.036492426
0.61195254 0.12454127 0.036487933
0.61197495 0.12527867 0.036483441
0.61123776 0.12624235 0.035834931
0.61126024 0.12698135 0.035830427
0.61128271 0.12772034 0.035825927
0.61130518 0.12845933 0.035821423
0.61132759 0.12919833 0.035816919
0.6105907 0.13017158 0.035168335
0.61061317 0.13091217 0.03516382
0.6106357 0.13165276 0.035159308
0.60989898 0.13263237 0.034510702
0.60840321 0.13385583 0.033217955
0.60690755 0.13508566 0.031925172
0.60617125 0.13607801 0.031276487
0.60467595 0.13731898 0.029983634
0.60318089 0.13856632 0.028690744
0.601686 0.13982002 0.027397813
0.6001913 0.14108011 0.026104843
0.59945565 0.14209476 0.025456024
0.59872007 0.14311263 0.024807168
0.60540241 0.069944061 0.031742722
0.60618746 0.070587389 0.032382689
0.60621017 0.071334347 0.032378141
0.60623288 0.072081298 0.032373589
0.60625559 0.072828248 0.032369036
0.6062783 0.073575206 0.032364484
0.607063 0.074208975 0.033004489
0.60708565 0.074954338 0.032999948
0.60710835 0.075699702 0.032995407
0.60789287 0.0763271 0.033635471
0.60791552 0.07707087 0.033630937
0.60869992 0.077693492 0.034271013
0.60872245 0.078435667 0.03426649
0.60950673 0.079053521 0.034906592
0.60952926 0.079794101 0.034902081
0.61031336 0.080407165 0.035542235
0.61033583 0.081146158 0.035537731
0.6103583 0.081885144 0.035533227
0.61038077 0.082624137 0.035528723
0.61040324 0.083363131 0.035524219
0.61118704 0.083966643 0.03616441
0.61120945 0.084704041 0.036159918
0.61123186 0.08544144 0.036155425
0.61125427 0.086178839 0.036150929
0.61127669 0.086916238 0.036146436
0.6112991 0.087653637 0.036141943
0.61132151 0.088391036 0.03613745
0.61134392 0.089128435 0.036132958
0.61136633 0.089865834 0.036128461
0.61138874 0.090603232 0.036123969
0.61141115 0.091340631 0.036119476
0.61143357 0.09207803 0.036114983
0.61145598 0.092815436 0.036110491
0.61147839 0.093552828 0.036105994
0.6115008 0.094290234 0.036101501
0.61152327 0.095027626 0.036097009
0.61154568 0.095765024 0.036092516
0.61156809 0.096502431 0.03608802
0.6115905 0.097239822 0.036083527
0.61161292 0.097977228 0.036079034
0.61163533 0.09871462 0.036074542
0.61165774 0.099452026 0.036070049
0.61168015 0.10018942 0.036065552
0.61170256 0.10092682 0.03606106
0.61172497 0.10166422 0.036056567
0.61174738 0.10240162 0.036052074
0.6117698 0.10313902 0.036047578
0.61179221 0.10387641 0.036043085
0.61181462 0.10461382 0.036038592
0.61183703 0.10535121 0.0360341
0.61185944 0.10608862 0.036029607
0.61188185 0.10682601 0.036025111
0.61190426 0.10756341 0.036020618
0.61192667 0.10830081 0.036016125
0.61194909 0.10903821 0.036011633
0.6119715 0.10977561 0.03600714
0.61199391 0.11051301 0.036002643
0.61201632 0.11125041 0.035998151
0.61203873 0.1119878 0.035993658
0.61206114 0.11272521 0.035989165
0.61208355 0.1134626 0.035984669
0.61210597 0.1142 0.035980176
0.61212844 0.1149374 0.035975683
0.61215085 0.1156748 0.035971191
0.61217326 0.1164122 0.035966698
0.61219567 0.1171496 0.035962202
0.61221808 0.117887 0.035957709
0.61224049 0.1186244 0.035953216
0.61150384 0.11957372 0.035303563
0.61152631 0.12031271 0.035299059
0.61154878 0.1210517 0.035294555
0.61157125 0.12179069 0.035290055
0.61159372 0.12252969 0.035285551
0.61161613 0.12326868 0.035281047
0.61163861 0.12400766 0.035276543
0.61166108 0.12474667 0.035272039
0.61168355 0.12548566 0.035267536
0.61170602 0.12622464 0.035263035
0.61172849 0.12696363 0.035258532
0.61099243 0.12793207 0.03460874
0.6110149 0.12867266 0.034604229
0.61103743 0.12941325 0.034599714
0.61105996 0.13015383 0.034595203
0.61108243 0.13089442 0.034590691
0.61034667 0.13187242 0.033940863
0.60961103 0.1328536 0.033291012
0.60887545 0.13383795 0.032641128
0.60738188 0.1350677 0.031345878
0.60664654 0.13606003 0.030695962
0.60515326 0.13730092 0.029400645
0.60366023 0.13854818 0.028105287
0.60216731 0.13980182 0.026809892
0.60143256 0.14081167 0.02615987
0.59994 0.14207643 0.024864405
0.59996325 0.14284092 0.024859747
0.59922874 0.14386033 0.024209648
0.60663801 0.069822527 0.031809181
0.60666072 0.070569478 0.031804629
0.60668343 0.071316436 0.03180008
0.60670614 0.072063386 0.031795528
0.60749 0.072700389 0.032436747
0.60751265 0.073445745 0.032432206
0.6075353 0.074191108 0.032427661
0.60755795 0.074936472 0.03242312
0.60834157 0.075565502 0.033064406
0.60836416 0.076309271 0.033059876
0.60838675 0.07705304 0.033055343
0.6091702 0.0776757 0.033696651
0.60919273 0.078417875 0.033692129
0.60997599 0.079035759 0.034333464
0.60999846 0.079776347 0.034328952
0.610021 0.080516927 0.034324437
0.61080408 0.081128441 0.034965832
0.61082655 0.081867427 0.034961328
0.61084902 0.08260642 0.034956824
0.61087143 0.083345413 0.034952324
0.61089391 0.084084406 0.03494782
0.61091638 0.084823392 0.034943316
0.61093885 0.085562386 0.034938812
0.61096132 0.086301379 0.034934308
0.61098379 0.087040372 0.034929808
0.61100626 0.087779365 0.034925304
0.61102867 0.088518351 0.0349208
0.61105114 0.089257345 0.034916297
0.61107361 0.089996338 0.034911793
0.61109608 0.090735331 0.034907289
0.61111856 0.091474324 0.034902789
0.61114103 0.09221331 0.034898285
0.61116344 0.092952311 0.034893781
0.61118591 0.093691297 0.034889277
0.61120838 0.094430283 0.034884773
0.61199045 0.095009945 0.035526343
0.61201286 0.095747352 0.03552185
0.61203527 0.096484751 0.035517357
0.61205775 0.097222149 0.035512861
0.61208016 0.097959548 0.035508368
0.61210257 0.09869694 0.035503875
0.61212498 0.099434346 0.035499383
0.61214739 0.10017174 0.03549489
0.6121698 0.10090914 0.035490394
0.61219221 0.10164654 0.035485901
0.61221462 0.10238394 0.035481408
0.61223704 0.10312134 0.035476916
0.61225945 0.10385874 0.035472423
0.61228186 0.10459614 0.035467926
0.61230427 0.10533354 0.035463434
0.61232668 0.10607094 0.035458941
0.61234909 0.10680833 0.035454448
0.6123715 0.10754573 0.035449952
0.61239392 0.10828313 0.035445459
0.61241633 0.10902053 0.035440966
0.61243874 0.10975793 0.035436474
0.61246115 0.11049533 0.035431981
0.61172503 0.11142709 0.034781199
0.6117475 0.11216608 0.034776699
0.61176991 0.11290508 0.034772195
0.61179239 0.11364408 0.034767691
0.61181486 0.11438306 0.034763187
0.61183733 0.11512205 0.034758683
0.6118598 0.11586104 0.034754179
0.61188227 0.11660004 0.034749679
0.61190468 0.11733902 0.034745175
0.61192715 0.11807802 0.034740672
0.61194962 0.11881702 0.034736168
0.61197209 0.119556 0.034731664
0.61199456 0.120295 0.034727164
0.61201704 0.12103398 0.03472266
0.61203951 0.12177297 0.034718156
0.61206192 0.12251197 0.034713652
0.61132658 0.12347082 0.034062687
0.61134911 0.1242114 0.034058176
0.61137164 0.12495198 0.034053661
0.61139411 0.12569258 0.03404915
0.61141664 0.12643315 0.034044638
0.61143917 0.12717375 0.034040123
0.61146164 0.12791432 0.034035612
0.61148417 0.12865491 0.034031097
0.6115067 0.12939548 0.034026586
0.61077183 0.13037026 0.033375543
0.61079443 0.13111244 0.03337102
0.61081696 0.13185462 0.033366498
0.61008233 0.13283576 0.032715417
0.6085906 0.13406064 0.031417731
0.60785615 0.13504976 0.030766586
0.60636479 0.13628578 0.029468831
0.60563064 0.13728286 0.028817654
0.60413957 0.13853003 0.027519831
0.60340565 0.13953507 0.026868606
0.60191494 0.14079341 0.025570717
0.60118121 0.14180641 0.024919424
0.60044765 0.14282259 0.02426813
0.6004709 0.14358705 0.024263471
0.60049415 0.14435153 0.024258813
0.60711133 0.069804616 0.031231122
0.6078943 0.070446432 0.031873547
0.60715675 0.071298525 0.031222017
0.6079396 0.071937151 0.031864461
0.60796225 0.072682515 0.031859919
0.6079849 0.073427871 0.031855378
0.60800755 0.074173234 0.031850833
0.60803026 0.074918598 0.031846292
0.60881281 0.075547665 0.032488812
0.60883546 0.076291442 0.032484282
0.60885805 0.077035211 0.032479748
0.60964042 0.077657908 0.033122286
0.60966301 0.078400083 0.033117764
0.60968554 0.079142258 0.033113241
0.61046773 0.079758592 0.03375582
0.61049026 0.080499172 0.033751309
0.61051273 0.08123976 0.033746794
0.61053526 0.08198034 0.033742283
0.61131722 0.082588702 0.034384929
0.61133969 0.083327696 0.034380425
0.61136216 0.084066689 0.034375921
0.61138463 0.084805675 0.034371417
0.6114071 0.085544668 0.034366917
0.61142957 0.086283661 0.034362413
0.61145204 0.087022655 0.034357909
0.61147445 0.087761648 0.034353405
0.61149693 0.088500634 0.034348901
0.6115194 0.089239627 0.034344397
0.61154187 0.08997862 0.034339897
0.61156434 0.090717614 0.034335393
0.61158681 0.091456607 0.03433089
0.61160922 0.092195593 0.034326386
0.61163169 0.092934594 0.034321882
0.61165416 0.093673579 0.034317378
0.61167663 0.094412565 0.034312878
0.6116991 0.095151559 0.034308374
0.61172158 0.095890552 0.03430387
0.61174405 0.096629545 0.034299366
0.61176646 0.097368538 0.034294862
0.61178893 0.098107532 0.034290362
0.6118114 0.098846518 0.034285858
0.61183387 0.099585511 0.034281354
0.61185634 0.1003245 0.034276851
0.61187881 0.1010635 0.034272347
0.61190128 0.10180249 0.034267843
0.61192369 0.10254148 0.034263343
0.61194617 0.10328048 0.034258839
0.61196864 0.10401946 0.034254335
0.61199111 0.10475845 0.034249831
0.61201358 0.10549744 0.034245327
0.61203605 0.10623644 0.034240827
0.61205846 0.10697542 0.034236323
0.61208093 0.10771442 0.034231819
0.6121034 0.10845342 0.034227315
0.61212587 0.1091924 0.034222811
0.61214834 0.10993139 0.034218308
0.61217082 0.11067038 0.034213807
0.61219329 0.11140937 0.034209304
0.6122157 0.11214837 0.0342048
0.61223817 0.11288736 0.034200296
0.61226064 0.11362636 0.034195792
0.61228311 0.11436535 0.034191288
0.61230558 0.11510433 0.034186788
0.61232805 0.11584333 0.034182284
0.61235046 0.11658232 0.03417778
0.61161578 0.11752839 0.033525661
0.61163825 0.11826897 0.033521149
0.61166078 0.11900956 0.033516634
0.61168331 0.11975013 0.033512123
0.61170578 0.12049073 0.033507612
0.61172831 0.12123131 0.033503097
0.61175084 0.12197189 0.033498585
0.61177331 0.12271247 0.03349407
0.61179584 0.12345307 0.033489559
0.61181837 0.12419365 0.033485048
0.61184084 0.12493423 0.033480532
0.61186337 0.12567481 0.033476021
0.61112928 0.12664159 0.032823794
0.61115187 0.12738377 0.032819271
0.6111744 0.12812594 0.032814749
0.61119699 0.12886812 0.032810226
0.61121953 0.12961029 0.032805704
0.61124212 0.13035247 0.032801181
0.61126465 0.13109465 0.032796659
0.61053097 0.13207415 0.032144357
0.60979736 0.13305685 0.031492013
0.60906386 0.13404272 0.030839672
0.60833043 0.1350318 0.030187292
0.60684109 0.13626777 0.028887073
0.60610795 0.1372648 0.028234664
0.60461891 0.1385119 0.026934376
0.60388601 0.1395169 0.026281919
0.60315317 0.14052509 0.025629422
0.6016646 0.14178811 0.024329038
0.60168779 0.142551 0.024324389
0.60095525 0.14356872 0.023671852
0.60097849 0.1443332 0.023667194
0.60100174 0.14509767 0.023662535
0.60832125 0.068937831 0.031305801
0.6083439 0.069683194 0.03130126
0.60836661 0.070428558 0.031296719
0.60838926 0.071173921 0.031292174
0.60841191 0.071919285 0.031287633
0.60843456 0.072664648 0.031283092
0.60845721 0.073410004 0.031278551
0.60847986 0.074155368 0.031274006
0.60850251 0.074900731 0.031269465
0.6092841 0.075529836 0.031913217
0.60930669 0.076273605 0.031908683
0.60932934 0.077017374 0.031904154
0.6101107 0.077640109 0.032547925
0.61013323 0.078382291 0.032543402
0.61015582 0.079124466 0.03253888
0.61017835 0.07986664 0.032534357
0.61095953 0.080481417 0.033178177
0.610982 0.081222005 0.033173665
0.61100453 0.081962585 0.03316915
0.61102706 0.082703173 0.033164639
0.61104953 0.083443753 0.033160124
0.61107206 0.084184341 0.033155613
0.61109459 0.084924921 0.033151101
0.61111706 0.085665509 0.033146586
0.6111396 0.086406089 0.033142075
0.61116213 0.087146677 0.03313756
0.6111846 0.087887265 0.033133049
0.61120713 0.088627845 0.033128537
0.61122966 0.089368433 0.033124022
0.61125213 0.090109013 0.033119511
0.61127466 0.090849601 0.033114996
0.61129713 0.091590181 0.033110484
0.61131966 0.092330769 0.033105969
0.61134219 0.093071349 0.033101458
0.61136466 0.093811937 0.033096947
0.61138719 0.094552524 0.033092432
0.61140972 0.095293097 0.03308792
0.61143219 0.096033685 0.033083405
0.61145473 0.09677428 0.033078894
0.61223471 0.097350821 0.033722967
0.61225718 0.098089814 0.033718463
0.61227965 0.0988288 0.033713959
0.61230212 0.099567793 0.033709455
0.6123246 0.10030678 0.033704955
0.61234701 0.10104578 0.033700451
0.61236948 0.10178477 0.033695947
0.61239195 0.10252376 0.033691444
0.61241442 0.10326276 0.03368694
0.61243689 0.10400175 0.033682439
0.61245936 0.10474073 0.033677936
0.61248183 0.10547972 0.033673432
0.61250424 0.10621872 0.033668928
0.61252671 0.1069577 0.033664424
0.61179239 0.10788304 0.033011198
0.61181492 0.10862362 0.033006687
0.61183739 0.1093642 0.033002175
0.61185992 0.11010479 0.03299766
0.61188245 0.11084537 0.032993149
0.61190492 0.11158596 0.032988634
0.61192745 0.11232654 0.032984123
0.61194998 0.11306713 0.032979608
0.61197245 0.11380771 0.032975096
0.61199498 0.1145483 0.032970585
0.61201751 0.11528888 0.03296607
0.61203998 0.11602946 0.032961559
0.61206251 0.11677004 0.032957043
0.61208504 0.11751063 0.032952532
0.61210752 0.11825122 0.032948017
0.61213005 0.11899181 0.032943506
0.61215258 0.11973238 0.032938994
0.61217505 0.12047298 0.032934479
0.61144167 0.12142855 0.03228109
0.6114642 0.12217073 0.032276567
0.61148679 0.12291291 0.032272045
0.61150932 0.12365508 0.032267522
0.61153191 0.12439726 0.032263
0.61155444 0.12513943 0.032258477
0.61157703 0.12588161 0.032253955
0.61159956 0.12662379 0.032249432
0.61162215 0.12736596 0.03224491
0.61164469 0.12810814 0.032240387
0.61166728 0.12885033 0.032235865
0.61093444 0.12982501 0.031582359
0.61095703 0.13056879 0.031577826
0.61097962 0.13131255 0.031573292
0.61100227 0.13205631 0.031568762
0.61026967 0.13303898 0.030915186
0.60953718 0.13402483 0.030261613
0.60880476 0.13501386 0.029607998
0.60731739 0.13624974 0.028305316
0.60658526 0.13724674 0.027651673
0.60509825 0.13849376 0.026348921
0.60436636 0.13949873 0.025695231
0.60363454 0.14050686 0.025041502
0.60290283 0.14151819 0.024387771
0.60217118 0.14253271 0.023734003
0.60219437 0.14329559 0.023729354
0.60221756 0.14405847 0.023724705
0.60224074 0.14482135 0.023720058
0.60226393 0.14558424 0.023715409
0.60881621 0.069665328 0.030724432
0.60883886 0.070410691 0.030719889
0.60886151 0.071156055 0.030715348
0.60888416 0.071901411 0.030710805
0.60890681 0.072646774 0.030706264
0.60892946 0.07339213 0.030701721
0.60895216 0.074137494 0.03069718
0.60897481 0.074882858 0.030692637
0.6097554 0.075512007 0.031337623
0.60977799 0.076255776 0.031333089
0.60980058 0.076999545 0.031328559
0.60982323 0.077743314 0.031324025
0.61060351 0.078364491 0.031969041
0.6106261 0.079106674 0.031964518
0.61064863 0.079848848 0.031959996
0.61067116 0.080591023 0.031955473
0.61069375 0.081333205 0.031950951
0.6114738 0.081944831 0.032596022
0.61149627 0.082685418 0.032591511
0.6115188 0.083425999 0.032586996
0.61154133 0.084166586 0.032582484
0.6115638 0.084907167 0.032577969
0.61158633 0.085647754 0.032573458
0.61160886 0.086388335 0.032568943
0.61163133 0.087128922 0.032564431
0.61165386 0.08786951 0.03255992
0.61167639 0.08861009 0.032555405
0.61169887 0.089350678 0.032550894
0.6117214 0.090091258 0.032546379
0.61174393 0.090831846 0.032541867
0.6117664 0.091572426 0.032537352
0.61178893 0.092313014 0.032532841
0.61181146 0.093053594 0.03252833
0.61183393 0.093794182 0.032523815
0.61185646 0.09453477 0.032519303
0.61187899 0.095275342 0.032514788
0.61190146 0.09601593 0.032510277
0.61192399 0.096756525 0.032505762
0.61194652 0.097497098 0.032501251
0.61196899 0.098237686 0.032496739
0.61199152 0.098978266 0.032492224
0.61201406 0.099718861 0.032487713
0.61203653 0.10045943 0.032483198
0.61205906 0.10120002 0.032478686
0.61208153 0.10194061 0.032474171
0.61210406 0.1026812 0.03246966
0.61212659 0.10342178 0.032465149
0.61214906 0.10416236 0.032460634
0.61217159 0.10490295 0.032456122
0.61219412 0.10564353 0.032451607
0.61221659 0.10638411 0.032447096
0.61223912 0.10712469 0.032442581
0.61226165 0.10786528 0.03243807
0.61228412 0.10860587 0.032433558
0.61230665 0.10934645 0.032429043
0.61232919 0.11008704 0.032424532
0.61235166 0.11082762 0.032420017
0.61237419 0.11156821 0.032415505
0.61239672 0.11230879 0.03241099
0.61241919 0.11304937 0.032406479
0.61168635 0.113989 0.031751953
0.61170888 0.11473116 0.031747431
0.61173147 0.11547334 0.031742908
0.611754 0.11621551 0.031738386
0.61177659 0.11695769 0.031733863
0.61179912 0.11769988 0.031729341
0.61182171 0.11844205 0.031724818
0.61184424 0.11918423 0.031720296
0.61186683 0.1199264 0.031715773
0.61188936 0.12066858 0.031711251
0.61191189 0.12141075 0.031706728
0.61193448 0.12215294 0.031702206
0.61195701 0.12289511 0.031697683
0.6119796 0.12363729 0.031693161
0.61200213 0.12437946 0.031688638
0.61202472 0.12512164 0.031684116
0.61129266 0.12608834 0.031029424
0.61131525 0.1268321 0.031024892
0.6113379 0.12757587 0.03102036
0.61136049 0.12831964 0.031015826
0.61138308 0.12906341 0.031011295
0.61140567 0.12980717 0.031006763
0.61142832 0.13055095 0.031002231
0.61069661 0.13153039 0.030347442
0.61071926 0.13227575 0.030342901
0.61074191 0.13302112 0.030338358
0.61001045 0.13400692 0.029683551
0.60927904 0.13499592 0.029028706
0.60779375 0.13623172 0.027723556
0.60706258 0.13722868 0.027068682
0.60633153 0.13822882 0.026413769
0.60484672 0.13948055 0.025108542
0.6041159 0.14048865 0.02445358
0.60338521 0.14149994 0.023798618
0.60340834 0.14226124 0.023793979
0.60343146 0.14302251 0.023789339
0.60270095 0.14404018 0.023134319
0.60272413 0.14480306 0.02312967
0.60274732 0.14556594 0.023125023
0.60928851 0.069647454 0.030147605
0.60931116 0.070392817 0.030143062
0.60933381 0.071138181 0.030138521
0.60935646 0.071883544 0.030133978
0.60937911 0.072628908 0.030129436
0.60940176 0.073374264 0.030124893
0.60942441 0.074119627 0.030120352
0.60944706 0.074864991 0.030115809
0.61022663 0.07549417 0.030762028
0.61024928 0.076237939 0.030757494
0.61027187 0.076981708 0.030752962
0.61029446 0.077725485 0.030748431
0.61031705 0.078469254 0.030743899
0.61109632 0.079088882 0.031390153
0.61111891 0.079831056 0.03138563
0.61114144 0.080573231 0.031381108
0.61116403 0.081315413 0.031376585
0.61118656 0.082057588 0.031372063
0.61120915 0.082799762 0.03136754
0.61123168 0.083541945 0.031363018
0.61125427 0.084284119 0.031358495
0.61127681 0.085026294 0.031353973
0.61129934 0.085768469 0.03134945
0.61132193 0.086510643 0.031344928
0.61134446 0.087252825 0.031340405
0.61136705 0.087995008 0.031335883
0.61138958 0.088737175 0.03133136
0.61141217 0.089479357 0.031326838
0.6114347 0.090221532 0.031322315
0.61145729 0.090963714 0.031317793
0.61147982 0.091705889 0.03131327
0.61150241 0.092448063 0.031308748
0.61152494 0.093190245 0.031304225
0.61154753 0.09393242 0.031299703
0.61157006 0.094674595 0.03129518
0.61159265 0.095416769 0.031290658
0.61161518 0.096158944 0.031286135
0.61163777 0.096901126 0.031281613
0.6116603 0.097643301 0.03127709
0.61168289 0.098385483 0.031272564
0.61246079 0.098960511 0.031919096
0.61248326 0.099701099 0.031914581
0.61250579 0.10044168 0.031910069
0.61252832 0.10118227 0.031905554
0.6125508 0.10192285 0.031901043
0.61257333 0.10266344 0.031896532
0.61259586 0.10340402 0.031892017
0.61261833 0.1041446 0.031887505
0.61188591 0.10506507 0.031231862
0.61190844 0.10580724 0.031227339
0.61193103 0.10654943 0.031222817
0.61195356 0.10729159 0.031218294
0.61197615 0.10803378 0.031213772
0.61199868 0.10877596 0.031209249
0.61202127 0.10951813 0.031204727
0.6120438 0.11026032 0.031200204
0.61206639 0.11100248 0.031195682
0.61208892 0.11174466 0.031191159
0.61211151 0.11248683 0.031186637
0.61213404 0.11322902 0.031182114
0.61215657 0.1139712 0.031177592
0.61217916 0.11471337 0.031173069
0.61220169 0.11545555 0.031168545
0.61222428 0.11619772 0.031164022
0.61224681 0.1169399 0.0311595
0.6122694 0.11768208 0.031154977
0.61229193 0.11842426 0.031150455
0.61231452 0.11916644 0.031145932
0.61233705 0.11990861 0.03114141
0.6116057 0.12086412 0.030485556
0.61162829 0.12160788 0.030481024
0.61165088 0.12235166 0.03047649
0.61167353 0.12309542 0.030471958
0.61169612 0.12383919 0.030467426
0.61171871 0.12458296 0.030462893
0.6117413 0.12532672 0.030458361
0.61176395 0.1260705 0.030453829
0.61178654 0.12681426 0.030449297
0.61180913 0.12755804 0.030444764
0.61183178 0.12830181 0.030440232
0.61110091 0.12927644 0.029784242
0.61112356 0.1300218 0.029779699
0.61114621 0.13076715 0.029775158
0.61116892 0.13151252 0.029770615
0.61119157 0.13225788 0.029766073
0.61046106 0.13324206 0.029110044
0.6097306 0.13422942 0.028453976
0.60900027 0.13521996 0.027797906
0.60827005 0.13621369 0.0271418
0.60753989 0.13721061 0.026485693
0.60680985 0.13821071 0.025829546
0.60607994 0.13921401 0.0251734
0.60535008 0.14022048 0.024517234
0.60462034 0.14123014 0.02386103
0.60389072 0.14224298 0.023204826
0.60391384 0.14300427 0.023200186
0.60393697 0.14376555 0.023195548
0.6039601 0.14452684 0.023190908
0.60398322 0.14528812 0.02318627
0.60976076 0.069629587 0.029570775
0.60978341 0.070374951 0.029566234
0.60980606 0.071120314 0.029561691
0.60982871 0.07186567 0.02955715
0.60985136 0.072611034 0.029552607
0.60987407 0.07335639 0.029548066
0.60989672 0.074101754 0.029543523
0.60991937 0.074847117 0.029538982
0.60994202 0.075592481 0.029534439
0.60996467 0.076337844 0.029529897
0.61074311 0.076963879 0.030177366
0.61076576 0.077707648 0.030172834
0.61078835 0.078451417 0.030168302
0.61081094 0.079195186 0.030163771
0.61083359 0.079938956 0.030159237
0.61085618 0.080682725 0.030154705
0.61163425 0.081297614 0.030802224
0.61165684 0.082039796 0.030797701
0.61167938 0.082781971 0.030793179
0.61170197 0.083524145 0.030788656
0.6117245 0.084266327 0.030784134
0.61174709 0.085008502 0.030779611
0.61176962 0.085750677 0.030775089
0.61179221 0.086492851 0.030770564
0.61181474 0.087235034 0.030766042
0.61183733 0.087977208 0.030761519
0.61185986 0.088719383 0.030756997
0.61188245 0.089461565 0.030752474
0.61190498 0.09020374 0.030747952
0.61192751 0.090945914 0.030743429
0.6119501 0.091688097 0.030738907
0.61197263 0.092430271 0.030734384
0.61199522 0.093172446 0.030729862
0.61201775 0.093914621 0.030725339
0.61204034 0.094656803 0.030720817
0.61206287 0.095398977 0.030716294
0.61208546 0.096141152 0.030711772
0.61210799 0.096883334 0.030707249
0.61213058 0.097625509 0.030702725
0.61215311 0.098367684 0.030698203
0.6121757 0.099109858 0.03069368
0.61219823 0.09985204 0.030689158
0.61222082 0.10059422 0.030684635
0.61224335 0.1013364 0.030680113
0.61226594 0.10207857 0.03067559
0.61228848 0.10282075 0.030671068
0.61231107 0.10356292 0.030666545
0.6123336 0.1043051 0.030662023
0.61235613 0.10504728 0.0306575
0.61237872 0.10578945 0.030652978
0.61240125 0.10653163 0.030648455
0.61242384 0.1072738 0.030643933
0.61244637 0.10801598 0.03063941
0.61246896 0.10875816 0.030634888
0.61249149 0.10950034 0.030630363
0.61251408 0.11024252 0.030625841
0.61178309 0.11117728 0.02996888
0.61180568 0.11192105 0.029964346
0.61182827 0.11266482 0.029959815
0.61185086 0.11340859 0.029955283
0.61187351 0.11415236 0.029950751
0.6118961 0.11489613 0.029946217
0.61191869 0.1156399 0.029941685
0.61194134 0.11638366 0.029937154
0.61196393 0.11712743 0.029932622
0.61198652 0.1178712 0.029928088
0.61200911 0.11861497 0.029923556
0.61203176 0.11935875 0.029919025
0.61205435 0.12010251 0.029914491
0.61207694 0.12084629 0.029909959
0.61209959 0.12159005 0.029905427
0.61212218 0.12233382 0.029900895
0.61214477 0.12307759 0.029896362
0.61216736 0.12382136 0.02989183
0.61219001 0.12456512 0.029887298
0.61145991 0.12553175 0.029230123
0.61148256 0.12627712 0.02922558
0.61150527 0.12702248 0.029221039
0.61152792 0.12776785 0.029216496
0.61155057 0.1285132 0.029211955
0.61157322 0.12925857 0.029207412
0.61159587 0.13000393 0.029202871
0.61086619 0.13098329 0.028545639
0.6108889 0.13173024 0.028541086
0.61091161 0.13247719 0.028536534
0.61093432 0.13322414 0.028531983
0.61020488 0.13421148 0.027874682
0.60947561 0.13520198 0.027217381
0.60949838 0.13595212 0.02721281
0.60876918 0.13694741 0.02655546
0.60804015 0.13794588 0.025898112
0.60731113 0.13894753 0.025240723
0.60658228 0.13995238 0.024583334
0.6058535 0.1409604 0.023925927
0.60512477 0.14197162 0.02326848
0.6051479 0.14273131 0.023263851
0.60517097 0.14349101 0.023259221
0.60519409 0.14425071 0.023254592
0.60521716 0.1450104 0.023249963
0.61021042 0.06886635 0.02899849
0.61023307 0.069611713 0.028993949
0.61025572 0.070357077 0.028989406
0.61027837 0.07110244 0.028984865
0.61030102 0.071847804 0.028980322
0.61032367 0.072593167 0.028975781
0.61034632 0.073338524 0.028971238
0.61036897 0.074083887 0.028966697
0.61039162 0.074829251 0.028962154
0.61041427 0.075574614 0.028957613
0.61043698 0.076319978 0.02895307
0.61045963 0.077065341 0.028948529
0.61123699 0.077689819 0.02959724
0.61125964 0.078433588 0.029592708
0.61128223 0.079177357 0.029588176
0.61130482 0.079921126 0.029583642
0.61132747 0.080664895 0.02957911
0.61135006 0.081408665 0.029574579
0.61137265 0.082152434 0.029570047
0.61139524 0.082896203 0.029565513
0.61141789 0.083639972 0.029560981
0.61144048 0.084383741 0.02955645
0.61221731 0.084990703 0.030205248
0.6122399 0.085732885 0.030200725
0.61226243 0.086475059 0.030196203
0.6115309 0.087358825 0.02953832
0.61155349 0.088102594 0.029533787
0.61157614 0.088846356 0.029529255
0.61159873 0.089590125 0.029524723
0.61162132 0.090333901 0.029520191
0.61164397 0.09107767 0.029515658
0.61166656 0.09182144 0.029511126
0.61168915 0.092565209 0.029506594
0.61171174 0.093308978 0.02950206
0.61173439 0.094052739 0.029497528
0.61175698 0.094796516 0.029492997
0.61177957 0.095540278 0.029488465
0.61180222 0.096284054 0.029483931
0.61182481 0.097027823 0.029479399
0.6118474 0.097771592 0.029474868
0.61186999 0.098515369 0.029470334
0.61264592 0.099092066 0.030119319
0.61191523 0.10000291 0.02946127
0.61193782 0.10074667 0.029456738
0.61196041 0.10149045 0.029452205
0.61198306 0.10223421 0.029447673
0.61200565 0.10297798 0.029443141
0.61202824 0.10372175 0.029438609
0.61205089 0.10446552 0.029434076
0.61207348 0.10520929 0.029429544
0.61209607 0.10595306 0.029425012
0.61211866 0.10669683 0.029420478
0.61214131 0.1074406 0.029415946
0.6121639 0.10818437 0.029411415
0.61218649 0.10892814 0.029406883
0.61220914 0.10967191 0.029402349
0.61223173 0.11041567 0.029397817
0.61225432 0.11115944 0.029393286
0.61227691 0.11190321 0.029388754
0.61229956 0.11264698 0.02938422
0.61232215 0.11339075 0.029379688
0.61234474 0.11413453 0.029375156
0.61236739 0.11487829 0.029370623
0.61238998 0.11562207 0.029366091
0.61241257 0.11636584 0.029361559
0.61243516 0.1171096 0.029357027
0.61170566 0.11806025 0.028698716
0.61172831 0.11880562 0.028694173
0.61175096 0.11955099 0.028689632
0.61177361 0.12029634 0.028685089
0.61179626 0.12104171 0.028680548
0.61181891 0.12178707 0.028676007
0.61184162 0.12253243 0.028671464
0.61186427 0.12327779 0.028666923
0.61188692 0.12402316 0.02866238
0.61190957 0.12476852 0.028657839
0.61193222 0.12551388 0.028653296
0.61195487 0.12625925 0.028648755
0.61197752 0.12700461 0.028644212
0.61200017 0.12774996 0.02863967
0.61127138 0.1287245 0.027981233
0.61129409 0.12947147 0.027976682
0.6113168 0.13021842 0.02797213
0.61133951 0.13096538 0.027967578
0.61136222 0.13171233 0.027963027
0.61138493 0.13245928 0.027958475
0.61065644 0.13344498 0.027299952
0.61067921 0.13419352 0.02729539
0.6099509 0.13518399 0.026636856
0.60997367 0.13593413 0.026632285
0.60924554 0.13692939 0.025973704
0.60851747 0.13792782 0.025315121
0.60778946 0.13892944 0.024656499
0.60706162 0.13993424 0.023997879
0.60708463 0.14069074 0.023993269
0.60635686 0.14170033 0.023334619
0.60637993 0.14245844 0.023329999
0.60640299 0.14321654 0.02332538
0.606426 0.14397463 0.023320761
0.60644907 0.14473274 0.023316141
0.60647207 0.14549084 0.02331152
0.61070532 0.069593847 0.02841712
0.61072797 0.07033921 0.028412579
0.61075062 0.071084574 0.028408036
0.61077327 0.07182993 0.028403495
0.61079597 0.072575293 0.028398952
0.61081862 0.073320657 0.02839441
0.61084127 0.074066013 0.028389867
0.61086392 0.074811377 0.028385326
0.61088657 0.07555674 0.028380783
0.61090922 0.076302104 0.028376242
0.61093187 0.077047467 0.028371699
0.61095452 0.077792831 0.028367158
0.61097717 0.078538194 0.028362615
0.61099982 0.079283558 0.028358074
0.61102253 0.080028914 0.028353531
0.6117987 0.080647066 0.029003514
0.61182129 0.081390835 0.028998982
0.61184394 0.082134604 0.02899445
