# .PCD v0.7 - Point Cloud Data file format
VERSION 0.7
FIELDS x y z
SIZE 4 4 4
TYPE F F F
COUNT 1 1 1
WIDTH 1392
HEIGHT 1
VIEWPOINT 0 0 0 1 0 0 0
POINTS 1392
DATA ascii
0.39799264 0.24538034 0.044821467
0.39797717 0.24705781 0.044801138
0.39796171 0.24873528 0.044780809
0.39794627 0.25041276 0.044760481
0.3979308 0.25209025 0.044740155
0.39791533 0.2537677 0.044719826
0.39789987 0.25544518 0.044699498
0.39616212 0.25742441 0.043595217
0.39614663 0.25910544 0.043574847
0.39785349 0.26047757 0.044638511
0.39783806 0.26215506 0.044618182
0.39782259 0.26383251 0.044597853
0.39780712 0.26550999 0.044577528
0.39779168 0.26718745 0.044557199
0.39777622 0.26886493 0.04453687
0.39776075 0.27054238 0.044516541
0.39774528 0.27221987 0.044496212
0.39772984 0.27389735 0.044475883
0.39771438 0.2755748 0.044455554
0.39769891 0.27725229 0.044435225
0.39768347 0.27892974 0.0444149
0.397668 0.28060722 0.044394571
0.4002367 0.28175154 0.046001069
0.40022129 0.28342366 0.045980804
0.40020585 0.28509578 0.045960542
0.40019044 0.28676787 0.045940276
0.39759073 0.28899458 0.044292927
0.39757526 0.29067203 0.044272598
0.39755979 0.29234952 0.044252273
0.39754432 0.29402697 0.044231944
0.39752889 0.29570445 0.044211615
0.39751342 0.29738194 0.044191286
0.39749795 0.29905939 0.044170957
0.39748251 0.30073684 0.044150628
0.39746705 0.30241433 0.044130299
0.39745158 0.30409178 0.04410997
0.39743614 0.30576926 0.044089645
0.39742067 0.30744675 0.044069316
0.39740521 0.3091242 0.044048987
0.39738977 0.31080168 0.044028658
0.3973743 0.31247914 0.04400833
0.39735883 0.31415662 0.043988001
0.39734337 0.31583408 0.043967672
0.39732793 0.31751156 0.043947347
0.39989769 0.31853786 0.045555271
0.39988229 0.32020995 0.045535009
0.39986688 0.32188207 0.045514744
0.39985147 0.32355416 0.045494482
0.39983606 0.32522628 0.04547422
0.39982066 0.32689837 0.045453954
0.39980525 0.32857049 0.045433693
0.39978984 0.33024257 0.045413427
0.3997744 0.33191469 0.045393165
0.39975899 0.33358678 0.045372903
0.39974359 0.3352589 0.045352638
0.39972818 0.33693102 0.045332376
0.39971277 0.33860311 0.04531211
0.39969736 0.34027523 0.045291848
0.39968196 0.34194732 0.045271583
0.4039765 0.34240004 0.047966778
0.40396118 0.34406319 0.047946624
0.40394586 0.34572637 0.047926471
0.40393054 0.34738952 0.047906313
0.40563935 0.34855059 0.048972528
0.40562406 0.35021019 0.048952416
0.40560877 0.35186976 0.048932303
0.40559348 0.35352933 0.048912194
0.4055782 0.35518894 0.048892081
0.40556291 0.35684851 0.048871968
0.40554759 0.35850811 0.048851855
0.4055323 0.36016771 0.048831746
0.40551701 0.36182728 0.048811633
0.40550172 0.36348689 0.04879152
0.40548643 0.36514646 0.048771411
0.40547115 0.36680606 0.048751298
0.40545583 0.36846563 0.048731185
0.40544054 0.37012523 0.048711076
0.40370065 0.37233695 0.047603987
0.38941193 -0.098520853 0.039617088
0.38939622 -0.096816555 0.039596435
0.38681102 -0.095775537 0.037959438
0.38679528 -0.09406589 0.037938721
0.38677952 -0.09235622 0.037918001
0.38676375 -0.090646558 0.037897281
0.38674802 -0.088936903 0.037876565
0.38673225 -0.08722724 0.037855845
0.38671649 -0.085517578 0.037835129
0.38670075 -0.083807923 0.037814409
0.38668498 -0.082098261 0.037793688
0.38666922 -0.080388606 0.037772972
0.38665348 -0.078678943 0.037752252
0.38663772 -0.076969281 0.037731536
0.38662195 -0.075259626 0.037710816
0.38660622 -0.073549964 0.037690099
0.38659045 -0.071840294 0.037669379
0.38657469 -0.070130646 0.037648659
0.38912922 -0.067843542 0.039245326
0.38911352 -0.066139244 0.039224669
0.38909781 -0.064434938 0.039204016
0.39079577 -0.06235642 0.04026179
0.39078009 -0.060655709 0.040241178
0.39076442 -0.058954984 0.04022057
0.39331934 -0.056709018 0.041817721
0.39330372 -0.055013657 0.041797172
0.39328808 -0.053318311 0.041776627
0.39327246 -0.05162295 0.041756082
0.39325684 -0.0499276 0.041735537
0.39324123 -0.048232254 0.041714992
0.39322561 -0.046536893 0.041694447
0.39320996 -0.044841547 0.041673902
0.39319435 -0.043146182 0.041653357
0.39317873 -0.041450836 0.041632812
0.39316311 -0.039755475 0.041612267
0.39314747 -0.038060129 0.041591723
0.39313185 -0.036364779 0.041571178
0.39483044 -0.034352411 0.042629752
0.39481482 -0.032660641 0.042609248
0.39479923 -0.030968869 0.042588748
0.39478365 -0.029277083 0.042568244
0.39476806 -0.027585313 0.042547744
0.39475247 -0.025893526 0.04252724
0.39473689 -0.024201754 0.042506739
0.39729291 -0.022072043 0.04410534
0.39727736 -0.020385629 0.044084903
0.39726183 -0.018699221 0.044064466
0.3972463 -0.017012807 0.044044029
0.39980251 -0.0149099 0.045642912
0.39978704 -0.013228849 0.045622543
0.39977154 -0.011547805 0.045602169
0.39975604 -0.009866761 0.045581799
0.39974055 -0.0081857108 0.045561425
0.39972505 -0.006504667 0.045541056
0.39970958 -0.0048236158 0.045520682
0.39969409 -0.0031425722 0.045500312
0.39967859 -0.0014615211 0.045479938
0.39966309 0.00021952252 0.045459569
0.39964759 0.0019005662 0.045439195
0.39963213 0.0035816173 0.045418825
0.39961663 0.0052626608 0.045398451
0.39960113 0.006943712 0.045378082
0.39958563 0.0086247558 0.045357708
0.39957014 0.010305799 0.045337338
0.40126973 0.012207286 0.046397254
0.40125427 0.013884754 0.046376925
0.40123883 0.015562221 0.046356596
0.40122336 0.01723969 0.046336267
0.40120789 0.018917164 0.046315942
0.40119246 0.020594632 0.046295613
0.40117699 0.022272101 0.046275284
0.40116152 0.023949575 0.046254955
0.40114608 0.025627043 0.046234626
0.40113062 0.02730451 0.046214297
0.40111515 0.028981986 0.046193969
0.40109968 0.030659454 0.04617364
0.40108424 0.03233692 0.046153314
0.40106878 0.034014389 0.046132986
0.40105331 0.035691865 0.046112657
0.40103787 0.037369333 0.046092328
0.40359575 0.039291605 0.047693402
0.40358034 0.040963709 0.047673136
0.40356493 0.042635813 0.047652874
0.40354952 0.044307921 0.047632612
0.40353411 0.045980029 0.047612347
0.40094513 0.047434151 0.045970358
0.4035033 0.049324237 0.047571819
0.40091419 0.050789088 0.0459297
0.40089872 0.052466556 0.045909371
0.40345708 0.054340553 0.04751103
0.40344167 0.056012657 0.047490768
0.40342626 0.057684761 0.047470503
0.40341085 0.059356868 0.047450241
0.40511149 0.061145682 0.048511524
0.40509611 0.062814206 0.048491303
0.40336463 0.06437318 0.047389451
0.40334922 0.066045284 0.047369186
0.40333381 0.067717388 0.047348924
0.40331841 0.069389492 0.047328658
0.403303 0.071061604 0.047308397
0.40328759 0.072733708 0.047288131
0.40069777 0.074273668 0.045645103
0.40068233 0.075951137 0.045624774
0.40066686 0.077628605 0.045604445
0.4006514 0.079306081 0.045584116
0.40063596 0.080983549 0.045563787
0.40062049 0.082661018 0.045543458
0.40060502 0.084338486 0.045523129
0.40058959 0.086015955 0.045502804
0.40057412 0.08769343 0.045482475
0.40055865 0.089370899 0.045462146
0.40054318 0.091048367 0.045441817
0.40052775 0.092725836 0.045421489
0.40051228 0.094403312 0.04540116
0.40049681 0.09608078 0.045380831
0.40048137 0.097758248 0.045360502
0.39874911 0.099401273 0.044257633
0.39873362 0.10108232 0.04423726
0.39871812 0.10276337 0.04421689
0.39870265 0.10444441 0.044196516
0.39868715 0.10612546 0.044176146
0.39867166 0.1078065 0.044155773
0.39865616 0.10948756 0.044135403
0.39864066 0.1111686 0.044115029
0.3986252 0.11284965 0.044094659
0.3986097 0.11453069 0.044074286
0.3985942 0.11621174 0.044053916
0.3985787 0.11789279 0.044033542
0.39856321 0.11957383 0.044013172
0.39854774 0.12125488 0.043992799
0.39853224 0.12293593 0.043972429
0.39851674 0.12461697 0.043952055
0.40021858 0.12627524 0.045014922
0.40020311 0.12795271 0.044994593
0.40018767 0.12963018 0.044974264
0.4001722 0.13130765 0.044953935
0.40015674 0.13298512 0.044933606
0.40014127 0.13466258 0.044913277
0.40012583 0.13634005 0.044892948
0.40011036 0.13801752 0.044872619
0.4000949 0.139695 0.044852294
0.40007946 0.14137247 0.044831965
0.40006399 0.14304994 0.044811636
0.40004852 0.14472741 0.044791307
0.40003309 0.14640488 0.044770978
0.40259418 0.14797843 0.046376277
0.40257877 0.14965053 0.046356015
0.40256336 0.15132263 0.046335753
0.40254796 0.15299474 0.046315487
0.40253255 0.15466684 0.046295226
0.40251714 0.15633895 0.04627496
0.40250173 0.15801105 0.046254698
0.39990941 0.15982464 0.044608351
0.39989394 0.16150211 0.044588022
0.3998785 0.16317958 0.044567693
0.39986303 0.16485704 0.044547364
0.39984757 0.16653451 0.044527039
0.39983213 0.16821198 0.04450671
0.39981666 0.16988946 0.044486381
0.39980119 0.17156693 0.044466052
0.39978573 0.1732444 0.044445723
0.39977029 0.17492187 0.044425394
0.39975482 0.17659934 0.044405065
0.39973935 0.17827681 0.044384737
0.39972392 0.17995428 0.044364411
0.39970845 0.18163176 0.044344082
0.39969298 0.18330921 0.044323754
0.39967754 0.18498668 0.044303425
0.39966208 0.18666416 0.044283096
0.39964661 0.18834163 0.044262767
0.39963114 0.1900191 0.044242438
0.39961571 0.19169657 0.044222109
0.39960024 0.19337404 0.044201784
0.39958477 0.19505151 0.044181455
0.39956933 0.19672897 0.044161126
0.39955387 0.19840646 0.044140797
0.3995384 0.20008393 0.044120468
0.39952296 0.20176138 0.044100139
0.39950749 0.20343886 0.04407981
0.39949203 0.20511633 0.044059481
0.39947659 0.2067938 0.044039156
0.39946112 0.20847127 0.044018827
0.39944565 0.21014874 0.043998498
0.39943019 0.21182621 0.04397817
0.39941475 0.21350367 0.043957841
0.39939928 0.21518116 0.043937512
0.39938381 0.21685863 0.043917183
0.40194702 0.21820684 0.045525216
0.40193161 0.21987894 0.04550495
0.39933744 0.22189102 0.0438562
0.399322 0.22356848 0.043835871
0.39930654 0.22524597 0.043815542
0.39929107 0.22692344 0.043795213
0.39927563 0.2286009 0.043774884
0.39926016 0.23027837 0.043754555
0.3992447 0.23195584 0.043734226
0.39922923 0.23363331 0.043713901
0.39921379 0.23531078 0.043693572
0.39919832 0.23698825 0.043673243
0.39918286 0.23866571 0.043652914
0.39916742 0.2403432 0.043632586
0.39915195 0.24202067 0.043612257
0.39913648 0.24369814 0.043591928
0.39912105 0.2453756 0.043571599
0.39910558 0.24705307 0.043551274
0.39909011 0.24873054 0.043530945
0.39907464 0.25040802 0.043510616
0.39905921 0.25208548 0.043490287
0.39904374 0.25376296 0.043469958
0.39902827 0.25544041 0.043449629
0.39901283 0.2571179 0.0434293
0.39899737 0.25879535 0.043408971
0.3989819 0.26047283 0.043388646
0.39896646 0.26215032 0.043368317
0.40153098 0.26335368 0.044978101
0.40151557 0.26502576 0.044957839
0.40150017 0.26669788 0.044937573
0.39890462 0.26886019 0.043287002
0.39888915 0.27053764 0.043266673
0.39887369 0.27221513 0.043246344
0.4014385 0.2733863 0.044856522
0.4014231 0.27505839 0.044836257
0.40140769 0.27673051 0.044815995
0.40139228 0.2784026 0.044795733
0.40137687 0.28007472 0.044775467
0.40136147 0.2817468 0.044755206
0.40134606 0.28341892 0.04473494
0.40133065 0.28509104 0.044714678
0.40131524 0.28676313 0.044694412
0.40129983 0.28843525 0.044674151
0.40128443 0.29010734 0.044653889
0.40126902 0.29177946 0.044633623
0.40125361 0.29345155 0.044613361
0.4012382 0.29512367 0.044593096
0.4012228 0.29679576 0.044572834
0.40120739 0.29846787 0.044552568
0.39861092 0.30073211 0.042900763
0.39859545 0.30240959 0.042880435
0.39857998 0.30408704 0.042860106
0.40114576 0.30515629 0.044471517
0.40113035 0.30682838 0.044451252
0.40111494 0.3085005 0.04443099
0.40109953 0.31017262 0.044410724
0.40108413 0.31184471 0.044390462
0.40106872 0.31351683 0.0443702
0.40105331 0.31518891 0.044349935
0.4010379 0.31686103 0.044329673
0.40102246 0.31853312 0.044309407
0.40100706 0.32020524 0.044289146
0.40099165 0.32187733 0.044268884
0.40097624 0.32354945 0.044248618
0.40096083 0.32522154 0.044228356
0.40094543 0.32689366 0.044208091
0.40093002 0.32856575 0.044187829
0.40091461 0.33023787 0.044167563
0.4008992 0.33190995 0.044147301
0.40088379 0.33358207 0.04412704
0.40086839 0.33525419 0.044106774
0.40085298 0.33692628 0.044086512
0.40255907 0.33812135 0.045154989
0.40254369 0.3397899 0.045134768
0.40252832 0.34145841 0.045114547
0.40251294 0.34312695 0.04509433
0.40249756 0.34479547 0.045074109
0.40248221 0.34646401 0.045053888
0.40246683 0.34813252 0.045033667
0.40675575 0.34854591 0.047735989
0.40674043 0.35020548 0.047715876
0.40672514 0.35186508 0.047695763
0.40670985 0.35352466 0.047675654
0.40669456 0.35518423 0.047655541
0.40667927 0.35684383 0.047635429
0.40666398 0.3585034 0.047615316
0.40664867 0.360163 0.047595207
0.40663338 0.36182261 0.047575094
0.40661809 0.36348218 0.047554981
0.4066028 0.36514178 0.047534872
0.40658751 0.36680135 0.047514759
0.40657222 0.36846095 0.047494646
0.4065569 0.37012053 0.047474533
0.40654162 0.37178013 0.047454424
0.3922846 -0.099777035 0.039448023
0.39226893 -0.098076329 0.039427415
0.39225325 -0.0963756 0.039406803
0.39052695 -0.095117092 0.038305927
0.39051124 -0.093412787 0.038285274
0.39049554 -0.091708504 0.038264621
0.39047983 -0.090004198 0.038243968
0.39046413 -0.0882999 0.038223311
0.39044842 -0.08659561 0.038202658
0.39043272 -0.084891312 0.038182005
0.39041701 -0.083187021 0.038161352
0.3904013 -0.081482723 0.038140699
0.3903856 -0.079778433 0.038120046
0.39036989 -0.078074135 0.038099393
0.39035419 -0.076369829 0.03807874
0.39033848 -0.074665546 0.038058084
0.39032277 -0.072961241 0.03803743
0.39030707 -0.071256958 0.038016777
0.39200249 -0.069164105 0.03907704
0.39198682 -0.067463398 0.039056432
0.39197114 -0.065762669 0.039035819
0.39452225 -0.063495219 0.040636715
0.39450663 -0.061799873 0.04061617
0.39449102 -0.060104527 0.040595625
0.39618671 -0.058042072 0.041656248
0.39617112 -0.056350302 0.041635744
0.39615554 -0.054658528 0.041615244
0.39613995 -0.052966744 0.04159474
0.39612436 -0.05127497 0.04157424
0.39610878 -0.0495832 0.041553736
0.39609319 -0.047891416 0.041533235
0.39607757 -0.046199642 0.041512735
0.39606199 -0.044507857 0.041492231
0.3960464 -0.042816088 0.041471731
0.39603081 -0.041124314 0.041451227
0.39601523 -0.039432529 0.041430727
0.39599964 -0.037740756 0.041410226
0.39598405 -0.036048986 0.041389722
0.39596847 -0.034357201 0.041369222
0.39595285 -0.032665428 0.041348718
0.39593726 -0.030973658 0.041328218
0.39592168 -0.029281871 0.041307714
0.39590609 -0.0275901 0.041287214
0.3958905 -0.025898315 0.041266713
0.39844286 -0.023763232 0.042869251
0.39842734 -0.022076817 0.042848814
0.39841178 -0.020390403 0.042828377
0.40096429 -0.018276753 0.044431135
0.40094882 -0.016595708 0.044410765
0.40093333 -0.014914658 0.044390392
0.40091783 -0.013233607 0.044370022
0.40090233 -0.011552563 0.044349648
0.40088683 -0.0098715192 0.044329278
0.40087137 -0.0081904689 0.044308905
0.40085587 -0.0065094251 0.044288535
0.40084037 -0.0048283739 0.044268161
0.40082487 -0.0031473301 0.044247791
0.40080938 -0.0014662792 0.044227418
0.40079391 0.00021476444 0.044207048
0.40077841 0.001895808 0.044186674
0.40076292 0.0035768591 0.044166304
0.40074742 0.0052579027 0.044145931
0.40073192 0.0069389539 0.044125561
0.40071645 0.0086199977 0.044105187
0.40070096 0.010301041 0.044084817
0.40239814 0.012202538 0.045147385
0.40238267 0.013880006 0.045127057
0.40236723 0.015557474 0.045106731
0.40235177 0.017234942 0.045086402
0.4023363 0.018912416 0.045066074
0.40232086 0.020589884 0.045045745
0.40230539 0.022267351 0.045025416
0.40228993 0.023944827 0.045005087
0.40227449 0.025622295 0.044984758
0.40225902 0.027299762 0.044964429
0.40224355 0.028977238 0.044944104
0.40222809 0.030654706 0.044923775
0.40221265 0.032332174 0.044903446
0.40219718 0.034009639 0.044883117
0.40218171 0.035687115 0.044862788
0.40216628 0.037364583 0.044842459
0.40472054 0.039286871 0.046447538
0.40470514 0.040958975 0.046427276
0.40468973 0.042631079 0.04640701
0.40467432 0.044303186 0.046386749
0.40465891 0.045975294 0.046366483
0.40464351 0.047647398 0.046346221
0.4046281 0.049319502 0.046325956
0.4020426 0.050784342 0.044679832
0.40202713 0.052461807 0.044659503
0.40458187 0.054335818 0.046265166
0.40456647 0.056007922 0.046244904
0.40455106 0.057680026 0.046224639
0.40453565 0.059352133 0.046204377
0.40623385 0.061140958 0.047268324
0.4062185 0.06280949 0.047248103
0.40620312 0.064478017 0.047227886
0.40618774 0.066146545 0.047207665
0.40617236 0.067815073 0.047187444
0.40615699 0.069483601 0.047167223
0.40614161 0.071152128 0.047147006
0.40612623 0.072820656 0.047126785
0.40439695 0.074401081 0.046022005
0.40438154 0.076073185 0.046001744
0.40436614 0.077745289 0.045981478
0.40435073 0.079417393 0.045961216
0.40433532 0.081089497 0.045940951
0.4017489 0.082656272 0.044293594
0.40173343 0.08433374 0.044273265
0.40171799 0.086011209 0.044252936
0.40170252 0.087688677 0.044232607
0.40168706 0.089366153 0.044212278
0.40167159 0.091043621 0.044191949
0.40165615 0.09272109 0.04417162
0.40164068 0.094398558 0.044151291
0.40162522 0.096076027 0.044130966
0.40160978 0.097753502 0.044110637
0.40159431 0.099430971 0.044090308
0.40157884 0.10110844 0.044069979
0.40156341 0.10278591 0.04404965
0.40154794 0.10446338 0.044029322
0.40153247 0.10614085 0.044008993
0.40151703 0.10781832 0.043988664
0.40150157 0.10949579 0.043968339
0.4014861 0.11117326 0.04394801
0.40147063 0.11285073 0.043927681
0.40145519 0.1145282 0.043907352
0.40143973 0.11620567 0.043887023
0.40142426 0.11788314 0.043866694
0.40140882 0.11956061 0.043846365
0.40139335 0.12123808 0.043826036
0.40137789 0.12291555 0.043805711
0.40136245 0.12459302 0.043785382
0.40134698 0.12627049 0.043765053
0.40133151 0.12794796 0.043744724
0.40131605 0.12962542 0.043724395
0.40387306 0.13125265 0.04533305
0.40385765 0.13292475 0.045312785
0.40384224 0.13459685 0.045292523
0.40382683 0.13626896 0.045272257
0.40381142 0.13794106 0.045251995
0.40379602 0.13961317 0.045231733
0.40378061 0.14128527 0.045211468
0.4037652 0.14295737 0.045191206
0.40374979 0.14462948 0.04517094
0.40373439 0.14630158 0.045150679
0.40371898 0.1479737 0.045130417
0.40541893 0.14957295 0.046196662
0.40540355 0.15124148 0.046176441
0.40538818 0.15291001 0.04615622
0.4053728 0.15457854 0.046135999
0.40535742 0.15624706 0.046115778
0.40534207 0.15791559 0.046095561
0.40532669 0.15958412 0.04607534
0.40531132 0.16125265 0.046055119
0.40529594 0.16292118 0.046034899
0.40528056 0.1645897 0.046014678
0.40354946 0.16636685 0.044907518
0.40353405 0.16803895 0.044887252
0.40351865 0.16971105 0.04486699
0.40350324 0.17138316 0.044846728
0.40348783 0.17305526 0.044826463
0.40347242 0.17472737 0.044806201
0.40345702 0.17639948 0.044785935
0.40344161 0.17807159 0.044765674
0.4034262 0.17974369 0.044745412
0.40083686 0.18162701 0.043094214
0.40082139 0.18330447 0.043073885
0.40080595 0.18498194 0.043053556
0.40079048 0.18665941 0.043033227
0.40077502 0.18833688 0.043012898
0.40075955 0.19001435 0.042992573
0.40074411 0.19169183 0.042972244
0.40072864 0.1933693 0.042951915
0.40071318 0.19504677 0.042931587
0.40069774 0.19672422 0.042911258
0.40325671 0.19813684 0.044522513
0.40324131 0.19980894 0.044502247
0.4032259 0.20148106 0.044481985
0.40321049 0.20315316 0.044461723
0.40319508 0.20482527 0.044441458
0.40317968 0.20649736 0.044421196
0.40316427 0.20816946 0.04440093
0.40314883 0.20984156 0.044380669
0.40313342 0.21151367 0.044360407
0.40311801 0.21318577 0.044340141
0.40310261 0.21485789 0.044319879
0.4030872 0.21653 0.044299614
0.40307179 0.2182021 0.044279352
0.40305638 0.2198742 0.044259086
0.40304098 0.22154631 0.044238824
0.40302557 0.22321841 0.044218563
0.40301016 0.22489052 0.044198297
0.40299475 0.22656262 0.044178035
0.40297934 0.22823472 0.04415777
0.40296394 0.22990683 0.044137508
0.40294853 0.23157893 0.044117242
0.40293312 0.23325105 0.04409698
0.40291771 0.23492315 0.044076718
0.40290231 0.23659526 0.044056453
0.4028869 0.23826736 0.044036191
0.40287149 0.23993947 0.044015925
0.40285608 0.24161157 0.043995664
0.40284067 0.24328367 0.043975398
0.40282527 0.24495578 0.043955136
0.40280986 0.24662788 0.043934874
0.40279445 0.24829999 0.043914609
0.40277904 0.24997209 0.043894347
0.40276363 0.25164419 0.043874081
0.40274823 0.25331628 0.043853819
0.40273282 0.2549884 0.043833558
0.40271738 0.25666049 0.043813292
0.40270197 0.25833261 0.04379303
0.40268657 0.26000473 0.043772765
0.40267116 0.26167682 0.043752503
0.40437338 0.26303288 0.044821694
0.404358 0.2647014 0.044801474
0.40262493 0.26669315 0.043691713
0.40260953 0.26836523 0.043671448
0.40259412 0.27003735 0.043651186
0.40257871 0.27170944 0.04363092
0.4025633 0.27338156 0.043610658
0.40426573 0.27471256 0.044680152
0.40425038 0.27638111 0.044659935
0.40423501 0.27804962 0.044639714
0.40421963 0.27971816 0.044619493
0.40420425 0.28138667 0.044599272
0.40418887 0.28305522 0.044579055
0.40417349 0.28472373 0.044558834
0.40415812 0.28639227 0.044538613
0.40414274 0.28806078 0.044518393
0.40412736 0.28972933 0.044498172
0.40411198 0.29139784 0.044477955
0.4040966 0.29306638 0.044457734
0.40408123 0.2947349 0.044437513
0.40234759 0.29679102 0.04332697
0.40233219 0.29846314 0.043306708
0.40231678 0.30013523 0.043286443
0.40230137 0.30180734 0.043266181
0.40228593 0.30347943 0.043245915
0.40227053 0.30515155 0.043225653
0.40225512 0.30682364 0.043205388
0.40223971 0.30849576 0.043185126
0.40394285 0.30975166 0.044255532
0.40220889 0.31183997 0.043144599
0.4039121 0.31308872 0.044215091
0.40389672 0.31475726 0.044194873
0.40388134 0.31642577 0.044174653
0.40386596 0.31809431 0.044154432
0.40385059 0.31976283 0.044134211
0.40383521 0.32143137 0.04411399
0.40381986 0.32309988 0.044093773
0.40380448 0.32476842 0.044073552
0.4037891 0.32643694 0.044053331
0.40377373 0.32810548 0.04403311
0.40375835 0.32977399 0.044012893
0.40374297 0.33144253 0.043992672
0.40630603 0.33241165 0.045609299
0.40629071 0.3340748 0.045589145
0.40627539 0.33573794 0.045568991
0.40626004 0.33740112 0.045548834
0.40624472 0.3390643 0.04552868
0.40622941 0.34072745 0.045508526
0.40621406 0.34239063 0.045488369
0.40619874 0.34405378 0.045468215
0.40618342 0.34571695 0.045448061
0.4061681 0.34738013 0.045427904
0.40787211 0.3485412 0.04649945
0.40785682 0.3502008 0.046479337
0.40784153 0.35186037 0.046459224
0.40782622 0.35351995 0.046439111
0.40781093 0.35517955 0.046419002
0.40779564 0.35683912 0.046398889
0.41035956 0.35771346 0.048016667
0.41034433 0.3593677 0.047996622
0.41032907 0.36102191 0.047976572
0.41031384 0.36267614 0.047956526
0.41029859 0.36433035 0.04793648
0.41028336 0.36598459 0.047916435
0.4102681 0.36763883 0.047896385
0.4076733 0.37011585 0.046237994
0.40765801 0.37177542 0.046217885
0.40764269 0.37343502 0.046197772
0.39599079 -0.099102445 0.039804969
0.39597514 -0.097407095 0.039784424
0.39595953 -0.095711745 0.039763879
0.39594391 -0.094016388 0.039743334
0.39336595 -0.092978977 0.038098395
0.39335027 -0.091278262 0.038077787
0.3933346 -0.089577541 0.038057175
0.39331895 -0.087876827 0.038036566
0.39330328 -0.086176105 0.038015954
0.3932876 -0.084475391 0.037995346
0.39327192 -0.082774669 0.037974734
0.39325625 -0.081073955 0.037954126
0.39324057 -0.079373233 0.037933514
0.3932249 -0.077672519 0.037912905
0.39320922 -0.075971797 0.037892293
0.39319357 -0.074271083 0.037871685
0.3931779 -0.072570354 0.037851073
0.39572519 -0.070281439 0.039455701
0.39570957 -0.068586089 0.039435156
0.3974027 -0.066505745 0.040498227
0.39738712 -0.064813972 0.040477723
0.39737153 -0.063122205 0.040457223
0.39735591 -0.061430417 0.040436722
0.39734033 -0.059738647 0.040416218
0.39732474 -0.058046859 0.040395718
0.39730915 -0.056355089 0.040375214
0.39729357 -0.054663319 0.040354714
0.39727798 -0.052971531 0.04033421
0.39726239 -0.051279761 0.04031371
0.39724681 -0.049587987 0.040293209
0.39723119 -0.047896203 0.040272705
0.3972156 -0.046204433 0.040252205
0.39720002 -0.044512644 0.040231701
0.39718443 -0.042820875 0.040211201
0.39716884 -0.041129105 0.0401907
0.39715326 -0.039437316 0.040170196
0.39713767 -0.037745547 0.040149696
0.39712209 -0.036053773 0.040129192
0.39967054 -0.033886462 0.041735347
0.39965498 -0.032200057 0.04171491
0.39963946 -0.03051365 0.041694473
0.39705971 -0.02928666 0.040047187
0.39960837 -0.02714082 0.0416536
0.39959282 -0.025454411 0.041633163
0.39957729 -0.023768004 0.041612726
0.4021261 -0.021643605 0.043219347
0.40211061 -0.019962562 0.043198977
0.40209511 -0.01828151 0.043178603
0.40207961 -0.016600467 0.043158233
0.40206414 -0.014919416 0.04313786
0.40204865 -0.013238365 0.043117486
0.40203315 -0.011557321 0.043097116
0.40201765 -0.0098762773 0.043076742
0.40200216 -0.008195227 0.043056373
0.40198669 -0.0065141832 0.043035999
0.40368113 -0.0045769098 0.044100802
0.40366566 -0.0028994421 0.044080477
0.40365022 -0.0012219744 0.044060148
0.40363476 0.00045549331 0.044039819
0.40190923 0.0018910499 0.042934142
0.40189373 0.003572101 0.042913768
0.40187824 0.0052531445 0.042893399
0.40186274 0.0069341958 0.042873025
0.40184724 0.0086152395 0.042852655
0.40183178 0.010296283 0.042832281
0.40352654 0.01219779 0.043897521
0.40351108 0.013875257 0.043877192
0.40349564 0.015552726 0.043856863
0.40348017 0.017230192 0.043836534
0.4034647 0.018907668 0.043816205
0.40344927 0.020585136 0.043795876
0.4034338 0.022262603 0.043775547
0.40341833 0.023940079 0.043755222
0.40340289 0.025617547 0.043734893
0.40338743 0.027295014 0.043714564
0.40337196 0.02897249 0.043694235
0.40335649 0.030649958 0.043673906
0.40334105 0.032327425 0.043653578
0.40332559 0.034004893 0.043633249
0.40331012 0.035682369 0.04361292
0.40329468 0.037359837 0.043592595
0.40584534 0.039282139 0.045201663
0.40582994 0.040954243 0.045181401
0.40581453 0.042626347 0.045161135
0.40579912 0.044298455 0.045140874
0.40578371 0.045970563 0.045120608
0.40576831 0.047642667 0.045100346
0.4057529 0.049314771 0.045080084
0.40573749 0.050986875 0.045059819
0.40572208 0.052658983 0.045039557
0.40570667 0.054331087 0.045019291
0.40569127 0.056003191 0.044999029
0.40567586 0.057675295 0.044978764
0.40566045 0.059347402 0.044958502
0.40735626 0.061136235 0.046025116
0.40734088 0.062804766 0.046004895
0.40732551 0.064473294 0.045984674
0.40731013 0.066141821 0.045964457
0.40729475 0.067810349 0.045944236
0.40727937 0.069478877 0.045924015
0.40726399 0.071147405 0.045903794
0.40724862 0.072815932 0.045883574
0.40723324 0.07448446 0.045863356
0.40550634 0.076068453 0.044755869
0.40549093 0.077740557 0.044735603
0.40547553 0.079412661 0.044715341
0.40546012 0.081084765 0.044695079
0.40544471 0.082756869 0.044674814
0.4054293 0.084428973 0.044654552
0.4054139 0.086101077 0.044634286
0.40283093 0.087683931 0.042982738
0.40281546 0.089361399 0.04296241
0.40279999 0.091038875 0.042942084
0.40535226 0.092789501 0.044553235
0.40533686 0.094461605 0.04453297
0.40275362 0.096071281 0.042881098
0.40273818 0.097748749 0.042860769
0.40272272 0.099426225 0.04284044
0.40270725 0.10110369 0.042820111
0.40269181 0.10278116 0.042799782
0.40267634 0.10445863 0.042779457
0.40266088 0.10613611 0.042759128
0.40264544 0.10781357 0.042738799
0.40519819 0.10951055 0.044350598
0.40518278 0.11118265 0.044330336
0.40516737 0.11285476 0.044310074
0.40515196 0.11452686 0.044289809
0.40513656 0.11619897 0.044269547
0.40255266 0.11787839 0.042616829
0.40253723 0.11955586 0.0425965
0.40252176 0.12123333 0.042576171
0.40507489 0.12288739 0.044188492
0.40505949 0.12455949 0.04416823
0.40504408 0.1262316 0.044147965
0.40502867 0.1279037 0.044127703
0.40501326 0.1295758 0.044107437
0.40499786 0.13124791 0.044087175
0.40498245 0.13292001 0.04406691
0.40496704 0.13459213 0.044046648
0.40495163 0.13626423 0.044026386
0.40664896 0.13788854 0.045094993
0.40663359 0.13955706 0.045074772
0.40661821 0.14122559 0.045054551
0.40660283 0.14289412 0.04503433
0.40658745 0.14456265 0.045014113
0.40657207 0.14623117 0.044993892
0.4065567 0.1478997 0.044973671
0.40654132 0.14956823 0.044953451
0.40652597 0.15123676 0.04493323
0.40651059 0.15290529 0.044913013
0.40649521 0.15457381 0.044892792
0.40904942 0.15611163 0.046506532
0.40903407 0.15777479 0.046486378
0.40901875 0.15943795 0.04646622
0.4064337 0.16124792 0.044811912
0.40641832 0.16291645 0.044791691
0.40640295 0.16458498 0.04477147
0.40638757 0.16625351 0.044751249
0.40637219 0.16792203 0.044731032
0.40635681 0.16959056 0.044710811
0.40634143 0.17125909 0.04469059
0.40632606 0.17292762 0.044670369
0.40631071 0.17459615 0.044650149
0.40629533 0.17626467 0.044629931
0.40627995 0.1779332 0.044609711
0.404551 0.17973895 0.043499537
0.40453559 0.18141106 0.043479271
0.40452018 0.18308316 0.043459009
0.40450478 0.18475527 0.043438744
0.40448937 0.18642737 0.043418482
0.40447396 0.18809947 0.04339822
0.40445855 0.18977158 0.043377955
0.40444314 0.19144368 0.043357693
0.40442774 0.19311579 0.043337427
0.40441233 0.19478789 0.043317165
0.40439692 0.19645999 0.0432969
0.40438151 0.1981321 0.043276638
0.40436611 0.1998042 0.043256376
0.4043507 0.20147632 0.04323611
0.40433529 0.20314842 0.043215849
0.40431988 0.20482053 0.043195583
0.40430447 0.20649263 0.043175321
0.40428907 0.20816474 0.043155055
0.40427366 0.20983684 0.043134794
0.40597242 0.21130377 0.044205308
0.40595704 0.2129723 0.044185087
0.40594167 0.21464083 0.044164866
0.40592629 0.21630935 0.044144649
0.40591091 0.21797788 0.044124428
0.40589553 0.21964641 0.044104207
0.40588018 0.22131494 0.044083986
0.4058648 0.22298346 0.044063769
0.40584943 0.22465199 0.044043548
0.40583405 0.22632052 0.044023328
0.40581867 0.22798905 0.044003107
0.40580329 0.22965759 0.043982886
0.40578791 0.23132612 0.043962669
0.40577254 0.23299465 0.043942448
0.40575716 0.23466317 0.043922227
0.40574178 0.2363317 0.043902006
0.4057264 0.23800023 0.043881785
0.40571102 0.23966876 0.043861568
0.40569565 0.24133728 0.043841347
0.40568027 0.24300581 0.043821126
0.40566489 0.24467434 0.043800905
0.40564954 0.24634287 0.043780684
0.40563416 0.2480114 0.043760467
0.40819114 0.24924876 0.045377847
0.4081758 0.25091192 0.045357693
0.40816048 0.2525751 0.045337539
0.40814516 0.25423825 0.045317382
0.40555727 0.25635403 0.043659367
0.4055419 0.25802258 0.043639146
0.40552652 0.25969109 0.043618925
0.40551114 0.26135963 0.043598704
0.40549576 0.26302814 0.043578487
0.40548038 0.26469669 0.043558266
0.40546501 0.2663652 0.043538045
0.40544963 0.26803374 0.043517824
0.40543428 0.26970226 0.043497603
0.4054189 0.2713708 0.043477386
0.40540352 0.27303931 0.043457165
0.40538815 0.27470785 0.043436944
0.40537277 0.27637637 0.043416724
0.40793058 0.27752253 0.045035213
0.40791526 0.27918571 0.045015056
0.40789992 0.28084886 0.044994902
0.4078846 0.28251204 0.044974748
0.40786928 0.28417519 0.04495459
0.40785396 0.28583837 0.044934437
0.40783861 0.28750151 0.044914283
0.40782329 0.28916469 0.044894125
0.40780798 0.29082784 0.044873971
0.40779266 0.29249099 0.044853818
0.40777731 0.29415417 0.04483366
0.40518826 0.2963987 0.043174084
0.40517288 0.29806724 0.043153863
0.40515751 0.29973578 0.043133643
0.40514213 0.3014043 0.043113425
0.40512675 0.30307284 0.043093204
0.40511137 0.30474135 0.043072984
0.40509599 0.3064099 0.043052763
0.40508062 0.30807841 0.043032542
0.40763938 0.30912265 0.044652265
0.40504986 0.31141546 0.042992104
0.40760872 0.31244895 0.044611957
0.4075934 0.31411213 0.044591799
0.40757808 0.31577528 0.044571646
0.40756273 0.31743845 0.044551492
0.40754741 0.3191016 0.044531334
0.4075321 0.32076478 0.04451118
0.40751678 0.32242796 0.044491027
0.40750143 0.32409111 0.044470869
0.40748611 0.32575428 0.044450715
0.40747079 0.32741743 0.044430561
0.40745547 0.32908061 0.044410404
0.40744013 0.33074376 0.04439025
0.40742481 0.33240694 0.044370096
0.40740949 0.33407009 0.044349939
0.40739414 0.33573323 0.044329785
0.40737882 0.33739641 0.044309631
0.40908024 0.338579 0.04538358
0.40906495 0.34023857 0.045363467
0.40904966 0.34189817 0.045343354
0.40903437 0.34355775 0.045323245
0.40901905 0.34521732 0.045303132
0.40900376 0.34687692 0.04528302
0.40898848 0.34853649 0.04526291
0.40897319 0.35019609 0.045242798
0.4089579 0.3518557 0.045222685
0.40894261 0.35351527 0.045202572
0.40892729 0.35517484 0.045182463
0.408912 0.35683444 0.04516235
0.40889671 0.35849401 0.045142237
0.40888143 0.36015362 0.045122128
0.40886614 0.36181319 0.045102015
0.40885085 0.36347279 0.045081902
0.40883553 0.36513236 0.045061793
0.41139612 0.36597991 0.046683885
0.41138089 0.36763412 0.046663839
0.41136563 0.36928833 0.046643794
0.4113504 0.37094256 0.046623748
0.40875909 0.37343031 0.044961233
0.39883694 -0.098654293 0.039627243
0.39711559 -0.097411893 0.038521241
0.39709997 -0.095716543 0.038500696
0.39708433 -0.094021186 0.038480151
0.39706871 -0.092325836 0.038459606
0.39705309 -0.090630479 0.038439061
0.39703748 -0.088935129 0.038418513
0.39702183 -0.087239765 0.038397968
0.39700621 -0.085544422 0.038377423
0.3969906 -0.083849072 0.038356878
0.39697498 -0.082153708 0.038336333
0.39695936 -0.080458365 0.038315788
0.39694372 -0.078763001 0.038295243
0.39863425 -0.076661207 0.039360721
0.39861867 -0.074969418 0.039340217
0.39860308 -0.073277652 0.039319716
0.3985875 -0.071585864 0.039299212
0.39857191 -0.06989409 0.039278712
0.39855632 -0.068202317 0.039258208
0.39854071 -0.066510536 0.039237708
0.40108469 -0.064246662 0.040846672
0.40106913 -0.062560238 0.040826235
0.40105361 -0.060873829 0.040805798
0.40103805 -0.059187423 0.040785361
0.40102252 -0.057500999 0.040764924
0.401007 -0.055814594 0.040744487
0.40099144 -0.054128185 0.04072405
0.40097591 -0.05244178 0.040703613
0.40096036 -0.050755356 0.040683176
0.40094483 -0.04906895 0.040662739
0.40092927 -0.047382541 0.040642302
0.40091375 -0.045696121 0.040621866
0.40089819 -0.044009712 0.040601429
0.40088266 -0.042323302 0.040580992
0.4008671 -0.040636897 0.040560558
0.40085158 -0.038950473 0.040540121
0.40083602 -0.037264068 0.040519685
0.40082049 -0.035577659 0.040499248
0.40080497 -0.033891238 0.040478811
0.40078941 -0.032204829 0.040458374
0.40077388 -0.030518422 0.040437937
0.40075833 -0.028832015 0.0404175
0.4007428 -0.027145592 0.040397063
0.40328789 -0.025010465 0.042007558
0.40327239 -0.023329407 0.041987184
0.40325689 -0.021648364 0.041966815
0.40324143 -0.019967319 0.041946441
0.40322593 -0.018286269 0.041926071
0.40321043 -0.016605224 0.041905697
0.40319493 -0.014924174 0.041885328
0.40317944 -0.013243123 0.041864954
0.40316397 -0.011562079 0.041844584
0.40314847 -0.0098810354 0.04182421
0.40484044 -0.0079366006 0.042891592
0.404825 -0.0062591331 0.042871267
0.40480953 -0.0045816577 0.042850938
0.40479407 -0.0029041902 0.042830609
0.40477863 -0.0012267224 0.04281028
0.40476316 0.00045074531 0.042789951
0.40474769 0.0021282204 0.042769622
0.40302452 0.0035673429 0.041661236
0.40471679 0.0054831561 0.042728964
0.40470132 0.007160631 0.042708639
0.40468585 0.0088380985 0.04268831
0.40467042 0.010515567 0.042667981
0.40465495 0.012193042 0.042647652
0.40463948 0.013870509 0.042627323
0.40462404 0.015547978 0.042606995
0.40460858 0.017225444 0.042586666
0.40459311 0.01890292 0.042566337
0.40457767 0.020580389 0.042546012
0.40456221 0.022257855 0.042525683
0.40454674 0.023935331 0.042505354
0.4045313 0.025612799 0.042485025
0.40451583 0.027290266 0.042464696
0.40450037 0.028967742 0.042444367
0.4044849 0.03064521 0.042424038
0.40446946 0.032322679 0.042403709
0.40445399 0.034000143 0.042383384
0.40443853 0.035677619 0.042363055
0.40698555 0.037605304 0.043976065
0.40697014 0.039277408 0.043955799
0.40695474 0.040949512 0.043935537
0.40693933 0.042621616 0.043915272
0.40692392 0.04429372 0.04389501
0.40690851 0.045965828 0.043874748
0.4068931 0.047637932 0.043854482
0.4068777 0.049310036 0.043834221
0.40686229 0.05098214 0.043813955
0.40684688 0.052654248 0.043793693
0.40683147 0.054326352 0.043773428
0.40681604 0.055998456 0.043753166
0.40680063 0.05767056 0.043732904
0.40849403 0.059462983 0.044802137
0.40847865 0.061131515 0.04478192
0.40846327 0.062800042 0.044761699
0.40844789 0.06446857 0.044741478
0.40843251 0.066137098 0.044721257
0.41098049 0.067959271 0.046335533
0.41096517 0.069622435 0.046315379
0.41094986 0.071285598 0.046295226
0.41093454 0.072948761 0.046275068
0.41091919 0.074611925 0.046254914
0.40834025 0.076148264 0.044599935
0.40832487 0.077816792 0.044579718
0.40830949 0.07948532 0.044559497
0.40829414 0.081153847 0.044539277
0.40827876 0.082822375 0.044519056
0.4065541 0.084424242 0.043408688
0.4065387 0.086096346 0.043388423
0.40652329 0.08776845 0.043368161
0.40650788 0.089440554 0.043347899
0.40649247 0.091112658 0.043327633
0.40647706 0.09278477 0.043307371
0.40646166 0.094456874 0.043287106
0.40644625 0.096128978 0.043266844
0.40643084 0.097801082 0.043246578
0.40641543 0.099473186 0.043226317
0.40640002 0.10114529 0.043206055
0.40638459 0.10281739 0.043185789
0.40636918 0.1044895 0.043165527
0.40635377 0.1061616 0.043145262
0.40633836 0.10783371 0.043125
0.40632296 0.10950582 0.043104734
0.40630755 0.11117792 0.043084472
0.40629214 0.11285003 0.043064211
0.40627673 0.11452213 0.043043945
0.40626132 0.11619423 0.043023683
0.40624592 0.11786634 0.043003418
0.40623051 0.11953844 0.042983156
0.4062151 0.12121055 0.042962894
0.40619969 0.12288266 0.042942628
0.40618429 0.12455476 0.042922366
0.40616888 0.12622686 0.042902101
0.40786362 0.12787265 0.043973114
0.40784824 0.12954117 0.043952893
0.40783286 0.1312097 0.043932673
0.40781748 0.13287823 0.043912455
0.41036746 0.1344858 0.045529332
0.41035211 0.13614896 0.045509178
0.41033679 0.13781212 0.045489021
0.41032147 0.13947529 0.045468867
0.41030613 0.14113845 0.045448713
0.41029081 0.14280161 0.045428555
0.41027549 0.14446478 0.045408402
0.41026017 0.14612794 0.045388248
0.41024482 0.1477911 0.04536809
0.4102295 0.14945427 0.045347936
0.41021419 0.15111743 0.045327783
0.41019887 0.15278059 0.045307625
0.41018352 0.15444376 0.045287471
0.4101682 0.15610692 0.045267317
0.41015288 0.15777008 0.04524716
0.41013756 0.15943325 0.045227006
0.41012222 0.16109641 0.045206852
0.4101069 0.16275957 0.045186695
0.41009158 0.16442274 0.045166541
0.41007623 0.1660859 0.045146387
0.41006091 0.16774906 0.04512623
0.41004559 0.16941223 0.045106076
0.41003028 0.17107539 0.045085922
0.41001493 0.17273855 0.045065764
0.40999961 0.17440172 0.045045611
0.40998429 0.17606488 0.045025457
0.40996897 0.17772804 0.045005299
0.40995362 0.17939121 0.044985145
0.40993831 0.18105437 0.044964992
0.40992299 0.18271753 0.044944834
0.40990764 0.1843807 0.04492468
0.40989232 0.18604386 0.044904526
0.409877 0.18770702 0.044884369
0.40729469 0.18960819 0.043224972
0.40727931 0.19127671 0.043204751
0.40726393 0.19294524 0.04318453
0.40724856 0.19461377 0.043164313
0.40723318 0.1962823 0.043144092
0.4072178 0.19795083 0.043123871
0.40720245 0.19961935 0.04310365
0.40718707 0.20128788 0.043083429
0.4071717 0.20295641 0.043063212
0.40715632 0.20462494 0.043042991
0.40714094 0.20629346 0.04302277
0.40712556 0.20796199 0.04300255
0.40711018 0.20963052 0.042982329
0.40966243 0.21099131 0.0446022
0.40964711 0.21265447 0.044582043
0.40963179 0.21431763 0.044561889
0.40961644 0.2159808 0.044541735
0.40960112 0.21764396 0.044521578
0.4095858 0.21930712 0.044501424
0.40957046 0.22097029 0.04448127
0.40955514 0.22263345 0.044461112
0.41125187 0.22406283 0.045534749
0.41123658 0.22572242 0.045514636
0.41122127 0.227382 0.045494527
0.40949383 0.22928609 0.044380493
0.40947852 0.23094927 0.04436034
0.4094632 0.23261243 0.044340182
0.40944785 0.23427559 0.044320028
0.40943253 0.23593876 0.044299874
0.40941721 0.23760192 0.044279717
0.40940189 0.23926508 0.044259563
0.40938655 0.24092825 0.044239409
0.40937123 0.24259141 0.044219252
0.40935591 0.24425457 0.044199098
0.40934056 0.24591772 0.044178944
0.40932524 0.24758089 0.044158787
0.41102245 0.24895664 0.045233071
0.41100717 0.25061622 0.045212962
0.41099188 0.25227579 0.045192849
0.41097659 0.2539354 0.045172736
0.4109613 0.25559497 0.045152627
0.41094598 0.25725457 0.045132514
0.41093069 0.25891414 0.045112401
0.4109154 0.26057374 0.045092288
0.41090012 0.26223332 0.045072179
0.40917197 0.26421252 0.043957237
0.40915665 0.2658757 0.04393708
0.40914133 0.26753885 0.043916926
0.40912601 0.26920202 0.043896772
0.40911067 0.27086517 0.043876618
0.40909535 0.27252835 0.043856461
0.40908003 0.2741915 0.043836307
0.41077778 0.27551001 0.044911284
0.41076246 0.27716962 0.044891171
0.41074717 0.27882919 0.044871062
0.41073188 0.28048876 0.044850949
0.41071659 0.28214836 0.044830836
0.4107013 0.28380793 0.044810727
0.41068602 0.28546754 0.044790614
0.4106707 0.28712714 0.044770502
0.41065541 0.28878671 0.044750392
0.41064012 0.29044628 0.04473028
0.40891144 0.29248628 0.0436146
0.40889612 0.29414946 0.043594446
0.40888077 0.29581264 0.043574288
0.40886545 0.29747579 0.043554135
0.40885013 0.29913896 0.043533981
0.40883479 0.30080211 0.043513823
0.40881947 0.30246529 0.043493669
0.40880415 0.30412844 0.043473516
0.40878883 0.30579162 0.043453358
0.40877348 0.30745476 0.043433204
0.41047189 0.30870175 0.04450905
0.4104566 0.31036133 0.04448894
0.41044131 0.31202093 0.044468828
0.41042602 0.3136805 0.044448715
0.41041073 0.3153401 0.044428602
0.41039541 0.31699967 0.044408493
0.41038013 0.31865925 0.04438838
0.41036484 0.32031885 0.044368267
0.41034955 0.32197845 0.044348158
0.41033426 0.32363802 0.044328045
0.41031897 0.32529762 0.044307932
0.41030365 0.3269572 0.044287823
0.41028836 0.3286168 0.04426771
0.41027308 0.33027637 0.044247597
0.41025779 0.33193594 0.044227485
0.4102425 0.33359554 0.044207375
0.41022721 0.33525512 0.044187263
0.41021189 0.33691469 0.04416715
0.4101966 0.33857429 0.044147041
0.41018131 0.34023389 0.044126928
0.41016603 0.34189346 0.044106815
0.41015074 0.34355304 0.044086706
0.41013545 0.34521264 0.044066593
0.41012013 0.34687221 0.04404648
0.41267657 0.3477788 0.045671854
0.41266134 0.349433 0.045651808
0.41264609 0.35108721 0.045631759
0.41263086 0.35274142 0.045611713
0.4126156 0.35439566 0.045591667
0.41260037 0.35604987 0.045571622
0.41258511 0.3577041 0.045551572
0.41256988 0.35935831 0.045531526
0.41255462 0.36101255 0.04551148
0.41253939 0.36266679 0.045491435
0.41252413 0.36432099 0.045471385
0.4125089 0.36597523 0.045451339
0.41249365 0.36762944 0.045431294
0.40990603 0.37010643 0.043764915
0.40989074 0.37176603 0.043744806
0.40987545 0.3734256 0.043724693
0.39997497 -0.098659083 0.038366713
0.39995939 -0.09696731 0.038346212
0.39994377 -0.095275536 0.038325708
0.39992818 -0.093583748 0.038305208
0.3999126 -0.091891982 0.038284704
0.39989701 -0.090200208 0.038264204
0.39988142 -0.08850842 0.038243704
0.39986584 -0.086816654 0.0382232
0.39985025 -0.085124865 0.038202699
0.39983466 -0.083433092 0.038182195
0.39981905 -0.081741326 0.038161695
0.39980346 -0.080049537 0.038141195
0.39978787 -0.078357764 0.038120691
0.39977229 -0.076665998 0.03810019
0.3997567 -0.074974209 0.038079686
0.40229681 -0.072683483 0.039692331
0.40228125 -0.070997074 0.039671894
0.40482149 -0.068722434 0.041284692
0.40480599 -0.06704139 0.041264318
0.40479049 -0.06536033 0.041243948
0.40477499 -0.063679285 0.041223574
0.4047595 -0.061998244 0.041203205
0.40474403 -0.0603172 0.041182831
0.40472853 -0.058636155 0.041162461
0.40471303 -0.056955095 0.041142087
0.40469754 -0.055274054 0.041121718
0.40468204 -0.05359301 0.041101344
0.40466657 -0.051911965 0.041080974
0.40465108 -0.050230924 0.0410606
0.40463558 -0.048549864 0.041040231
0.40462008 -0.04686882 0.041019857
0.40630895 -0.0448457 0.042088952
0.40629348 -0.043168232 0.042068623
0.40627801 -0.041490749 0.042048294
0.40626258 -0.03981328 0.042027965
0.40454262 -0.038463589 0.040918
0.40452713 -0.036782544 0.040897626
0.40451166 -0.035101499 0.040877257
0.40449616 -0.033420458 0.040856883
0.40448067 -0.031739399 0.040836513
0.40446517 -0.030058354 0.040816139
0.40444967 -0.028377311 0.04079577
0.4061389 -0.026393523 0.041865338
0.40612343 -0.024716057 0.041845012
0.40610799 -0.023038588 0.041824684
0.40609252 -0.021361113 0.041804355
0.40607706 -0.019683646 0.041784026
0.40606162 -0.018006178 0.041763697
0.40604615 -0.016328702 0.041743368
0.40603068 -0.014651227 0.041723039
0.40601522 -0.012973759 0.04170271
0.40599978 -0.011296292 0.041682385
0.40598431 -0.0096188169 0.041662056
0.40596884 -0.0079413485 0.041641727
0.40595341 -0.006263881 0.041621398
0.40593794 -0.0045864061 0.041601069
0.40592247 -0.0029089381 0.04158074
0.40590703 -0.0012314704 0.041560411
0.40589157 0.00044599731 0.041540083
0.4058761 0.0021234725 0.041519757
0.40586066 0.0038009402 0.041499428
0.4058452 0.0054784082 0.0414791
0.40582973 0.0071558831 0.041458771
0.40581426 0.0088333506 0.041438442
0.40579882 0.010510819 0.041418113
0.40578336 0.012188294 0.041397784
0.40576789 0.013865761 0.041377455
0.40575245 0.015543229 0.04135713
0.40573698 0.017220696 0.041336801
0.40572152 0.018898172 0.041316472
0.40570608 0.020575641 0.041296143
0.40569061 0.022253107 0.041275814
0.40567514 0.023930583 0.041255485
0.40565971 0.025608052 0.041235156
0.40564424 0.027285518 0.041214827
0.40562877 0.028962994 0.041194502
0.40817198 0.030912146 0.042811241
0.40815657 0.03258425 0.042790979
0.40814117 0.034256354 0.042770717
0.40812576 0.035928465 0.042750452
0.40811035 0.037600569 0.04273019
0.40809494 0.039272673 0.042709924
0.40807953 0.040944777 0.042689662
0.40806413 0.042616881 0.042669401
0.40804872 0.044288989 0.042649135
0.40803331 0.045961097 0.042628873
0.4080179 0.047633201 0.042608608
0.4080025 0.049305305 0.042588346
0.40798709 0.050977409 0.04256808
0.40797168 0.052649517 0.042547818
0.40795627 0.054321621 0.042527556
0.40794086 0.055993725 0.042507291
0.40792543 0.057665829 0.042487029
0.40961641 0.059458263 0.043558929
0.40960103 0.061126791 0.043538708
0.41214526 0.062965073 0.045156796
0.41212994 0.064628236 0.045136638
0.41211462 0.066291399 0.045116484
0.41209927 0.067954563 0.04509633
0.41379055 0.069716595 0.046168588
0.41377524 0.071376182 0.046148475
0.41375995 0.073035769 0.046128366
0.41203797 0.074607216 0.045015708
0.41202265 0.076270379 0.044995554
0.41200733 0.077933542 0.0449754
0.41199198 0.079596706 0.044955242
0.41197667 0.081259869 0.044935089
0.40940115 0.082817659 0.043275848
0.40938577 0.084486187 0.043255627
0.40937039 0.086154714 0.043235406
0.40935501 0.087823242 0.043215189
0.40933964 0.08949177 0.043194968
0.40932426 0.091160297 0.043174747
0.40930888 0.092828825 0.043154527
0.4092935 0.094497353 0.043134306
0.40927812 0.096165881 0.043114088
0.40926278 0.097834408 0.043093868
0.4092474 0.099502936 0.043073647
0.40923202 0.10117146 0.043053426
0.40921664 0.10283999 0.043033205
0.40920126 0.10450852 0.043012988
0.40918589 0.10617705 0.042992767
0.40917051 0.10784558 0.042972546
0.40915513 0.10951411 0.042952325
0.40913975 0.11118264 0.042932108
0.40912437 0.11285117 0.042911887
0.409109 0.11451969 0.042891666
0.40909362 0.11618822 0.042871445
0.40907824 0.11785675 0.042851225
0.40906286 0.11952528 0.042831007
0.40904751 0.1211938 0.042810787
0.40903214 0.12286233 0.042790566
0.40901676 0.12453086 0.042770345
0.40900138 0.12619939 0.042750124
0.41154754 0.12782843 0.044370748
0.41153219 0.1294916 0.044350591
0.41151688 0.13115476 0.044330437
0.41150156 0.13281792 0.044310283
0.41319409 0.13444047 0.045384232
0.4131788 0.13610005 0.045364119
0.41316351 0.13775964 0.045344006
0.41314822 0.13941923 0.045323897
0.41313291 0.14107881 0.045303784
0.41311762 0.1427384 0.045283671
0.41310233 0.14439799 0.045263559
0.41308704 0.14605758 0.04524345
0.41307175 0.14771716 0.045223337
0.41305646 0.14937675 0.045203224
0.41304114 0.15103632 0.045183115
0.41302586 0.15269592 0.045163002
0.41301057 0.1543555 0.045142889
0.41299528 0.15601508 0.04512278
0.41297999 0.15767467 0.045102667
0.4129647 0.15933426 0.045082554
0.41294941 0.16099384 0.045062441
0.41293409 0.16265343 0.045042332
0.41291881 0.16431302 0.045022219
0.41290352 0.16597261 0.045002107
0.41288823 0.16763219 0.044981997
0.41287294 0.16929178 0.044961885
0.41285765 0.17095137 0.044941772
0.41284233 0.17261095 0.044921663
0.41282704 0.17427054 0.04490155
0.41281176 0.17593013 0.044881437
0.41279647 0.17758971 0.044861324
0.41278118 0.1792493 0.044841215
0.41276589 0.18090889 0.044821102
0.41275057 0.18256848 0.044800989
0.41102642 0.18437599 0.043685474
0.41271999 0.18588765 0.044760767
0.41099578 0.18770231 0.043645166
0.41098046 0.18936548 0.043625008
0.41096511 0.19102864 0.043604854
0.4109498 0.1926918 0.043584701
0.41093448 0.19435497 0.043564543
0.41091916 0.19601813 0.043544389
0.41090381 0.19768129 0.043524235
0.41088849 0.19934446 0.043504078
0.41087317 0.20100762 0.043483924
0.41085783 0.20267078 0.04346377
0.41084251 0.20433395 0.043443613
0.41082719 0.20599711 0.043423459
0.41081187 0.20766027 0.043403305
0.41079652 0.20932344 0.043383148
