# .PCD v0.7 - Point Cloud Data file format
VERSION 0.7
FIELDS x y z
SIZE 4 4 4
TYPE F F F
COUNT 1 1 1
WIDTH 1392
HEIGHT 1
VIEWPOINT 0 0 0 1 0 0 0
POINTS 1392
DATA ascii
0.73262709 0.19496037 0.039432485
0.73261565 0.19620147 0.039417446
0.73260421 0.19744259 0.039402403
0.73259282 0.19868371 0.039387364
0.73258138 0.19992481 0.039372321
0.73256993 0.20116593 0.039357282
0.73255849 0.20240705 0.039342243
0.73254704 0.20364815 0.039327201
0.7325356 0.20488927 0.039312162
0.73252416 0.20613039 0.039297123
0.73251271 0.2073715 0.03928208
0.73250127 0.20861261 0.039267041
0.73248988 0.20985372 0.039251998
0.73247844 0.21109484 0.039236959
0.732467 0.21233594 0.03922192
0.73245555 0.21357706 0.039206877
0.73244411 0.21481818 0.039191838
0.73243266 0.21605928 0.039176796
0.73242122 0.2173004 0.039161757
0.73240978 0.21854152 0.039146718
0.73239833 0.21978262 0.039131675
0.73238695 0.22102374 0.039116636
0.7323755 0.22226486 0.039101593
0.73236406 0.22350597 0.039086554
0.73235261 0.22474709 0.039071515
0.73234117 0.22598819 0.039056472
0.73232973 0.22722931 0.039041433
0.73231828 0.22847043 0.039026391
0.73298889 0.2295471 0.039752021
0.73297745 0.23078641 0.039737001
0.73296601 0.23202576 0.039721984
0.73295462 0.23326507 0.039706964
0.73294318 0.23450439 0.039691944
0.73293179 0.23574373 0.039676927
0.73292035 0.23698305 0.039661907
0.7329089 0.23822238 0.03964689
0.73289752 0.23946171 0.03963187
0.7322039 0.24088155 0.03887599
0.73219252 0.24212268 0.038860947
0.73218107 0.24336378 0.038845908
0.73216963 0.24460489 0.038830865
0.73147589 0.2460337 0.038074836
0.73146445 0.2472766 0.038059775
0.731453 0.24851951 0.038044713
0.73144156 0.2497624 0.038029648
0.73143011 0.25100532 0.038014587
0.73141867 0.2522482 0.037999526
0.73140717 0.2534911 0.037984464
0.73139572 0.25473401 0.037969403
0.73138428 0.25597692 0.037954338
0.73205525 0.25701603 0.03868046
0.7320438 0.25825715 0.038665421
0.73203236 0.25949824 0.038650382
0.73202091 0.26073936 0.03863534
0.73200947 0.26198047 0.038620301
0.73199809 0.26322159 0.038605262
0.73198664 0.26446271 0.038590219
0.7319752 0.26570383 0.03857518
0.73196375 0.26694494 0.038560137
0.73195231 0.26818606 0.038545098
0.73194087 0.26942715 0.038530059
0.73192942 0.27066827 0.038515016
0.73191798 0.27190939 0.038499977
0.73190653 0.2731505 0.038484935
0.73189515 0.27439162 0.038469896
0.7318837 0.27563274 0.038454857
0.73187226 0.27687383 0.038439814
0.73186082 0.27811494 0.038424775
0.73184937 0.27935606 0.038409736
0.73183793 0.28059718 0.038394693
0.73182648 0.2818383 0.038379654
0.73181504 0.28307942 0.038364612
0.73180366 0.2843205 0.038349573
0.73179221 0.28556162 0.038334534
0.73178077 0.28680274 0.038319491
0.73176932 0.28804386 0.038304452
0.73175788 0.28928497 0.038289409
0.73174644 0.29052609 0.03827437
0.73173499 0.29176721 0.038259331
0.73172355 0.29300833 0.038244288
0.7317121 0.29424942 0.038229249
0.73170072 0.29549053 0.038214207
0.73168927 0.29673165 0.038199168
0.73167783 0.29797277 0.038184129
0.73166639 0.29921389 0.038169086
0.73165494 0.300455 0.038154047
0.7316435 0.30169609 0.038139008
0.73163205 0.30293721 0.038123965
0.73162061 0.30417833 0.038108926
0.73160923 0.30541945 0.038093884
0.73159778 0.30666056 0.038078845
0.73158634 0.30790168 0.038063806
0.73157489 0.30914277 0.038048763
0.73156345 0.31038389 0.038033724
0.731552 0.311625 0.038018681
0.73154056 0.31286612 0.038003642
0.73152912 0.31410724 0.037988603
0.73151767 0.31534836 0.03797356
0.73150629 0.31658944 0.037958521
0.73149484 0.31783056 0.037943479
0.7314834 0.31907168 0.03792844
0.73147196 0.3203128 0.037913401
0.73146051 0.32155392 0.037898358
0.73144907 0.32279503 0.037883319
0.73143762 0.32403615 0.037868276
0.73142618 0.32527727 0.037853237
0.73141474 0.32651836 0.037838198
0.73140335 0.32775947 0.037823156
0.73139191 0.32900059 0.037808117
0.73138046 0.33024171 0.037793078
0.73136902 0.33148283 0.037778035
0.73135757 0.33272395 0.037762996
0.73134613 0.33396503 0.037747953
0.73133469 0.33520615 0.037732914
0.73132324 0.33644727 0.037717875
0.73131186 0.33768839 0.037702832
0.73130041 0.3389295 0.037687793
0.73128897 0.34017062 0.037672751
0.73127753 0.34141171 0.037657712
0.73126608 0.34265283 0.037642673
0.73125464 0.34389395 0.03762763
0.73124319 0.34513506 0.037612591
0.73191535 0.34604362 0.038340256
0.73190391 0.34728295 0.038325235
0.73189247 0.34852228 0.038310219
0.73188108 0.34976161 0.038295198
0.73186964 0.35100091 0.038280182
0.73185825 0.35224023 0.038265161
0.73184681 0.35347956 0.038250145
0.73183537 0.35471889 0.038235124
0.73182398 0.35595819 0.038220104
0.73181254 0.35719755 0.038205087
0.73180115 0.35843688 0.038190067
0.73178971 0.35967618 0.03817505
0.73177826 0.36091551 0.03816003
0.73176688 0.36215484 0.038145013
0.73175544 0.36339417 0.038129993
0.73174405 0.3646335 0.038114972
0.73173261 0.36587283 0.038099956
0.73172116 0.36711213 0.038084935
0.72938478 -0.099763744 0.034679137
0.72937322 -0.098504752 0.034663878
0.73003817 -0.096943431 0.035385001
0.73002654 -0.095686212 0.035369765
0.73001498 -0.094429016 0.035354529
0.73000342 -0.093171798 0.035339296
0.72999179 -0.091914602 0.035324059
0.72998023 -0.090657391 0.035308823
0.72996867 -0.089400172 0.035293587
0.72995704 -0.088142976 0.035278354
0.72994548 -0.086885758 0.035263117
0.72993386 -0.085628562 0.035247881
0.72992229 -0.084371343 0.035232645
0.72991073 -0.083114132 0.035217412
0.72989911 -0.081856929 0.035202175
0.72988755 -0.080599718 0.035186939
0.72987598 -0.079342522 0.035171703
0.72986436 -0.078085303 0.03515647
0.7298528 -0.076828092 0.035141233
0.72984123 -0.075570889 0.035125997
0.73118323 -0.073773414 0.036584232
0.73117167 -0.072519779 0.03656904
0.7311601 -0.071266152 0.036553849
0.73114854 -0.070012517 0.036538657
0.73113704 -0.06875889 0.036523461
0.73112547 -0.067505255 0.03650827
0.73111391 -0.066251628 0.036493078
0.73110235 -0.064997993 0.036477886
0.73109078 -0.063744366 0.036462694
0.73107928 -0.062490728 0.036447503
0.73106772 -0.061237089 0.036432311
0.73105615 -0.059983466 0.036417119
0.73104459 -0.058729827 0.036401924
0.73103303 -0.057476204 0.036386732
0.73102146 -0.056222565 0.03637154
0.73100996 -0.054968942 0.036356349
0.73167545 -0.053473786 0.037078232
0.73166394 -0.052221935 0.037063062
0.73165238 -0.0509701 0.037047893
0.73164088 -0.04971825 0.037032723
0.73162931 -0.048466414 0.03701755
0.73161781 -0.047214564 0.037002381
0.73160625 -0.045962729 0.036987212
0.73159468 -0.044710878 0.036972038
0.73158318 -0.043459043 0.036956869
0.73157161 -0.042207193 0.0369417
0.73156011 -0.040955357 0.036926527
0.73154855 -0.039703507 0.036911357
0.73153704 -0.038451672 0.036896188
0.73152548 -0.037199821 0.036881018
0.73151398 -0.035947986 0.036865845
0.73150241 -0.034696132 0.036850676
0.73149091 -0.033444297 0.036835507
0.73147935 -0.032192446 0.036820333
0.73146778 -0.030940613 0.036805164
0.73145628 -0.029688763 0.036789995
0.73144472 -0.028436925 0.036774825
0.73143321 -0.027185075 0.036759652
0.73142165 -0.02593324 0.036744483
0.73141015 -0.024681389 0.036729313
0.73139858 -0.023429554 0.03671414
0.73138708 -0.022177704 0.036698971
0.73137552 -0.020925868 0.036683802
0.73136401 -0.019674018 0.036668628
0.73135245 -0.018422173 0.036653459
0.73134094 -0.017170331 0.03663829
0.73132938 -0.015918488 0.03662312
0.73131782 -0.014666645 0.036607947
0.73130631 -0.013414802 0.036592778
0.73129475 -0.012162959 0.036577608
0.73263854 -0.010549683 0.038038112
0.73262703 -0.0093014156 0.038022988
0.73261553 -0.0080531491 0.038007859
0.73260403 -0.0068048816 0.037992731
0.73259252 -0.0055566146 0.037977606
0.73258102 -0.0043083471 0.037962478
0.73256952 -0.0030600801 0.037947349
0.73255801 -0.001811813 0.037932225
0.73254651 -0.00056355324 0.037917096
0.732535 0.00068471394 0.037901968
0.7325235 0.0019329811 0.037886843
0.732512 0.0031812482 0.037871715
0.73250049 0.0044295155 0.037856586
0.73248899 0.0056777825 0.037841462
0.73247749 0.0069260499 0.037826333
0.73246598 0.008174317 0.037811209
0.73245448 0.0094225844 0.03779608
0.73244298 0.010670851 0.037780952
0.73243147 0.011919118 0.037765827
0.73241997 0.013167386 0.037750699
0.73240846 0.014415645 0.03773557
0.73239696 0.015663913 0.037720446
0.73238546 0.016912179 0.037705317
0.73237395 0.018160447 0.037690189
0.73236245 0.019408714 0.037675064
0.73235095 0.020656981 0.037659936
0.73233944 0.021905249 0.037644807
0.73232794 0.023153516 0.037629683
0.73231643 0.024401782 0.037614554
0.73230493 0.02565005 0.037599426
0.73229343 0.026898317 0.037584301
0.73228192 0.028146584 0.037569173
0.73227042 0.029394845 0.037554044
0.73225892 0.030643111 0.03753892
0.73224741 0.03189138 0.037523791
0.73223591 0.033139646 0.037508663
0.7322244 0.034387913 0.037493538
0.7322129 0.035636179 0.03747841
0.7322014 0.036884446 0.037463281
0.73286819 0.038243681 0.038186818
0.73285669 0.039490163 0.038171712
0.73284525 0.040736642 0.03815661
0.73283374 0.04198312 0.038141504
0.73282224 0.043229595 0.038126398
0.73281074 0.044476073 0.038111292
0.73279929 0.045722555 0.038096186
0.73414457 0.047165934 0.039558701
0.73413312 0.048408832 0.03954364
0.73412168 0.049651738 0.039528575
0.73411024 0.050894637 0.039513513
0.73409873 0.052137539 0.039498452
0.73408729 0.053380441 0.039483391
0.73407584 0.054623343 0.039468329
0.73474294 0.055952176 0.04019228
0.7347315 0.057193294 0.040177237
0.73472005 0.058434404 0.040162198
0.73470861 0.059675515 0.040147156
0.73469716 0.060916632 0.040132117
0.73468578 0.062157743 0.040117078
0.73467433 0.06339886 0.040102035
0.73398423 0.064566553 0.039347831
0.73397279 0.065809458 0.03933277
0.73396128 0.067052357 0.039317708
0.73394984 0.068295255 0.039302643
0.7339384 0.069538161 0.039287582
0.73392695 0.07078106 0.039272521
0.73391551 0.072023965 0.039257459
0.73390406 0.073266864 0.039242398
0.73389262 0.07450977 0.039227333
0.73388112 0.075752668 0.039212272
0.73454851 0.077051103 0.039936591
0.73453707 0.078292213 0.039921552
0.73452562 0.079533331 0.039906509
0.73451418 0.080774441 0.03989147
0.73450273 0.082015552 0.039876428
0.73449135 0.083256669 0.039861389
0.7344799 0.08449778 0.03984635
0.73446846 0.085738897 0.039831307
0.73445702 0.086980008 0.039816268
0.73444557 0.088221118 0.039801225
0.73443413 0.089462236 0.039786186
0.73442268 0.090703346 0.039771147
0.73441124 0.091944456 0.039756104
0.7343998 0.093185574 0.039741065
0.73438841 0.094426684 0.039726026
0.73437697 0.095667802 0.039710984
0.73436552 0.096908912 0.039695945
0.73435408 0.098150022 0.039680902
0.73434263 0.09939114 0.039665863
0.73433119 0.10063225 0.039650824
0.73431975 0.10187337 0.039635781
0.7343083 0.10311448 0.039620742
0.73429686 0.10435559 0.039605699
0.73428547 0.10559671 0.03959066
0.73427403 0.10683782 0.039575621
0.73426259 0.10807893 0.039560579
0.73425114 0.10932004 0.03954554
0.7342397 0.11056115 0.039530497
0.73422825 0.11180227 0.039515458
0.73421681 0.11304338 0.039500419
0.73420537 0.11428449 0.039485376
0.73419398 0.11552561 0.039470337
0.73418254 0.11676672 0.039455298
0.73417109 0.11800784 0.039440256
0.73415965 0.11924895 0.039425217
0.7341482 0.12049007 0.039410174
0.73481613 0.12172233 0.040135246
0.73480475 0.12296165 0.040120225
0.73479331 0.12420098 0.040105209
0.73478186 0.1254403 0.040090188
0.73477048 0.12667963 0.040075172
0.73475903 0.12791894 0.040060151
0.73474765 0.12915827 0.040045131
0.7347362 0.1303976 0.040030114
0.73404527 0.13166009 0.039274812
0.73403382 0.13290119 0.039259769
0.73402238 0.13414231 0.03924473
0.73401093 0.13538343 0.039229691
0.73399955 0.13662453 0.039214648
0.73398811 0.13786565 0.039199609
0.73397666 0.13910677 0.03918457
0.73396522 0.14034787 0.039169528
0.73395377 0.14158899 0.039154489
0.734622 0.14279085 0.039879926
0.73461056 0.14403017 0.039864905
0.73391944 0.14531232 0.039109368
0.733908 0.14655344 0.039094325
0.73389661 0.14779456 0.039079286
0.73388517 0.14903566 0.039064243
0.73387372 0.15027678 0.039049204
0.73454207 0.15146613 0.039774794
0.73453063 0.15270545 0.039759774
0.73451918 0.15394478 0.039744757
0.7345078 0.15518411 0.039729737
0.73449636 0.15642342 0.03971472
0.73448497 0.15766275 0.0396997
0.73447353 0.15890206 0.039684683
0.73446208 0.16014139 0.039669663
0.7344507 0.16138072 0.039654642
0.73443925 0.16262005 0.039639626
0.73442787 0.16385937 0.039624605
0.73441643 0.1650987 0.039609589
0.73440498 0.16633801 0.039594568
0.7343936 0.16757734 0.039579552
0.73438215 0.16881667 0.039564531
0.73437077 0.17005599 0.039549515
0.73435932 0.17129532 0.039534494
0.73434788 0.17253464 0.039519474
0.7343365 0.17377396 0.039504457
0.73432505 0.17501329 0.039489437
0.73431367 0.17625262 0.03947442
0.73430222 0.17749193 0.0394594
0.73429078 0.17873126 0.03944438
0.73427939 0.17997059 0.039429363
0.73426795 0.18120991 0.039414342
0.73425651 0.18244924 0.039399326
0.73424512 0.18368857 0.039384305
0.73423368 0.1849279 0.039369289
0.73422229 0.18616721 0.039354268
0.73421085 0.18740654 0.039339248
0.7341994 0.18864587 0.039324231
0.73418802 0.1898852 0.039309211
0.73417658 0.19112451 0.039294194
0.73416519 0.19236384 0.039279174
0.73415375 0.19360317 0.039264157
0.7341423 0.19484249 0.039249137
0.73413092 0.19608182 0.039234117
0.73411947 0.19732115 0.0392191
0.73410809 0.19856046 0.03920408
0.73409665 0.19979979 0.039189063
0.7340852 0.20103911 0.039174043
0.73407382 0.20227844 0.039159026
0.73406237 0.20351776 0.039144006
0.73405099 0.20475708 0.039128985
0.73403955 0.20599641 0.039113969
0.7340281 0.20723574 0.039098948
0.73401672 0.20847505 0.039083932
0.73400527 0.20971438 0.039068911
0.73399389 0.21095371 0.039053895
0.73398244 0.21219304 0.039038874
0.733971 0.21343236 0.039023854
0.73395962 0.21467169 0.039008837
0.73394817 0.21591102 0.038993817
0.7332561 0.21729688 0.03823702
0.73392534 0.21838966 0.03896378
0.73323321 0.21977912 0.038206939
0.73322177 0.22102022 0.0381919
0.73389107 0.22210763 0.038918722
0.73387963 0.22334696 0.038903706
0.73386824 0.22458629 0.038888685
0.7338568 0.22582562 0.038873669
0.73384541 0.22706494 0.038858648
0.73383397 0.22830427 0.038843632
0.73382252 0.2295436 0.038828611
0.73381114 0.23078291 0.038813591
0.73516142 0.23168622 0.040282659
0.73310745 0.23343137 0.038041495
0.733096 0.23467249 0.038026452
0.73308456 0.23591359 0.038011413
0.73307312 0.23715471 0.037996374
0.73306167 0.23839583 0.037981331
0.73305023 0.23963693 0.037966292
0.73303878 0.24087805 0.037951253
0.73302734 0.24211916 0.037936211
0.73301595 0.24336027 0.037921172
0.73300451 0.24460138 0.037906129
0.73299307 0.2458425 0.03789109
0.73298162 0.2470836 0.037876051
0.73297018 0.24832472 0.037861008
0.73295873 0.24956584 0.037845969
0.73294729 0.25080696 0.037830926
0.73293585 0.25204805 0.037815887
0.7329244 0.25328919 0.037800848
0.73291302 0.25453028 0.037785806
0.73290157 0.2557714 0.037770767
0.73289013 0.25701252 0.037755724
0.73355985 0.25804806 0.03848318
0.73354846 0.25928739 0.03846816
0.73353702 0.26052672 0.038453143
0.73352563 0.26176605 0.038438123
0.73351419 0.26300538 0.038423106
0.73282146 0.26445919 0.037665483
0.73281008 0.26570031 0.037650444
0.73279864 0.26694143 0.037635401
0.73278719 0.26818255 0.037620362
0.73277575 0.26942363 0.037605323
0.7327643 0.27066478 0.03759028
0.73275286 0.27190587 0.037575241
0.73274142 0.27314699 0.037560198
0.73272997 0.2743881 0.037545159
0.73271859 0.27562922 0.03753012
0.73270714 0.27687031 0.037515078
0.7326957 0.27811146 0.037500039
0.73268425 0.27935255 0.037484996
0.73267281 0.28059366 0.037469957
0.73266137 0.28183478 0.037454918
0.73264992 0.2830759 0.037439875
0.73263848 0.28431699 0.037424836
0.73262703 0.28555813 0.037409797
0.73329717 0.28655255 0.038137749
0.73328578 0.28779185 0.038122728
0.73327434 0.28903118 0.038107712
0.73326296 0.29027051 0.038092691
0.73325151 0.29150984 0.038077671
0.73324007 0.29274917 0.038062654
0.73322868 0.2939885 0.038047634
0.73321724 0.2952278 0.038032617
0.73320585 0.29646713 0.038017597
0.73319441 0.29770645 0.03800258
0.73318297 0.29894578 0.03798756
0.73248982 0.30045149 0.037229311
0.73247838 0.30169258 0.037214268
0.73246694 0.30293372 0.037199229
0.73245549 0.30417481 0.03718419
0.73312587 0.3051424 0.037912466
0.73311448 0.30638173 0.037897449
0.73310304 0.30762106 0.037882429
0.73309165 0.30886036 0.037867408
0.73308021 0.31009972 0.037852392
0.73306876 0.31133902 0.037837371
0.73305738 0.31257835 0.037822355
0.73304594 0.31381768 0.037807334
0.73303455 0.31505701 0.037792318
0.73302311 0.31629631 0.037777297
0.73301166 0.31753567 0.037762277
0.73300028 0.31877497 0.03774726
0.73298883 0.3200143 0.03773224
0.73297739 0.32125363 0.037717223
0.73296601 0.32249296 0.037702203
0.73227251 0.32403263 0.03694354
0.73226106 0.32527375 0.036928501
0.73293173 0.32621092 0.037657145
0.73292029 0.32745025 0.037642129
0.7329089 0.32868958 0.037627108
0.73289746 0.3299289 0.037612092
0.73288608 0.33116823 0.037597071
0.73287463 0.33240756 0.037582055
0.73286319 0.33364689 0.037567034
0.7328518 0.33488619 0.037552014
0.73284036 0.33612552 0.037536997
0.73282897 0.33736485 0.037521977
0.73281753 0.33860418 0.03750696
0.73280609 0.33984348 0.03749194
0.7327947 0.34108281 0.037476923
0.73278326 0.34232214 0.037461903
0.73277187 0.34356144 0.037446883
0.73276043 0.3448008 0.037431866
0.73274899 0.3460401 0.037416846
0.7327376 0.34727943 0.037401829
0.73272616 0.34851876 0.037386809
0.73271471 0.34975809 0.037371792
0.73270333 0.35099742 0.037356772
0.73269188 0.35223675 0.037341751
0.73404539 0.35278952 0.038815066
0.734034 0.35402527 0.038800091
0.73402262 0.355261 0.038785115
0.73401123 0.35649675 0.038770139
0.73399985 0.35773253 0.038755164
0.73398846 0.35896826 0.038740188
0.73397708 0.36020401 0.038725212
0.73396569 0.36143976 0.038710237
0.73395431 0.36267549 0.038695261
0.73394293 0.36391127 0.038680285
0.73393154 0.36514699 0.03866531
0.73255485 0.36710861 0.037161529
0.7322576 -0.098849595 0.035954002
0.73224604 -0.09759596 0.035938811
0.73223448 -0.096342333 0.035923619
0.73222291 -0.095088698 0.035908427
0.73221135 -0.093835071 0.035893235
0.73219979 -0.092581436 0.035878044
0.73218828 -0.091327794 0.035862852
0.73217672 -0.090074174 0.035847656
0.73216516 -0.088820532 0.035832465
0.73215359 -0.087566912 0.035817273
0.73214203 -0.08631327 0.035802081
0.73213053 -0.08505965 0.035786889
0.73211896 -0.083806008 0.035771698
0.7321074 -0.082552388 0.035756506
0.73209584 -0.081298746 0.035741314
0.73208427 -0.080045126 0.035726123
0.73207271 -0.078791484 0.035710927
0.73206121 -0.07753785 0.035695735
0.73204964 -0.076284222 0.035680544
0.73271364 -0.074758671 0.036403399
0.73270214 -0.073506817 0.03638823
0.73269057 -0.072254986 0.036373056
0.73267907 -0.071003132 0.036357887
0.73266751 -0.0697513 0.036342718
0.732656 -0.068499446 0.036327545
0.73264444 -0.067247614 0.036312375
0.73263294 -0.06599576 0.036297206
0.73262137 -0.064743929 0.036282033
0.73260987 -0.063492075 0.036266863
0.7325983 -0.062240239 0.036251694
0.73258674 -0.060988389 0.036236525
0.73257524 -0.059736554 0.036221351
0.73256367 -0.058484703 0.036206182
0.73255217 -0.057232868 0.036191013
0.73254061 -0.055981018 0.03617584
0.7325291 -0.054729167 0.03616067
0.73251754 -0.053477332 0.036145501
0.73250604 -0.052225478 0.036130331
0.73249447 -0.050973643 0.036115158
0.7338348 -0.049249478 0.037576981
0.7338233 -0.048001219 0.037561856
0.7338118 -0.046752941 0.037546728
0.73380029 -0.045504682 0.037531599
0.73378879 -0.044256408 0.037516475
0.73377728 -0.043008149 0.037501346
0.73376578 -0.041759875 0.037486218
0.73375428 -0.040511616 0.037471093
0.73374277 -0.039263338 0.037455965
0.73373127 -0.038015079 0.037440836
0.73371977 -0.03676682 0.037425712
0.73370826 -0.035518546 0.037410583
0.73369676 -0.034270287 0.037395455
0.73368526 -0.033022013 0.03738033
0.73367375 -0.03177375 0.037365202
0.73366225 -0.030525476 0.037350073
0.7336508 -0.029277217 0.037334949
0.7336393 -0.028028943 0.03731982
0.7336278 -0.026780682 0.037304692
0.73361629 -0.025532408 0.037289567
0.73360479 -0.024284149 0.037274439
0.73359329 -0.023035888 0.03725931
0.73358178 -0.021787614 0.037244186
0.73357028 -0.020539355 0.037229057
0.73355877 -0.019291079 0.037213929
0.73354727 -0.018042812 0.037198804
0.73353577 -0.016794546 0.037183676
0.73352426 -0.015546286 0.037168551
0.73351276 -0.014298018 0.037153423
0.73350126 -0.013049751 0.037138294
0.73348975 -0.011801483 0.03712317
0.73347825 -0.010553217 0.037108041
0.73346674 -0.0093049491 0.037092913
0.73413169 -0.0078795403 0.037816983
0.73412019 -0.0066330614 0.037801877
0.73410869 -0.0053865821 0.037786771
0.73409724 -0.0041401028 0.037771665
0.73408574 -0.0028936237 0.037756559
0.73407423 -0.0016471444 0.037741452
0.73406273 -0.00040066519 0.03772635
0.73337471 0.0006811808 0.036971897
0.73336321 0.001929448 0.036956768
0.73335171 0.0031777152 0.036941644
0.7333402 0.0044259825 0.036926515
0.7333287 0.0056742495 0.036911387
0.7333172 0.0069225165 0.036896262
0.73330569 0.0081707835 0.036881134
0.73397088 0.0095711537 0.037605505
0.73395938 0.010817633 0.037590399
0.73394787 0.012064112 0.037575293
0.73393643 0.013310592 0.037560187
0.73392493 0.014557071 0.037545081
0.73391342 0.015803549 0.037529979
0.73390198 0.01705003 0.037514873
0.73389047 0.018296501 0.037499767
0.73387897 0.019542981 0.037484661
0.73386747 0.020789459 0.037469555
0.73385602 0.02203594 0.037454449
0.73384452 0.023282418 0.037439346
0.73383301 0.024528898 0.03742424
0.73382157 0.025775377 0.037409134
0.73381007 0.027021855 0.037394028
0.73379856 0.028268328 0.037378922
0.73378706 0.029514806 0.037363816
0.73377562 0.030761287 0.03734871
0.73376411 0.032007765 0.037333608
0.73375261 0.033254243 0.037318502
0.73374116 0.034500726 0.037303396
0.7350837 0.035976302 0.038768191
0.73507226 0.037219197 0.03875313
0.73506081 0.038462099 0.038738068
0.73504937 0.039705005 0.038723003
0.73571503 0.041055307 0.039448023
0.73570365 0.042296413 0.03943298
0.7356922 0.043537527 0.039417941
0.73568076 0.044778645 0.039402902
0.73499209 0.045919508 0.038647693
0.73498064 0.047162417 0.038632631
0.7349692 0.048405316 0.03861757
0.73563498 0.049743097 0.039342739
0.73562354 0.050984215 0.0393277
0.73561209 0.052225325 0.039312657
0.73560071 0.053466436 0.039297618
0.73558927 0.054707553 0.039282575
0.73557782 0.055948664 0.039267536
0.73556638 0.057189781 0.039252497
0.73555493 0.058430891 0.039237455
0.73554349 0.059672002 0.039222416
0.73553205 0.060913119 0.039207377
0.7355206 0.06215423 0.039192334
0.73550922 0.063395344 0.039177295
0.73549777 0.064636454 0.039162252
0.73548633 0.065877572 0.039147213
0.73547488 0.067118682 0.039132174
0.73546344 0.0683598 0.039117131
0.735452 0.06960091 0.039102092
0.73544055 0.07084202 0.03908705
0.73542911 0.072083138 0.039072011
0.73541766 0.073324248 0.039056972
0.73540628 0.074565366 0.039041929
0.73539484 0.075806476 0.03902689
0.73538339 0.077047586 0.039011847
0.73604953 0.078342453 0.039737493
0.73603815 0.079581775 0.039722476
0.7360267 0.080821097 0.039707456
0.73601526 0.082060419 0.039692435
0.73600388 0.083299749 0.039677419
0.73599243 0.084539071 0.039662398
0.73598105 0.0857784 0.039647382
0.7359696 0.087017722 0.039632361
0.73595816 0.088257045 0.039617341
0.73594677 0.089496374 0.039602324
0.73593533 0.090735696 0.039587304
0.73592395 0.091975026 0.039572287
0.7359125 0.093214348 0.039557267
0.73590106 0.09445367 0.03954225
0.73588967 0.095693 0.03952723
0.73587823 0.096932322 0.03951221
0.73586679 0.098171644 0.039497193
0.7358554 0.099410973 0.039482173
0.73584396 0.1006503 0.039467156
0.73583257 0.10188962 0.039452136
0.73582113 0.10312895 0.039437119
0.73580968 0.10436827 0.039422099
0.7357983 0.1056076 0.039407078
0.73578686 0.10684692 0.039392062
0.73577547 0.10808624 0.039377041
0.73576403 0.10932557 0.039362025
0.73575258 0.11056489 0.039347004
0.7357412 0.11180422 0.039331988
0.73572975 0.11304355 0.039316967
0.73571837 0.11428287 0.039301947
0.73570693 0.11552219 0.03928693
0.73569548 0.11676152 0.03927191
0.7356841 0.11800084 0.039256893
0.73567265 0.11924016 0.039241873
0.73566127 0.12047949 0.039226856
0.73564982 0.12171882 0.039211836
0.73563838 0.12295815 0.039196815
0.735627 0.12419747 0.039181799
0.73561555 0.1254368 0.039166778
0.73560417 0.12667611 0.039151762
0.73559272 0.12791544 0.039136741
0.73558128 0.12915477 0.039121725
0.73556989 0.13039409 0.039106704
0.73555845 0.13163342 0.039091684
0.73554701 0.13287275 0.039076667
0.73553562 0.13411206 0.039061647
0.73552418 0.13535139 0.03904663
0.73551279 0.13659072 0.03903161
0.73550135 0.13783005 0.039016593
0.7354899 0.13906936 0.039001573
0.73547852 0.14030869 0.038986553
0.73546708 0.14154801 0.038971536
0.73545569 0.14278734 0.038956515
0.73544425 0.14402667 0.038941499
0.7354328 0.145266 0.038926478
0.73542142 0.14650531 0.038911462
0.73540998 0.14774464 0.038896441
0.73539859 0.14898397 0.038881421
0.73538715 0.15022328 0.038866404
0.7353757 0.15146261 0.038851384
0.73536432 0.15270194 0.038836367
0.73535287 0.15394126 0.038821347
0.73534149 0.15518059 0.03880633
0.73533005 0.15641992 0.03879131
0.7353186 0.15765923 0.03877629
0.73530722 0.15889856 0.038761273
0.73665315 0.16000932 0.04023049
0.73664176 0.16124506 0.040215515
0.73663038 0.16248082 0.040200539
0.736619 0.16371657 0.040185563
0.73660761 0.16495232 0.040170588
0.73659623 0.16618806 0.040155612
0.73658484 0.16742381 0.040140636
0.73657346 0.16865955 0.040125661
0.73656207 0.16989531 0.040110685
0.73655069 0.17113106 0.040095709
0.7365393 0.1723668 0.040080734
0.73517013 0.17377046 0.038581047
0.73515874 0.17500979 0.038566027
0.7351473 0.17624912 0.03855101
0.73513591 0.17748843 0.03853599
0.73648232 0.17854555 0.040005859
0.73647094 0.17978129 0.039990883
0.73645955 0.18101704 0.039975908
0.73644817 0.18225279 0.039960932
0.73643678 0.18348853 0.039945956
0.7364254 0.18472429 0.039930981
0.73641402 0.18596002 0.039916005
0.73640263 0.18719578 0.039901029
0.73639125 0.18843153 0.039886054
0.73637986 0.18966728 0.039871078
0.73636848 0.19090302 0.039856102
0.73635709 0.19213878 0.039841127
0.73634571 0.19337451 0.039826151
0.73633432 0.19461027 0.039811175
0.73496455 0.1960783 0.03831071
0.73495317 0.19731763 0.03829569
0.73494172 0.19855696 0.038280673
0.73493034 0.19979629 0.038265653
0.73491889 0.2010356 0.038250633
0.73490745 0.20227493 0.038235616
0.73489606 0.20351426 0.038220596
0.73624319 0.20449625 0.039691374
0.7362318 0.205732 0.039676398
0.73622042 0.20696776 0.039661422
0.73620903 0.20820349 0.039646447
0.73619765 0.20943925 0.039631471
0.73618627 0.210675 0.039616495
0.73617488 0.21191074 0.03960152
0.7361635 0.21314649 0.039586544
0.73615211 0.21438223 0.039571568
0.73614073 0.21561798 0.039556596
0.73612934 0.21685374 0.039541621
0.7361179 0.21808949 0.039526645
0.73610651 0.21932523 0.039511669
0.73609513 0.22056098 0.039496694
0.73608375 0.22179674 0.039481718
0.73607236 0.22303249 0.039466742
0.73606098 0.22426823 0.039451767
0.73401093 0.22598118 0.037206996
0.73399949 0.22722229 0.037191954
0.73398805 0.2284634 0.037176915
0.73465621 0.22954008 0.037905201
0.73464477 0.23077941 0.037890185
0.73463339 0.23201874 0.037875164
0.73462194 0.23325805 0.037860148
0.73461056 0.23449738 0.037845127
0.73459911 0.23573671 0.037830107
0.73458767 0.23697603 0.03781509
0.73457628 0.23821536 0.03780007
0.73456484 0.23945469 0.037785053
0.73455346 0.240694 0.037770033
0.73454201 0.24193333 0.037755016
0.73453057 0.24317266 0.037739996
0.73451918 0.24441199 0.037724975
0.73450774 0.2456513 0.037709959
0.73449636 0.24689062 0.037694938
0.73448491 0.24812996 0.037679922
0.73447347 0.24936928 0.037664901
0.73446208 0.25060859 0.037649885
0.73445064 0.25184792 0.037634864
0.73443925 0.25308725 0.037619844
0.73442781 0.25432658 0.037604827
0.73441637 0.25556591 0.037589807
0.73440498 0.25680524 0.03757479
0.73439354 0.25804454 0.03755977
0.73438215 0.25928387 0.037544753
0.73437071 0.2605232 0.037529733
0.73435926 0.26176253 0.037514713
0.73434788 0.26300186 0.037499696
0.73433644 0.26424119 0.037484676
0.73432499 0.26548049 0.037469659
0.73431361 0.26671985 0.037454639
0.73430216 0.26795915 0.037439622
0.73429078 0.26919848 0.037424602
0.73427933 0.27043781 0.037409581
0.73426789 0.27167714 0.037394565
0.73425651 0.27291644 0.037379544
0.73424506 0.2741558 0.037364528
0.73423368 0.2753951 0.037349507
0.73422223 0.27663442 0.037334491
0.73421079 0.27787375 0.03731947
0.7341994 0.27911308 0.03730445
0.73418796 0.28035241 0.037289433
0.73417658 0.28159171 0.037274413
0.73416513 0.28283104 0.037259396
0.73415369 0.28407037 0.037244376
0.7341423 0.2853097 0.037229359
0.73413086 0.28654903 0.037214339
0.73411947 0.28778836 0.037199318
0.73410803 0.28902766 0.037184302
0.73409659 0.29026699 0.037169281
0.7340852 0.29150632 0.037154265
0.73407376 0.29274565 0.037139244
0.73406237 0.29398498 0.037124228
0.73405093 0.29522431 0.037109207
0.73403949 0.29646361 0.037094187
0.7340281 0.29770297 0.03707917
0.73401666 0.29894227 0.03706415
0.73400521 0.3001816 0.037049133
0.73399383 0.30142093 0.037034113
0.73398238 0.30266026 0.037019096
0.733971 0.30389956 0.037004076
0.73395956 0.30513892 0.036989056
0.73530942 0.30582762 0.038463388
0.73529804 0.30706334 0.038448412
0.73528665 0.30829909 0.038433436
0.73527521 0.30953485 0.038418461
0.73526382 0.3107706 0.038403485
0.73525244 0.31200635 0.038388509
0.73524106 0.31324211 0.038373534
0.73522967 0.31447783 0.038358562
0.73521829 0.31571358 0.038343586
0.73384535 0.31753215 0.03683887
0.73383391 0.31877148 0.03682385
0.73382252 0.32001078 0.036808833
0.73381108 0.32125011 0.036793813
0.7337997 0.32248944 0.036778793
0.73378825 0.32372877 0.036763776
0.73377681 0.3249681 0.036748756
0.73376542 0.32620743 0.036733739
0.73511583 0.32683533 0.038208805
0.73510444 0.32807109 0.038193829
0.73509306 0.32930681 0.038178854
0.73508167 0.33054256 0.038163878
0.73507023 0.33177832 0.038148902
0.73505884 0.33301407 0.03813393
0.73504746 0.33424982 0.038118955
0.73503608 0.33548555 0.038103979
0.73502469 0.3367213 0.038089003
0.73501331 0.33795705 0.038074028
0.73500192 0.33919281 0.038059052
0.73499054 0.34042856 0.038044076
0.73497915 0.34166428 0.038029101
0.73496777 0.34290004 0.038014125
0.73495638 0.34413579 0.037999149
0.734945 0.34537154 0.037984174
0.73493361 0.3466073 0.037969198
0.73492223 0.34784302 0.037954222
0.73491085 0.34907877 0.037939247
0.73489946 0.35031453 0.037924271
0.73488808 0.35155028 0.037909299
0.73555791 0.35244277 0.038639821
0.73554653 0.35367674 0.038624868
0.7355352 0.3549107 0.038609914
0.73552382 0.35614467 0.038594961
0.73551244 0.35737863 0.038580008
0.73550105 0.35861257 0.038565055
0.73548967 0.35984653 0.038550101
0.73547834 0.36108047 0.038535148
0.73546696 0.36231446 0.038520195
0.73545557 0.36354843 0.038505238
0.73544419 0.36478236 0.038490284
0.7347514 0.36637926 0.037729591
0.73107862 -0.099770866 0.032803006
0.731067 -0.098511882 0.032787751
0.73172957 -0.096950546 0.033511538
0.73171794 -0.095693335 0.033496302
0.73170638 -0.094436131 0.033481069
0.73371726 -0.092288017 0.035683047
0.7337057 -0.091036163 0.035667878
0.7336942 -0.089784332 0.035652705
0.73368263 -0.088532478 0.035637535
0.73367113 -0.087280646 0.035622366
0.73365957 -0.086028792 0.035607193
0.73364806 -0.08477696 0.035592023
0.7336365 -0.083525106 0.035576854
0.73362499 -0.082273267 0.035561685
0.73361343 -0.081021421 0.035546511
0.73360193 -0.079769582 0.035531342
0.73359036 -0.078517735 0.035516173
0.73357886 -0.077265896 0.035501
0.7335673 -0.076014049 0.03548583
0.73355573 -0.07476221 0.035470661
0.73354423 -0.073510364 0.035455488
0.73353267 -0.072258525 0.035440318
0.73352116 -0.071006678 0.035425149
0.7335096 -0.069754839 0.03540998
0.7334981 -0.068502992 0.035394806
0.73483557 -0.066728748 0.036858689
0.73482406 -0.065480478 0.036843561
0.73481256 -0.064232215 0.036828436
0.73480105 -0.062983945 0.036813308
0.7334404 -0.062243782 0.035318956
0.73342884 -0.060991932 0.035303786
0.73476654 -0.059239149 0.036767926
0.73475504 -0.057990871 0.036752798
0.73474354 -0.056742612 0.036737673
0.7333827 -0.05598456 0.035243101
0.7333712 -0.05473271 0.035227932
0.73470902 -0.05299782 0.036692291
0.73469752 -0.051749542 0.036677163
0.73468602 -0.050501283 0.036662035
0.73467451 -0.049253009 0.03664691
0.73466301 -0.04800475 0.036631782
0.73465151 -0.046756476 0.036616653
0.73464 -0.045508217 0.036601529
0.7346285 -0.044259939 0.0365864
0.73461699 -0.04301168 0.036571272
0.73460549 -0.041763406 0.036556147
0.73459399 -0.040515147 0.036541019
0.73458248 -0.039266873 0.03652589
0.73457098 -0.038018614 0.036510766
0.73455948 -0.036770351 0.036495637
0.73454797 -0.035522077 0.036480509
0.73453647 -0.034273818 0.036465384
0.73452497 -0.033025544 0.036450256
0.73451346 -0.031777285 0.036435131
0.73450196 -0.030529009 0.036420003
0.73449045 -0.02928075 0.036404874
0.73447895 -0.028032476 0.036389749
0.73446745 -0.026784215 0.036374621
0.73445594 -0.025535941 0.036359493
0.73444444 -0.02428768 0.036344368
0.73443294 -0.023039421 0.03632924
0.73442143 -0.021791147 0.036314111
0.73440993 -0.020542886 0.036298987
0.73439842 -0.019294612 0.036283858
0.73438692 -0.018046346 0.03626873
0.73437542 -0.016798077 0.036253605
0.73436391 -0.015549818 0.036238477
0.73435241 -0.014301552 0.036223348
0.73434091 -0.013053284 0.036208224
0.7350046 -0.011622499 0.036933564
0.73499316 -0.010376019 0.036918458
0.73498166 -0.009129541 0.036903352
0.73632067 -0.0075287758 0.038369291
0.73630923 -0.0062858728 0.038354229
0.73629779 -0.0050429692 0.038339168
0.73628634 -0.0038000657 0.038324103
0.73627484 -0.0025571699 0.038309041
0.73626339 -0.0013142665 0.03829398
0.73625195 -7.136308e-05 0.038278919
0.73488975 0.00084227853 0.036782507
0.73487824 0.0020887577 0.036767405
0.7348668 0.003335237 0.036752298
0.73485529 0.0045817164 0.036737192
0.73484379 0.0058281957 0.036722086
0.73483235 0.0070746746 0.03670698
0.73482084 0.0083211539 0.036691874
0.73616034 0.0098718489 0.03815842
0.73614889 0.011114753 0.038143359
0.73613745 0.012357648 0.038128298
0.73612595 0.013600552 0.038113233
0.7361145 0.014843456 0.038098171
0.73610306 0.016086359 0.03808311
0.73676723 0.017470643 0.03880905
0.73675579 0.018711751 0.038794007
0.73674434 0.019952867 0.038778968
0.7367329 0.021193981 0.038763929
0.73672152 0.02243509 0.038748886
0.73671007 0.023676205 0.038733847
0.73669863 0.024917321 0.038718805
0.73668718 0.02615843 0.038703766
0.73667574 0.027399544 0.038688727
0.7366643 0.02864066 0.038673684
0.73665285 0.029881775 0.038658645
0.73664141 0.031122884 0.038643602
0.73663002 0.032364 0.038628563
0.73661858 0.033605114 0.038613524
0.73660713 0.034846224 0.038598482
0.73659569 0.036087338 0.038583443
0.73658425 0.037328452 0.0385684
0.7365728 0.038569562 0.038553361
0.73656136 0.039810676 0.038538322
0.73654991 0.041051794 0.038523279
0.73653847 0.0422929 0.03850824
0.73652709 0.043534014 0.038493201
0.73651564 0.044775132 0.038478158
0.7365042 0.046016242 0.038463119
0.73649275 0.047257356 0.038448077
0.73648131 0.048498474 0.038433038
0.73646986 0.049739584 0.038417999
0.73645842 0.050980702 0.038402956
0.73644698 0.052221812 0.038387917
0.73643553 0.053462923 0.038372874
0.73642415 0.05470404 0.038357835
0.7364127 0.055945151 0.038342796
0.73640126 0.057186268 0.038327754
0.73706597 0.058509745 0.039054383
0.73705453 0.059749071 0.039039366
0.73704308 0.060988393 0.039024346
0.7370317 0.062227722 0.039009329
0.73702025 0.063467048 0.038994309
0.73700887 0.06470637 0.038979292
0.73699743 0.0659457 0.038964272
0.73698598 0.067185022 0.038949251
0.7369746 0.068424344 0.038934235
0.73696315 0.069663666 0.038919214
0.73627543 0.070838511 0.03816231
0.73694032 0.072142318 0.038889177
0.73692888 0.07338164 0.03887416
0.7369175 0.07462097 0.03885914
0.73690605 0.075860292 0.03884412
0.73689461 0.077099614 0.038829103
0.73688322 0.078338943 0.038814083
0.73687178 0.079578266 0.038799066
0.73686039 0.080817588 0.038784046
0.73684895 0.082056917 0.038769029
0.73819047 0.083389439 0.040238224
0.73817909 0.084625192 0.040223248
0.7381677 0.085860938 0.040208273
0.73815632 0.087096684 0.040193297
0.73814493 0.08833243 0.040178321
0.73813349 0.089568183 0.040163346
0.73812211 0.090803929 0.04014837
0.73811072 0.092039675 0.040133394
0.73809934 0.093275428 0.040118419
0.73808795 0.094511174 0.040103443
0.73807657 0.09574692 0.040088467
0.73806518 0.096982673 0.040073492
0.7380538 0.098218419 0.040058516
0.73804241 0.099454165 0.04004354
0.73803103 0.10068992 0.040028565
0.73801965 0.10192566 0.040013593
0.73800826 0.10316141 0.039998617
0.73799688 0.10439716 0.039983641
0.73798549 0.10563291 0.039968666
0.73797411 0.10686865 0.03995369
0.7366091 0.10808273 0.038453635
0.73659772 0.10932206 0.038438614
0.73658627 0.11056139 0.038423594
0.73657483 0.11180072 0.038408577
0.73656344 0.11304004 0.038393557
0.73790574 0.11428314 0.039863836
0.73789436 0.11551889 0.03984886
0.73788297 0.11675464 0.039833885
0.73787159 0.11799039 0.039818909
0.7378602 0.11922614 0.039803933
0.73784882 0.12046188 0.039788958
0.73783743 0.12169763 0.039773986
0.73782605 0.12293338 0.03975901
0.73781466 0.12416913 0.039744034
0.73780328 0.12540488 0.039729059
0.7377919 0.12664063 0.039714083
0.73778051 0.12787637 0.039699107
0.73776913 0.12911212 0.039684132
0.73775774 0.13034786 0.039669156
0.73774636 0.13158362 0.03965418
0.73773497 0.13281937 0.039639205
0.73772359 0.13405511 0.039624229
0.73771214 0.13529086 0.039609253
0.73770076 0.13652661 0.039594278
0.73768938 0.13776235 0.039579302
0.73767799 0.13899811 0.039564326
0.73766661 0.14023384 0.039549351
0.73765522 0.1414696 0.039534379
0.73764384 0.14270535 0.039519403
0.73763245 0.1439411 0.039504427
0.73762107 0.14517684 0.039489452
0.73760968 0.1464126 0.039474476
0.7375983 0.14764835 0.0394595
0.73758692 0.14888409 0.039444525
0.73757553 0.15011984 0.039429549
0.73756415 0.15135558 0.039414573
0.73755276 0.15259133 0.039399598
0.73754138 0.15382709 0.039384622
0.73752999 0.15506282 0.039369646
0.73751861 0.15629858 0.039354671
0.73750716 0.15753433 0.039339695
0.73817325 0.15870759 0.040068153
0.73816192 0.15994154 0.0400532
0.73815054 0.1611755 0.040038247
0.73813915 0.16240947 0.04002329
0.73812777 0.16364342 0.040008336
0.73811638 0.16487738 0.039993383
0.73810506 0.16611135 0.03997843
0.73809367 0.1673453 0.039963476
0.73808229 0.16857927 0.039948523
0.73807091 0.16981323 0.03993357
0.73805958 0.17104718 0.039918616
0.7380482 0.17228115 0.039903659
0.73735917 0.17359905 0.039145015
0.73734778 0.1748348 0.03913004
0.7373364 0.17607056 0.039115064
0.73732501 0.17730629 0.039100088
0.73731363 0.17854205 0.039085113
0.73797995 0.17968491 0.039813939
0.73796856 0.18091886 0.039798986
0.73795724 0.18215282 0.039784033
0.73794585 0.18338679 0.039769076
0.73793447 0.18462074 0.039754122
0.73792309 0.1858547 0.039739169
0.7379117 0.18708865 0.039724216
0.73790038 0.18832262 0.039709263
0.73788899 0.18955658 0.039694309
0.73923343 0.19057257 0.041167378
0.73922211 0.19180295 0.04115247
0.7378549 0.19325846 0.039649446
0.73784351 0.19449241 0.039634492
0.73715419 0.19584252 0.038875457
0.7371428 0.19707827 0.038860481
0.73713142 0.19831401 0.038845506
0.73712003 0.19954976 0.038830534
0.73710865 0.20078552 0.038815558
0.73709726 0.20202126 0.038800582
0.73708582 0.20325701 0.038785607
0.73707443 0.20449275 0.038770631
0.73706305 0.2057285 0.038755655
0.73772979 0.20683202 0.039484955
0.7377184 0.20806597 0.039470002
0.73770702 0.20929994 0.039455049
0.73769569 0.21053389 0.039440095
0.73768431 0.21176785 0.039425142
0.73767292 0.21300182 0.039410189
0.73766154 0.21423578 0.039395232
0.73765022 0.21546973 0.039380278
0.73763883 0.2167037 0.039365325
0.73762745 0.21793765 0.039350372
0.73490298 0.21977209 0.036357455
0.73489153 0.2210132 0.036342416
0.73555839 0.22210062 0.037071906
0.73554701 0.22333995 0.037056886
0.73553556 0.22457927 0.037041869
0.73552418 0.2258186 0.037026849
0.73551273 0.22705793 0.037011832
0.73550129 0.22829725 0.036996812
0.7354899 0.22953658 0.036981795
0.73547846 0.23077589 0.036966775
0.73682392 0.23167922 0.03844117
0.73681253 0.23291497 0.038426194
0.73680115 0.23415072 0.038411219
0.73678976 0.23538646 0.038396243
0.73677838 0.23662221 0.038381267
0.73676699 0.23785797 0.038366292
0.73675561 0.23909371 0.03835132
0.73674423 0.24032946 0.038336344
0.73673284 0.2415652 0.038321368
0.73672146 0.24280097 0.038306393
0.73671007 0.2440367 0.038291417
0.73534143 0.24564779 0.036786549
0.73532999 0.24688712 0.036771532
0.7353186 0.24812645 0.036756512
0.73530716 0.24936578 0.036741491
0.73529571 0.25060508 0.036726475
0.73528433 0.25184444 0.036711454
0.73527288 0.25308374 0.036696438
0.7352615 0.25432307 0.036681417
0.73525006 0.25556239 0.036666401
0.73523861 0.25680172 0.03665138
0.73658478 0.25762993 0.038126685
0.73521578 0.25928038 0.036621343
0.73656201 0.26010144 0.038096737
0.73655063 0.26133719 0.038081761
0.73653924 0.26257291 0.038066786
0.73652786 0.26380867 0.03805181
0.73651648 0.26504442 0.038036834
0.73650509 0.26628017 0.038021859
0.73649371 0.26751593 0.038006883
0.73648232 0.26875165 0.037991907
0.73647094 0.26998743 0.037976932
0.73645949 0.27122316 0.037961956
0.73644811 0.27245891 0.03794698
0.73643672 0.27369466 0.037932005
0.73642534 0.27493042 0.037917029
0.73641396 0.27616617 0.037902053
0.73640257 0.27740189 0.037887078
0.73639119 0.27863765 0.037872106
0.7363798 0.2798734 0.03785713
0.73636842 0.28110915 0.037842155
0.73635703 0.28234491 0.037827179
0.73634565 0.28358063 0.037812203
0.73633426 0.28481638 0.037797228
0.73632288 0.28605214 0.037782252
0.7363115 0.28728789 0.037767276
0.73630011 0.28852364 0.037752301
0.73628873 0.2897594 0.037737325
0.73627734 0.29099512 0.037722349
0.73626596 0.29223087 0.037707373
0.73625457 0.29346663 0.037692398
0.73624313 0.29470238 0.037677422
0.73623174 0.29593813 0.037662446
0.73622036 0.29717386 0.037647471
0.73620898 0.29840964 0.037632499
0.73619759 0.29964536 0.037617523
0.73618621 0.30088112 0.037602548
0.73617482 0.30211687 0.037587572
0.73616344 0.30335262 0.037572596
0.73615205 0.30458838 0.037557621
0.7368201 0.30554882 0.038288657
0.73680872 0.30678278 0.0382737
0.73679733 0.30801672 0.038258746
0.73678595 0.30925068 0.038243793
0.73677462 0.31048465 0.03822884
0.73608375 0.31200284 0.037467767
0.73607236 0.31323859 0.037452791
0.73606098 0.31447434 0.037437815
0.73604959 0.3157101 0.03742284
0.73603815 0.31694585 0.037407864
0.73602676 0.3181816 0.037392892
0.73601538 0.31941733 0.037377916
0.73600399 0.32065308 0.037362941
0.73599261 0.32188883 0.037347965
0.73598123 0.32312459 0.037332989
0.73596984 0.32436034 0.037318014
0.73595846 0.32559606 0.037303038
0.7366268 0.32652611 0.038034443
0.73661542 0.3277601 0.038019486
0.73660403 0.32899404 0.038004532
0.73659265 0.330228 0.037989579
0.73658127 0.33146197 0.037974626
0.73656994 0.3326959 0.037959673
0.73655856 0.3339299 0.037944719
0.73654717 0.33516383 0.037929766
0.73653579 0.3363978 0.037914813
0.73652446 0.33763176 0.037899859
0.73651308 0.33886573 0.037884902
0.73650169 0.34009969 0.037869949
0.73649031 0.34133363 0.037854996
0.73647892 0.34256759 0.037840042
0.7364676 0.34380156 0.037825089
0.73645622 0.34503552 0.037810136
0.73644483 0.34626949 0.037795182
0.73643345 0.34750342 0.037780229
0.73642212 0.34873742 0.037765272
0.73641074 0.34997135 0.037750319
0.73775947 0.35052237 0.039229024
0.73774815 0.35175276 0.039214116
0.73773682 0.35298315 0.039199203
0.73772544 0.35421354 0.039184295
0.73771411 0.35544392 0.039169382
0.73770279 0.35667431 0.039154474
0.73769146 0.35790467 0.039139561
0.73768008 0.35913506 0.039124653
0.73766875 0.36036542 0.03910974
0.73765743 0.36159584 0.039094832
0.7376461 0.36282623 0.039079919
0.73763478 0.36405659 0.039065011
0.73626292 0.36601284 0.037555922
0.73394418 -0.098856695 0.034085874
0.73393261 -0.097603053 0.034070678
0.73392105 -0.096349433 0.034055486
0.73390949 -0.095095791 0.034040295
0.73389792 -0.093842171 0.034025103
0.73388642 -0.092588529 0.034009911
0.73387486 -0.091334894 0.033994719
0.73386329 -0.090081267 0.033979528
0.73385173 -0.088827632 0.033964336
0.73384017 -0.087574005 0.033949144
0.73382866 -0.08632037 0.033933949
0.7338171 -0.085066743 0.033918757
0.73582476 -0.082959749 0.036125276
0.73581326 -0.081711471 0.036110148
0.73580176 -0.080463216 0.036095019
0.73579025 -0.079214938 0.036079895
0.73577875 -0.077966683 0.036064766
0.73576725 -0.076718405 0.036049638
0.73575574 -0.07547015 0.036034513
0.73574424 -0.074221872 0.036019385
0.73573273 -0.072973609 0.036004256
0.73572123 -0.071725339 0.035989132
0.73570973 -0.070477076 0.035974003
0.73569822 -0.069228806 0.035958875
0.73568672 -0.067980543 0.03594375
0.73567522 -0.06673228 0.035928622
0.73566371 -0.06548401 0.035913493
0.73565221 -0.064235747 0.035898369
0.7356407 -0.062987477 0.03588324
0.7356292 -0.061739214 0.035868112
0.7356177 -0.06049094 0.035852987
0.73560619 -0.059242681 0.035837859
0.73559469 -0.057994407 0.035822731
0.73558319 -0.056746148 0.035807606
0.73557168 -0.05549787 0.035792477
0.73556018 -0.054249611 0.035777349
0.73554868 -0.053001352 0.035762224
0.73553717 -0.051753078 0.035747096
0.73552573 -0.050504819 0.035731968
0.7361877 -0.049020376 0.036457986
0.73617619 -0.047773901 0.03644288
0.73616475 -0.046527416 0.036427777
0.73615324 -0.045280945 0.036412671
0.73614174 -0.044034459 0.036397565
0.7361303 -0.042787988 0.036382459
0.73611879 -0.041541498 0.036367353
0.73610729 -0.040295027 0.036352247
0.73609579 -0.039048556 0.036337145
0.73608434 -0.03780207 0.036322039
0.73607284 -0.036555596 0.036306933
0.73606133 -0.03530911 0.036291827
0.73604989 -0.034062639 0.03627672
0.73603839 -0.032816153 0.036261614
0.73602688 -0.031569682 0.036246508
0.73601538 -0.030323209 0.036231406
0.73600394 -0.029076722 0.0362163
0.73599243 -0.027830251 0.036201194
0.73598093 -0.026583763 0.036186088
0.73596948 -0.025337292 0.036170982
0.73595798 -0.024090804 0.036155876
0.73594648 -0.022844333 0.036140773
0.73593497 -0.02159786 0.036125667
0.73592353 -0.020351375 0.036110561
0.73591202 -0.019104896 0.036095455
0.73590052 -0.017858423 0.036080349
0.73588908 -0.016611945 0.036065243
0.73587757 -0.015365465 0.036050141
0.73586607 -0.014118985 0.036035035
0.73585457 -0.012872506 0.036019929
0.73719114 -0.011260997 0.037488401
0.7371797 -0.010018094 0.03747334
0.73784232 -0.0085962499 0.038200155
0.73783088 -0.007355134 0.038185116
0.73781943 -0.0061140261 0.038170077
0.73780799 -0.0048729107 0.038155034
0.73779655 -0.0036317951 0.038139995
0.7377851 -0.0023906871 0.038124952
0.73777366 -0.0011495717 0.038109913
0.73776221 9.1543734e-05 0.038094874
0.73775077 0.0013326592 0.038079832
0.73773938 0.0025737672 0.038064793
0.73705369 0.0036538215 0.037307657
0.73704225 0.0048967251 0.037292596
0.73703074 0.0061396286 0.037277531
0.73769361 0.0075382218 0.038004629
0.73768216 0.0087793367 0.03798959
0.73767072 0.010020445 0.037974551
0.73765928 0.01126156 0.037959509
0.73764789 0.012502676 0.03794447
0.73763645 0.013743792 0.037929427
0.737625 0.014984899 0.037914388
0.73761356 0.016226014 0.037899349
0.73760211 0.01746713 0.037884306
0.73759067 0.018708238 0.037869267
0.73825365 0.020087164 0.038596559
0.73824227 0.021326492 0.038581539
0.73823082 0.02256581 0.038566519
0.73821938 0.023805138 0.038551502
0.738208 0.025044465 0.038536482
0.73819655 0.026283786 0.038521465
0.73818511 0.027523113 0.038506445
0.73817372 0.028762441 0.038491424
0.73816228 0.030001761 0.038476408
0.73815089 0.031241089 0.038461387
0.73813945 0.032480415 0.038446371
0.73812801 0.033719737 0.03843135
0.73811662 0.034959063 0.038416333
0.73810518 0.036198385 0.038401313
0.73809379 0.037437711 0.038386293
0.73808235 0.03867704 0.038371276
0.73807091 0.039916359 0.038356256
0.73805952 0.041155685 0.038341239
0.73804808 0.042395014 0.038326219
0.73803669 0.043634336 0.038311202
0.73802525 0.044873662 0.038296182
0.7380138 0.046112984 0.038281161
0.73800242 0.047352314 0.038266145
0.73799098 0.04859164 0.038251124
0.73797959 0.049830966 0.038236108
0.73796815 0.051070288 0.038221087
0.7379567 0.052309614 0.038206071
0.73794532 0.05354894 0.03819105
0.73793387 0.054788262 0.03817603
0.73792249 0.056027588 0.038161013
0.73791105 0.057266913 0.038145993
0.7378996 0.058506239 0.038130976
0.73788822 0.059745561 0.038115956
