# .PCD v0.7 - Point Cloud Data file format
VERSION 0.7
FIELDS x y z
SIZE 4 4 4
TYPE F F F
COUNT 1 1 1
WIDTH 1318
HEIGHT 1
VIEWPOINT 0 0 0 1 0 0 0
POINTS 1318
DATA ascii
0.40255761 0.04261924 0.1069769
0.40254283 0.044221599 0.10695748
0.40252808 0.045823958 0.10693806
0.4025133 0.047426317 0.10691865
0.40249854 0.049028676 0.10689922
0.40427649 0.050776035 0.10787568
0.40426177 0.052374817 0.1078563
0.40424702 0.0539736 0.10783693
0.40365025 0.041012343 0.10580242
0.40542564 0.042777594 0.10678132
0.40541089 0.044376381 0.10676195
0.40539616 0.045975164 0.10674257
0.40538144 0.047573943 0.1067232
0.40536669 0.049172726 0.10670382
0.40803748 0.050989021 0.10818229
0.40802279 0.052582435 0.10816298
0.40800813 0.054175857 0.10814367
0.40978384 0.05590355 0.10912304
0.40651584 0.041174289 0.10560946
0.40918279 0.043017425 0.1070916
0.40916809 0.044610836 0.10707229
0.4091534 0.046204258 0.10705298
0.40913871 0.047797672 0.10703367
0.40912405 0.049391095 0.10701436
0.40910935 0.050984509 0.10699505
0.41088262 0.05271937 0.107977
0.41086796 0.054309212 0.10795773
0.4108533 0.05589905 0.10793846
0.41083866 0.057488892 0.10791919
0.410824 0.059078731 0.10789993
0.41205463 0.041585986 0.1069273
0.41203997 0.043175828 0.10690803
0.4120253 0.044765662 0.10688876
0.41201067 0.046355505 0.1068695
0.41199601 0.047945343 0.10685023
0.41198137 0.049535185 0.10683096
0.41196671 0.051125031 0.10681169
0.41195205 0.052714869 0.10679243
0.41193742 0.054304712 0.10677316
0.41192275 0.05589455 0.1067539
0.41190812 0.057484392 0.10673463
0.41189346 0.05907423 0.10671537
0.41187879 0.060664073 0.1066961
0.41759595 0.040416826 0.1082776
0.41758138 0.041997727 0.10825844
0.41489241 0.043334242 0.10672981
0.41487777 0.044920512 0.10671058
0.41486317 0.046506777 0.10669136
0.41306546 0.047940847 0.10566565
0.41305083 0.049530685 0.10564639
0.41303617 0.051120531 0.10562712
0.4130215 0.052710369 0.10560785
0.41300687 0.054300211 0.10558859
0.41299221 0.05589005 0.10556932
0.41297758 0.057479892 0.10555005
0.41296291 0.05906973 0.10553078
0.41294825 0.060659572 0.10551152
0.42227837 0.034457538 0.10919381
0.42226386 0.036031283 0.10917474
0.42224935 0.037605029 0.10915566
0.42223486 0.039178781 0.1091366
0.42222035 0.040752526 0.10911752
0.42042536 0.042159762 0.10808952
0.41863024 0.043574154 0.10706137
0.41594484 0.044916023 0.10552868
0.41593021 0.046502285 0.10550945
0.41591561 0.048088551 0.10549023
0.41412029 0.049526185 0.1044618
0.41410562 0.051116031 0.10444254
0.41409099 0.052705869 0.10442328
0.41407633 0.054295711 0.10440401
0.41406167 0.05588555 0.10438474
0.41404703 0.057475392 0.10436548
0.41403237 0.05906523 0.10434621
0.41223684 0.060531486 0.10331748
0.42333698 0.034453087 0.10802123
0.4233225 0.036026832 0.10800216
0.42330799 0.037600577 0.10798309
0.42329347 0.039174329 0.10796402
0.42327899 0.040748071 0.10794494
0.42148638 0.042155296 0.10691427
0.41969368 0.043569677 0.10588346
0.41701189 0.044911534 0.10434676
0.41699728 0.046497796 0.10432754
0.41698265 0.048084062 0.10430831
0.41518974 0.049521685 0.10327724
0.41517508 0.051111531 0.10325798
0.41516042 0.052701369 0.10323871
0.41514578 0.054291211 0.10321944
0.41513112 0.055881049 0.10320017
0.41511649 0.057470892 0.10318091
0.41510183 0.05906073 0.10316164
0.41508716 0.060650572 0.10314237
0.4244101 0.032874886 0.10686772
0.42439562 0.034448631 0.10684865
0.42438111 0.036022376 0.10682958
0.42436662 0.037596121 0.10681051
0.42435211 0.039169874 0.10679144
0.4243376 0.040743615 0.10677236
0.42432311 0.042317361 0.1067533
0.42075714 0.043565203 0.10470554
0.42074257 0.0451461 0.10468639
0.420728 0.046727002 0.10466722
0.41804969 0.048079573 0.10312641
0.41803509 0.049665831 0.10310719
0.41624454 0.05110703 0.10207339
0.4162299 0.052696869 0.10205413
0.41621524 0.054286711 0.10203487
0.41620058 0.055876549 0.1020156
0.41618595 0.057466391 0.10199633
0.41439524 0.058929048 0.1009623
0.4117164 0.060337055 0.099420778
0.40814939 0.061695769 0.097371697
0.42548326 0.031296685 0.10571421
0.42546874 0.03287043 0.10569514
0.42545426 0.034444176 0.10567606
0.42543975 0.036017921 0.105657
0.42542526 0.037591666 0.10563792
0.42541075 0.039165419 0.10561885
0.42539623 0.04073916 0.10559978
0.42538175 0.042312905 0.10558071
0.42359391 0.043723691 0.10454467
0.42357939 0.045301013 0.10452555
0.42179143 0.046722528 0.10348932
0.42177686 0.048303425 0.10347016
0.41910213 0.049661342 0.10192528
0.41731399 0.05110253 0.10088882
0.41729936 0.052692369 0.10086955
0.4172847 0.054282211 0.10085028
0.41727003 0.055872049 0.10083102
0.41548181 0.057331119 0.09979438
0.4128066 0.058733746 0.098248906
0.41101819 0.060208909 0.097212084
0.41100344 0.061811268 0.097192667
0.40478051 0.063005999 0.093611769
0.40299183 0.064507991 0.092574619
0.40031618 0.065962479 0.091028526
0.42832705 0.029913651 0.10557999
0.42831257 0.031483822 0.10556096
0.42829812 0.03305399 0.10554193
0.42828363 0.034624159 0.1055229
0.42826918 0.036194328 0.10550387
0.42825469 0.037764497 0.10548484
0.42646936 0.039160967 0.10444627
0.42645487 0.040734708 0.1044272
0.42644036 0.042308453 0.10440813
0.42465496 0.043719228 0.10336941
0.42464042 0.04529655 0.1033503
0.4246259 0.046873871 0.10333119
0.4228403 0.048298948 0.10229225
0.4201692 0.049656853 0.10074337
0.42015457 0.051243115 0.10072415
0.41836879 0.052687868 0.099684983
0.41835415 0.054277711 0.099665716
0.41833949 0.055867553 0.099646449
0.41655365 0.057326607 0.098607138
0.41388208 0.05872922 0.09705767
0.41209608 0.060204372 0.096018188
0.4120813 0.061806731 0.095998764
0.41029516 0.063292615 0.094959103
0.40408054 0.064503409 0.091368727
0.40406564 0.066121861 0.09134911
0.40139353 0.067581698 0.08979895
0.42939773 0.028339036 0.1044291
0.42938328 0.029909207 0.10441007
0.42936879 0.031479377 0.10439105
0.42935434 0.033049546 0.10437202
0.42933986 0.034619715 0.10435299
0.42932537 0.036189884 0.10433396
0.42931092 0.037760053 0.10431493
0.42929643 0.039330222 0.1042959
0.42751351 0.040730253 0.10325462
0.427499 0.042303998 0.10323554
0.42748451 0.043877743 0.10321647
0.42570147 0.045292083 0.10217506
0.42568693 0.046869405 0.10215594
0.42390376 0.048294473 0.10111435
0.42123625 0.049652364 0.099561453
0.42122161 0.051238626 0.09954223
0.41943827 0.052683368 0.098500408
0.41942361 0.05427321 0.098481141
0.41940895 0.055863053 0.098461874
0.41497228 0.057125911 0.095885806
0.41318873 0.058597479 0.094843701
0.41317394 0.060199838 0.094824284
0.41139024 0.061682135 0.093782008
0.4069531 0.062996857 0.091205314
0.40516925 0.064498827 0.090162836
0.40250081 0.065953285 0.088608734
0.40248585 0.067577109 0.088589057
0.40070182 0.069098748 0.087546326
0.42870265 0.026562087 0.10225368
0.43045396 0.028334592 0.10325918
0.4304395 0.029904762 0.10324015
0.43042502 0.031474933 0.10322113
0.43041056 0.033045102 0.1032021
0.43039608 0.034615271 0.10318307
0.43038163 0.03618544 0.10316404
0.43036714 0.037755609 0.10314501
0.43035269 0.039325777 0.10312598
0.4303382 0.040895946 0.10310695
0.42855763 0.042299543 0.10206296
0.42854312 0.043873288 0.10204389
0.42676249 0.04528762 0.10099981
0.42674795 0.046864942 0.1009807
0.4249672 0.048289999 0.099936426
0.42230329 0.049647871 0.098379552
0.42228866 0.051234137 0.09836033
0.42050773 0.052678872 0.097315833
0.42049307 0.05426871 0.097296566
0.41871208 0.05572417 0.096251972
0.41428137 0.056990586 0.093669221
0.41426659 0.058592942 0.093649797
0.41248533 0.060071655 0.092604898
0.4098208 0.061497483 0.09104719
0.40627286 0.062875792 0.088976547
0.40360808 0.064324871 0.087418526
0.40359312 0.065948687 0.087398849
0.40357816 0.067572512 0.087379172
0.40179655 0.069094136 0.086333767
0.39913148 0.070573613 0.084775381
0.42801249 0.024777966 0.10007305
0.42976129 0.026557632 0.1010811
0.43151018 0.028330147 0.10208927
0.43149573 0.029900318 0.10207024
0.43148124 0.031470489 0.10205121
0.43146679 0.033040658 0.10203218
0.4314523 0.034610827 0.10201316
0.43143785 0.036180995 0.10199413
0.43142337 0.037751164 0.1019751
0.43140888 0.039321333 0.10195607
0.43139443 0.040891502 0.10193704
0.42961624 0.042295091 0.10089038
0.42960176 0.043868836 0.10087132
0.42782354 0.045283157 0.099824555
0.427809 0.046860475 0.099805444
0.42603064 0.048285525 0.098758519
0.42337033 0.049643382 0.097197637
0.42159182 0.05108453 0.096150532
0.42157719 0.052674372 0.096131265
0.42156252 0.05426421 0.096111998
0.41978392 0.055719662 0.095064729
0.41535923 0.056986053 0.092475317
0.41358042 0.058461171 0.091427796
0.41091955 0.059881624 0.089866161
0.4073765 0.061252758 0.087790266
0.40471536 0.062696457 0.086228311
0.4047004 0.064320274 0.086208634
0.40468544 0.065944098 0.086188957
0.40467048 0.067567915 0.086169273
0.40289125 0.069089532 0.085121222
0.40022981 0.070568994 0.083558828
0.42907351 0.024773501 0.098897807
0.43081993 0.026553178 0.099908516
0.43080541 0.028126923 0.099889442
0.43255192 0.029895874 0.10090033
0.43253747 0.031466044 0.1008813
0.43252298 0.033036213 0.10086227
0.43250853 0.034606382 0.10084324
0.43249404 0.036176551 0.10082421
0.43247959 0.03774672 0.10080519
0.43246511 0.039316889 0.10078616
0.43245065 0.040887058 0.10076713
0.43067488 0.042290635 0.099717796
0.42889911 0.043701369 0.098668434
0.42888457 0.045278691 0.098649316
0.42710865 0.046700153 0.097599767
0.42445201 0.048052631 0.096034952
0.4244374 0.049638893 0.096015729
0.42266127 0.051080029 0.09496595
0.42264664 0.052669872 0.094946682
0.42087048 0.054121736 0.093896806
0.41821343 0.055513557 0.092331477
0.4146755 0.05685069 0.090250686
0.4120183 0.058265761 0.08868511
0.41024175 0.059753388 0.087634765
0.40846521 0.061248176 0.086584374
0.40580767 0.06269186 0.085018426
0.40579271 0.064315677 0.084998749
0.40577775 0.065939501 0.084979072
0.40400097 0.067457534 0.083928376
0.40398598 0.069084927 0.083908655
0.40132812 0.070564374 0.082342274
0.43013456 0.024769036 0.097722568
0.43187854 0.026548723 0.098735936
0.43186402 0.028122468 0.098716862
0.43360817 0.029891429 0.099730402
0.43359369 0.0314616 0.099711373
0.43357924 0.033031769 0.099692352
0.43356475 0.034601938 0.099673323
0.4335503 0.036172107 0.099654295
0.43353581 0.037742276 0.099635266
0.43352133 0.039312445 0.099616237
0.43350688 0.040882614 0.099597208
0.43173352 0.04228618 0.098545223
0.42996013 0.043696906 0.097493187
0.42818666 0.045114778 0.096441008
0.42817208 0.046695679 0.096421845
0.42551905 0.048048142 0.094853051
0.42550445 0.049634404 0.094833829
0.42373073 0.051075529 0.093781374
0.42195702 0.052523807 0.092728876
0.41930366 0.053910248 0.091159612
0.41752976 0.055374622 0.090106927
0.41311702 0.056649897 0.087504081
0.41134292 0.058133945 0.086451106
0.40956882 0.059625141 0.0853981
0.40955389 0.061243594 0.085378483
0.40689999 0.062687263 0.083808534
0.40688503 0.064311087 0.083788857
0.40687007 0.065934904 0.083769172
0.4050957 0.067452922 0.082715832
0.40508071 0.069080323 0.08269611
0.40242645 0.070559755 0.081125721
0.39361382 0.071717188 0.075936906
0.43119559 0.024764571 0.096547313
0.43293718 0.026544269 0.097563349
0.43292266 0.028118014 0.097544275
0.43290818 0.029691759 0.097525202
0.43464991 0.031457156 0.098541468
0.43463543 0.033027325 0.09852244
0.43462098 0.034597494 0.098503411
0.43460649 0.036167663 0.098484382
0.43459204 0.037737831 0.098465353
0.43457755 0.039308 0.098446324
0.43280664 0.040707979 0.097391702
0.43279216 0.042281725 0.097372636
0.43102118 0.04369244 0.096317932
0.42925009 0.045110304 0.095263094
0.42660072 0.046457388 0.093690358
0.42658612 0.048043653 0.093671136
0.42481485 0.049481187 0.092616074
0.42304358 0.050925881 0.091560952
0.42302889 0.052519295 0.09154164
0.4203791 0.053905722 0.089968376
0.41860765 0.055370085 0.088913031
0.4142009 0.056645337 0.086303517
0.41242921 0.058129374 0.085247882
0.41065753 0.059620559 0.084192194
0.41064259 0.061239015 0.084172584
0.4079923 0.062682666 0.082598634
0.40797734 0.06430649 0.082578957
0.40796238 0.065930307 0.08255928
0.40619043 0.067448318 0.081503272
0.40353984 0.068922371 0.079928957
0.40176773 0.070456475 0.078872763
0.39911696 0.071950205 0.077298194
0.39470896 0.073363163 0.074687019
0.43050292 0.024554137 0.094334245
0.4322421 0.026337428 0.095352955
0.4339813 0.028113559 0.096371695
0.43396679 0.029687306 0.096352629
0.4339523 0.031261049 0.096333556
0.43569168 0.033022881 0.097352512
0.4356772 0.034593049 0.097333483
0.43566275 0.036163218 0.097314455
0.43564826 0.037733387 0.097295433
0.43387979 0.039129786 0.096238196
0.43386528 0.040703528 0.09621913
0.43385077 0.042277273 0.096200056
0.4303281 0.043524932 0.09410435
0.4276824 0.044866633 0.092527673
0.4276678 0.046452899 0.09250845
0.42589897 0.047886845 0.091450766
0.42588431 0.049476687 0.091431499
0.42411542 0.050921369 0.09037371
0.42146933 0.052302413 0.088796519
0.41970029 0.053763188 0.087738544
0.41793114 0.05523112 0.08668045
0.41528481 0.056640778 0.085102946
0.41176113 0.057997525 0.08300592
0.41174623 0.059615977 0.082986303
0.40909958 0.061054252 0.081408434
0.40908462 0.062678069 0.081388749
0.40906966 0.064301893 0.081369072
0.40730011 0.065816313 0.080310442
0.40728512 0.067443714 0.08029072
0.40288353 0.068815507 0.077673368
0.40286845 0.070451848 0.077653542
0.40022129 0.071945556 0.076074988
0.39581934 0.073358484 0.073457137
0.39580411 0.07500913 0.073437132
0.43156636 0.024549663 0.093156338
0.43330312 0.026332963 0.094177708
0.43503994 0.028109105 0.095199123
0.43502542 0.02968285 0.09518005
0.43501091 0.031256597 0.095160976
0.43499643 0.032830343 0.09514191
0.43498191 0.034404088 0.095122837
0.43671894 0.036158774 0.09614455
0.43495291 0.037551578 0.09508469
0.4349384 0.039125331 0.095065624
0.43492392 0.040699072 0.09504655
0.43315777 0.042106189 0.093986563
0.43139154 0.043520458 0.092926435
0.42874944 0.044862144 0.091345757
0.42698306 0.046292506 0.09028545
0.42696843 0.047882345 0.090266183
0.42520198 0.049323443 0.089205772
0.42518729 0.050916858 0.089186467
0.42254478 0.052297886 0.087605283
0.42077816 0.053758655 0.08654464
0.41901144 0.055226572 0.085483879
0.4146167 0.056505352 0.082860991
0.41284984 0.057992943 0.081800029
0.41283491 0.059611399 0.081780411
0.41019189 0.061049655 0.080198534
0.41017693 0.062673472 0.080178857
0.41016197 0.064297296 0.08015918
0.40839484 0.065811709 0.079097882
0.40575153 0.067280367 0.077515632
0.40398428 0.068810873 0.076454155
0.40134078 0.070299208 0.074871667
0.39957336 0.071845815 0.073809989
0.39692968 0.073353812 0.072227269
0.39516208 0.074916512 0.071165346
0.43262982 0.024545187 0.091978416
0.43436417 0.026328498 0.093002453
0.43434963 0.02790582 0.092983343
0.43608406 0.029678397 0.094007462
0.43606955 0.031252142 0.093988389
0.43605506 0.032825887 0.093969315
0.43604055 0.034399632 0.093950249
0.43602604 0.035973378 0.093931176
0.43601155 0.037547123 0.093912102
0.43599704 0.039120875 0.093893036
0.43423337 0.040524401 0.092830427
0.43246958 0.041935083 0.091767676
0.42983112 0.043271385 0.090183079
0.42981648 0.044857655 0.090163857
0.42805251 0.046288006 0.089100882
0.42803785 0.047877844 0.089081615
0.42627385 0.049318932 0.088018544
0.42363501 0.050694581 0.086433418
0.4218708 0.052151758 0.085370161
0.42010653 0.053616088 0.084306777
0.41746745 0.055020355 0.082721353
0.41395345 0.056369908 0.080613747
0.41393855 0.057988361 0.080594137
0.41129917 0.059421241 0.079008318
0.41128421 0.061045058 0.078988642
0.41126925 0.062668875 0.078968965
0.40950456 0.064179711 0.077905044
0.40686491 0.065642983 0.076318868
0.40510008 0.067169905 0.075254761
0.40246025 0.068652861 0.073668338
0.40069526 0.070195876 0.072604038
0.39805526 0.071698494 0.071017392
0.39629009 0.07325761 0.069952846
0.39627483 0.074911833 0.069932796
0.39363465 0.076439492 0.068345875
0.43370783 0.022959815 0.090819664
0.43369326 0.024540713 0.090800509
0.43542519 0.026324036 0.091827214
0.43541068 0.027901355 0.091808096
0.4371427 0.029673941 0.092834882
0.43712819 0.031247687 0.092815816
0.43711367 0.032821432 0.092796743
0.43709919 0.034395177 0.092777669
0.43708467 0.035968922 0.092758596
0.43707016 0.037542667 0.09273953
0.43530893 0.038942613 0.091674298
0.43354759 0.040349707 0.090608925
0.43353301 0.041930608 0.090589769
0.43089816 0.043266896 0.089001171
0.42913663 0.044693664 0.087935574
0.42912197 0.046283506 0.087916307
0.42736039 0.047721002 0.086850606
0.4247252 0.049091272 0.085261561
0.42296344 0.050544865 0.084195673
0.42294869 0.052147225 0.084176257
0.4211868 0.053611543 0.083110206
0.41855133 0.055015791 0.081520781
0.41504216 0.056365326 0.079407856
0.41502723 0.057983782 0.079388246
0.41239148 0.059416644 0.077798434
0.41237652 0.061040461 0.077778757
0.41061428 0.062547706 0.076712213
0.4079783 0.064005598 0.075122103
0.40621591 0.065528937 0.074055374
0.40357971 0.067006506 0.072465025
0.40181717 0.068545945 0.071398102
0.39918083 0.070043184 0.069807515
0.39741811 0.071598709 0.068740346
0.39740285 0.073252931 0.068720296
0.39738762 0.074907154 0.068700254
0.39475101 0.076434791 0.067109331
0.39473572 0.078094378 0.067089222
0.43478584 0.021374444 0.089660913
0.43477127 0.022955341 0.089641757
0.43650079 0.024742249 0.090671085
0.43648624 0.026319571 0.090651974
0.4364717 0.027896892 0.090632856
0.43820131 0.029669488 0.091662295
0.43818682 0.031243233 0.091643222
0.43817231 0.032816976 0.091624156
0.43815783 0.034390725 0.091605082
0.43639901 0.035783503 0.09053728
0.4363845 0.037360825 0.090518169
0.43462557 0.038764335 0.089450173
0.43461102 0.040345233 0.089431018
0.43197984 0.041676141 0.087838478
0.43196523 0.043262407 0.087819256
0.43020609 0.044689164 0.086750992
0.43019143 0.046279006 0.086731732
0.42843226 0.047716491 0.085663378
0.42580068 0.049086746 0.084070325
0.42404133 0.050540328 0.083001778
0.42228189 0.052001063 0.081933104
0.42226708 0.053606998 0.081913643
0.41963524 0.055011231 0.080320224
0.41613087 0.056360744 0.078201957
0.41611597 0.0579792 0.07818234
0.4134838 0.059412047 0.076588541
0.41346884 0.061035868 0.076568864
0.41170901 0.062543094 0.075499654
0.40733171 0.063887969 0.072855987
0.40731663 0.065524302 0.072836153
0.40468407 0.067001857 0.071241811
0.4003064 0.068387866 0.068597637
0.3985461 0.069939807 0.067527853
0.39853087 0.07159403 0.067507811
0.39589798 0.073110923 0.065913022
0.3958827 0.07477051 0.065892905
0.39586738 0.076430097 0.065872796
0.39585209 0.078089684 0.065852679
0.43586385 0.019789072 0.088502154
0.43584928 0.021369969 0.088482998
0.43757635 0.023160456 0.089514948
0.43756181 0.024737785 0.08949583
0.43754727 0.026315106 0.089476719
0.43753275 0.027892428 0.089457601
0.43925995 0.029665032 0.090489715
0.43924543 0.031238778 0.090470649
0.43923095 0.032812525 0.090451576
0.43747461 0.034201719 0.089381143
0.43746006 0.03577904 0.089362025
0.43570361 0.037178963 0.088291414
0.43568903 0.038759861 0.088272259
0.43306151 0.04008539 0.0866758
0.43304688 0.041671652 0.086656578
0.43303227 0.043257914 0.086637355
0.43127555 0.044684663 0.085566431
0.43126088 0.046274506 0.085547164
0.42950413 0.047711983 0.084476136
0.42687613 0.049082223 0.082879089
0.42511922 0.050535794 0.081807874
0.42336217 0.051996518 0.080736548
0.42073396 0.053395372 0.079139188
0.41897678 0.054872189 0.078067645
0.41721958 0.056356166 0.076996066
0.41459107 0.057783633 0.075398326
0.41457611 0.05940745 0.075378649
0.41281873 0.060911097 0.074306823
0.41018999 0.062363595 0.072708778
0.40843245 0.063883334 0.071636766
0.40580353 0.06535551 0.070038483
0.40404585 0.06689135 0.068966277
0.40141675 0.068383195 0.067367762
0.39965886 0.069935128 0.066295311
0.39702964 0.071446642 0.064696588
0.39701435 0.073106229 0.064676479
0.39699906 0.074765816 0.064656369
0.39698377 0.076425403 0.064636253
0.39522564 0.078004152 0.063563488
0.43694186 0.018203693 0.087343402
0.43866646 0.020001348 0.08837793
0.43865192 0.02157867 0.088358819
0.43863738 0.023155991 0.088339701
0.43862286 0.02473332 0.088320591
0.43860832 0.026310641 0.088301472
0.43859378 0.027887963 0.088282362
0.43857923 0.029465284 0.088263243
0.44030407 0.031234324 0.089298069
0.43855017 0.032619935 0.088225015
0.43853563 0.034197256 0.088205904
0.43678162 0.035593584 0.087132663
0.43676704 0.037174489 0.087113507
0.43414319 0.038494632 0.085513115
0.43412855 0.040080901 0.085493892
0.43411395 0.041667163 0.08547467
0.43409932 0.043253426 0.08545544
0.432345 0.044680163 0.084381849
0.43233034 0.046270005 0.084362581
0.43057597 0.047707472 0.083288893
0.4279516 0.049077697 0.081687853
0.42619708 0.050531257 0.080613971
0.42444244 0.051991973 0.079539977
0.42181787 0.053390812 0.077938616
0.42006308 0.054867618 0.076864421
0.41569835 0.056155216 0.074208118
0.41568339 0.057779036 0.074188441
0.41392845 0.059279092 0.073113985
0.41130337 0.060726214 0.071512014
0.40954825 0.062242366 0.070437379
0.406923 0.063709162 0.068835169
0.40690789 0.06535086 0.068815276
0.40515259 0.066886686 0.067740396
0.40078688 0.068276219 0.065082811
0.40077165 0.069930442 0.065062761
0.398146 0.071441941 0.063460052
0.39813071 0.073101528 0.063439935
0.39811543 0.074761115 0.063419826
0.39635974 0.076336287 0.062344436
0.39373383 0.077878192 0.060741354
0.43807814 0.010294726 0.086261287
0.43806356 0.011875623 0.086242132
0.43804899 0.01345652 0.086222969
0.43803445 0.015037425 0.086203814
0.43801987 0.016618321 0.086184651
0.43974203 0.018419564 0.087221809
0.43972749 0.019996885 0.087202691
0.43971294 0.021574205 0.087183572
0.43969843 0.023151526 0.087164462
0.43968388 0.024728855 0.087145343
0.43966934 0.026306177 0.087126233
0.4396548 0.027883498 0.087107114
0.43964028 0.029460819 0.087088004
0.43962574 0.031038141 0.087068886
0.4396112 0.032615468 0.087049775
0.43785962 0.034008212 0.085973911
0.43784505 0.03558911 0.085954756
0.43783048 0.037170012 0.0859356
0.43521023 0.038490143 0.0843312
0.43519562 0.040076412 0.084311977
0.43518099 0.041662671 0.084292755
0.43342909 0.043085828 0.083216548
0.43341446 0.044675663 0.083197281
0.43166253 0.046109546 0.08212097
0.42904183 0.047474388 0.080515988
0.42728972 0.048924364 0.079439491
0.42727497 0.050526723 0.079420067
0.42552271 0.051987424 0.078343414
0.42290175 0.053386249 0.07673806
0.4194119 0.054728549 0.074603893
0.41679066 0.056150619 0.072998226
0.41503817 0.05764709 0.071921147
0.41502315 0.059274487 0.071901426
0.41240171 0.060721591 0.070295461
0.410649 0.062237736 0.069218159
0.40802735 0.063704513 0.067611948
0.4062745 0.065236755 0.06653446
0.40365267 0.066723205 0.06492801
0.40189964 0.068271533 0.063850261
0.39927769 0.06977766 0.062243622
0.3992624 0.071437247 0.062223513
0.39924708 0.073096834 0.0622034
0.39749384 0.074668415 0.061125387
0.39487159 0.076204941 0.059518378
0.39485621 0.077873468 0.059498157
0.43914157 0.010290251 0.08508338
0.439127 0.011871148 0.085064217
0.43911242 0.013452046 0.085045062
0.43909788 0.01503295 0.085025907
0.43908331 0.016613847 0.085006744
0.44080305 0.018415099 0.086046554
0.44078854 0.01999242 0.086027436
0.44077399 0.021569742 0.086008325
0.44075945 0.023147061 0.085989207
0.44074494 0.02472439 0.085970089
0.44073039 0.026301712 0.085950978
0.44071585 0.027879033 0.08593186
0.44070131 0.029456355 0.085912749
0.44068679 0.031033676 0.085893631
0.44067225 0.032611005 0.08587452
0.43892306 0.034003738 0.084796004
0.43890849 0.035584632 0.084776849
0.4362919 0.036899392 0.083168522
0.43627727 0.038485654 0.083149299
0.43626267 0.04007192 0.083130077
0.43451321 0.041491486 0.08205124
0.43449855 0.043081328 0.082031973
0.43448392 0.044671163 0.082012706
0.4327344 0.046105035 0.080933727
0.43011728 0.047469862 0.079324752
0.42836761 0.048919827 0.078245595
0.42835283 0.050522186 0.078226179
0.42660302 0.05198288 0.077146843
0.42398566 0.053381689 0.075537503
0.42050061 0.054723967 0.073397994
0.41788298 0.056146022 0.071788326
0.41613287 0.057642486 0.070708595
0.41351506 0.059084207 0.069098696
0.4117648 0.060596768 0.068018772
0.40914682 0.062058162 0.066408627
0.40739641 0.063586816 0.065328509
0.40477824 0.065067887 0.063718125
0.40302765 0.066612631 0.062637776
0.40301239 0.068266854 0.062617727
0.40039405 0.069772959 0.061007082
0.40037876 0.071432546 0.060986973
0.40036348 0.073092133 0.060966861
0.39861262 0.074663706 0.05988618
0.39599398 0.076200217 0.058275167
0.394243 0.077787884 0.057194281
0.44020504 0.010285776 0.083905458
0.44019046 0.011866674 0.083886303
0.44017589 0.013447571 0.08386714
0.44016132 0.015028475 0.083847985
0.44014674 0.016609373 0.083828829
0.4418641 0.018410634 0.084871307
0.44184956 0.019987956 0.084852196
0.44183502 0.021565277 0.084833078
0.4418205 0.023142599 0.084813967
0.44180596 0.024719926 0.084794849
0.44179142 0.026297247 0.084775731
0.44177687 0.027874568 0.08475662
0.44176236 0.02945189 0.084737502
0.44174781 0.031029211 0.084718391
0.44173327 0.032606538 0.084699273
0.4399865 0.033999261 0.08361809
0.43737355 0.035308633 0.082005836
0.43735895 0.036894903 0.081986614
0.43734431 0.038481165 0.081967391
0.43732971 0.040067431 0.081948161
0.43558267 0.041486986 0.080866665
0.43556803 0.043076828 0.080847397
0.43382093 0.044507105 0.079765804
0.43120751 0.045866556 0.078152888
0.42946026 0.047312934 0.077071115
0.42944548 0.048915293 0.077051699
0.42769811 0.050372399 0.075969741
0.42768329 0.051978335 0.075950272
0.42506954 0.053377129 0.074336931
0.42158931 0.054719385 0.072192103
0.41897529 0.056141425 0.070578441
0.4172276 0.057637878 0.069496036
0.4146134 0.059079587 0.067882143
0.41286555 0.060592134 0.066799551
0.41025117 0.062053517 0.06518542
0.40850317 0.06358216 0.064102635
0.40588859 0.065063216 0.062488258
0.40414041 0.066607952 0.061405227
0.40152571 0.068108678 0.059790656
0.40151042 0.069768265 0.059770543
0.40149513 0.071427852 0.059750434
0.39974672 0.072995834 0.058667131
0.39713174 0.074526966 0.057052191
0.39711636 0.076195493 0.05703197
0.3953678 0.077783152 0.055948418
0.44292513 0.018406169 0.083696067
0.44291058 0.019983491 0.083676949
0.44289607 0.021560812 0.083657838
0.44288152 0.023138134 0.08363872
0.44286698 0.024715463 0.083619609
0.44285247 0.026292782 0.083600491
0.44283792 0.027870104 0.083581381
0.44282338 0.029447425 0.083562262
0.44280884 0.031024747 0.083543144
0.44106451 0.032413889 0.082459338
0.43845522 0.033717882 0.080843143
0.43844062 0.035304144 0.080823921
0.43842599 0.036890414 0.080804698
0.43668142 0.038302805 0.079720624
0.43666679 0.039892644 0.079701364
0.43492216 0.041315768 0.078617178
0.43490747 0.042909183 0.078597866
0.43229771 0.044263247 0.07698103
0.4305529 0.045706037 0.075896628
0.43053812 0.047308397 0.075877212
0.42879319 0.048761919 0.074792631
0.42877838 0.050367855 0.07477317
0.42443803 0.051619582 0.072090648
0.42269292 0.05309635 0.071005821
0.42267802 0.054714806 0.070986211
0.42006761 0.056136828 0.069368549
0.41572678 0.057442203 0.066685379
0.41398135 0.058951166 0.065600164
0.41137064 0.060407169 0.063982092
0.41135553 0.062048871 0.063962191
0.40960991 0.063577503 0.062876754
0.40699896 0.065058544 0.061258376
0.4052532 0.066603266 0.060172681
0.4026421 0.068103977 0.058554117
0.40089616 0.069664799 0.057468235
0.40088084 0.071327962 0.057448082
0.3982695 0.072853714 0.055829201
0.39652339 0.074434206 0.054743081
0.39650798 0.07610631 0.054722819
0.43968308 0.016264487 0.07987269
0.44225907 0.01818132 0.081453852
0.44397163 0.019979026 0.082501695
0.44395709 0.021556348 0.082482584
0.44394258 0.023133669 0.082463466
0.44392803 0.024710998 0.082444355
0.44391349 0.026288319 0.082425237
0.44389895 0.027865639 0.082406126
0.44388443 0.02944296 0.082387008
0.44214252 0.030828519 0.081300586
0.44212794 0.032409415 0.081281431
0.4395223 0.033713393 0.079661235
0.43950766 0.035299655 0.079642013
0.43949306 0.036885921 0.079622783
0.43775088 0.038298305 0.078536049
0.43773624 0.039888144 0.078516781
0.43599403 0.041311257 0.077429935
0.43338791 0.042659938 0.075809166
0.43164554 0.044099141 0.074722148
0.43163076 0.045701504 0.074702732
0.43161601 0.047303863 0.074683309
0.42987347 0.048757374 0.073596068
0.42726701 0.050145406 0.071974859
0.42552435 0.051615011 0.070887409
0.42378163 0.053091768 0.06979993
0.42117488 0.054508414 0.068178341
0.42115992 0.056132235 0.068158664
0.41509718 0.057310198 0.064400777
0.4150821 0.058946535 0.064380944
0.41247499 0.06040252 0.062758878
0.41073182 0.061927564 0.061670806
0.40812454 0.063403226 0.060048498
0.40638119 0.064944364 0.058960192
0.40636593 0.066598587 0.058940146
0.40375847 0.068099283 0.057317566
0.40201494 0.06966009 0.056229029
0.39940727 0.071180463 0.054606225
0.39766362 0.072757371 0.053517472
0.39764822 0.074429475 0.053497206
0.44079399 0.0115012 0.078748457
0.44076476 0.014673728 0.078710012
0.44075012 0.016259996 0.07869079
0.44073552 0.017846258 0.07867156
0.44330794 0.01975775 0.080256775
0.44329336 0.021338647 0.080237612
0.44327882 0.022919543 0.080218457
0.44326425 0.024500441 0.080199301
0.44324967 0.026081346 0.080180138
0.4432351 0.027662242 0.080160983
0.44322053 0.02924314 0.080141827
0.44320595 0.030824045 0.080122665
0.44060394 0.032122634 0.078498557
0.44058934 0.033708904 0.078479335
0.44057471 0.035295166 0.078460105
0.438835 0.036703963 0.07737074
0.43882033 0.038293805 0.077351473
0.43708056 0.039713327 0.076262012
0.4344781 0.041056633 0.074637309
0.43273818 0.042492248 0.073547661
0.4327234 0.044094607 0.073528245
0.43098333 0.045540955 0.072438419
0.43096855 0.04714689 0.072418958
0.42836577 0.048529543 0.070793815
0.42662552 0.04999556 0.06970375
0.42488524 0.051468734 0.068613656
0.42228216 0.05288 0.066988125
0.42054176 0.054369267 0.065897807
0.41793847 0.055800203 0.064272054
0.4161979 0.057305563 0.063181557
0.41359445 0.058756173 0.061555561
0.41185373 0.06027763 0.060464866
0.40925011 0.061747909 0.058838621
0.40750921 0.063285463 0.057747692
0.40749395 0.064939685 0.057727646
0.40489015 0.066435002 0.05610114
0.40487483 0.068094581 0.056081027
0.40054503 0.069507211 0.053383235
0.44186103 0.01149671 0.077566542
0.44012421 0.012851852 0.076475166
0.4418318 0.014669239 0.077528097
0.44181719 0.016255507 0.077508874
0.44180256 0.017841768 0.077489652
0.44178796 0.019428035 0.077470429
0.44177333 0.021014297 0.077451207
0.44434226 0.022915069 0.07904055
0.44432768 0.024495967 0.079021394
0.44431311 0.02607687 0.079002231
0.44171485 0.027359355 0.077374309
0.44170025 0.028945616 0.077355087
0.44168562 0.030531885 0.077335864
0.44167101 0.032118145 0.077316642
0.44165638 0.033704415 0.077297419
0.43991908 0.035109624 0.07620544
0.43990445 0.036699463 0.076186173
0.43816712 0.038115397 0.075094081
0.4355683 0.03945332 0.073465444
0.43383083 0.040885352 0.072373182
0.43381605 0.042487711 0.072353765
0.43207842 0.043930475 0.071261317
0.43206364 0.04553641 0.071241856
0.42946452 0.04691368 0.069612786
0.42772669 0.048376113 0.068520099
0.42598888 0.049845695 0.067427367
0.42338943 0.051251587 0.06579791
0.42337447 0.052875403 0.065778233
0.42163646 0.054364663 0.064685263
0.41903681 0.05579558 0.0630555
0.41471392 0.057109822 0.060352232
0.41469881 0.058751527 0.060332339
0.41296047 0.060272973 0.059238989
0.41036046 0.061743233 0.057608753
0.40862197 0.063280784 0.056515146
0.4060218 0.064770713 0.054884709
0.40600652 0.0664303 0.0548646
0.40599123 0.068089887 0.054844487
0.4412083 0.011257508 0.075309858
0.44119367 0.012847352 0.075290591
0.44117901 0.014437189 0.075271323
0.44288424 0.016251016 0.076326959
0.4428696 0.017837279 0.076307736
0.442855 0.019423546 0.076288514
0.44284037 0.021009807 0.076269291
0.44282576 0.022596076 0.076250069
0.44281113 0.024182336 0.076230846
0.44279653 0.025768597 0.076211624
0.4427819 0.027354866 0.076192401
0.44276729 0.028941127 0.076173179
0.44275266 0.030527394 0.076153956
0.44273806 0.032113656 0.076134726
0.4410032 0.033515282 0.075040124
0.44098857 0.035105124 0.075020857
0.43925366 0.036517475 0.073926158
0.43665853 0.037850019 0.072293587
0.43492347 0.039278459 0.071198694
0.43490869 0.040880818 0.071179278
0.43317351 0.042319991 0.070084207
0.43315873 0.04392593 0.070064746
0.43056324 0.04529782 0.06843175
0.42882788 0.046756666 0.06733644
0.42709249 0.048222665 0.066241086
0.42707756 0.049841117 0.066221476
0.42448175 0.05124699 0.064588025
0.42274618 0.052732658 0.063492425
0.42015019 0.054158196 0.061858736
0.41841444 0.055659965 0.060762946
0.41581827 0.057105172 0.059129022
0.41408241 0.058623035 0.058033038
0.41148603 0.060087919 0.056398872
0.40974998 0.061621878 0.055302657
0.40715346 0.063106433 0.053668283
0.40713817 0.064766012 0.05364817
0.40712288 0.066425607 0.053628061
0.4053866 0.067982808 0.05253157
0.44227779 0.011253008 0.074125282
0.44226313 0.012842853 0.074106015
0.44224846 0.014432689 0.074086748
0.44223383 0.016022533 0.074067481
0.44393665 0.017832788 0.075125836
0.44392204 0.019419057 0.075106613
0.44390741 0.021005318 0.075087391
0.44389281 0.022591585 0.075068168
0.4438782 0.024177846 0.075048946
0.44386357 0.025764108 0.075029723
0.44384897 0.027350375 0.075010501
0.44383433 0.028936636 0.074991278
0.44381973 0.030522905 0.074972048
0.44208732 0.031920936 0.073874816
0.44207266 0.033510782 0.073855549
0.44205803 0.035100628 0.073836282
0.44032553 0.036512963 0.072738916
0.43773398 0.037845492 0.071102351
0.43600133 0.039273921 0.070004791
0.43598658 0.040876281 0.069985375
0.43425381 0.042315446 0.068887644
0.434239 0.043921385 0.068868183
0.43164715 0.04529326 0.067231178
0.42991418 0.046752095 0.066133209
0.4281812 0.048218083 0.065035194
0.42558903 0.049618572 0.06339781
0.42557406 0.051242393 0.063378133
0.42384091 0.052728049 0.062279873
0.4212485 0.054153576 0.060642183
0.41951519 0.05565533 0.059543729
0.41520432 0.0569731 0.056827098
0.41518915 0.058618378 0.05680716
0.4125964 0.060083244 0.055168994
0.41086274 0.061617196 0.054070111
0.40826985 0.063101731 0.052431744
0.40825456 0.064761318 0.052411631
0.44336188 0.0096586719 0.072959982
0.44334722 0.011248508 0.072940715
0.44333258 0.012838352 0.072921447
0.44331792 0.014428189 0.07290218
0.44330329 0.016018033 0.072882913
0.44328862 0.01760787 0.072863646
0.44498909 0.019414566 0.073924705
0.44497448 0.021000827 0.073905475
0.44495985 0.022587096 0.073886253
0.44494525 0.024173357 0.07386703
0.44493061 0.025759617 0.073847808
0.44491601 0.027345886 0.073828585
0.44490138 0.028932147 0.073809363
0.44488677 0.030518414 0.07379014
0.44315678 0.03191644 0.072690248
0.44314212 0.033506282 0.072670981
0.44141209 0.034915034 0.071570978
0.43882421 0.036242183 0.069930486
0.437094 0.037667029 0.068830311
0.43707922 0.039269388 0.068810895
0.43534887 0.040704962 0.067710549
0.43533409 0.042310897 0.067691088
0.43274587 0.043677393 0.066050142
0.43101537 0.045132644 0.06494955
0.42928481 0.046595048 0.06384892
0.42926988 0.048213504 0.063829303
0.42668134 0.049613975 0.062187914
0.42495063 0.051096048 0.061087035
0.42236188 0.052516192 0.059445415
0.42063102 0.054014362 0.058344338
0.41804209 0.05545418 0.056702483
0.41631106 0.056968443 0.055601221
0.41372195 0.05842793 0.053959116
0.41199076 0.05995829 0.052857611
0.4119755 0.061612513 0.052837562
0.44443133 0.0096541718 0.071775399
0.4444167 0.011244008 0.071756132
0.44440204 0.012833852 0.071736872
0.44438738 0.014423689 0.071717605
0.44437274 0.016013533 0.071698338
0.44435808 0.017603369 0.071679071
0.44434345 0.019193213 0.071659803
0.44604152 0.020996338 0.072723567
0.44602692 0.022582605 0.072704345
0.44601229 0.024168868 0.072685122
0.44599769 0.025755128 0.0726659
0.44598305 0.027341396 0.07264667
0.44596845 0.028927656 0.072627448
0.44424087 0.030322101 0.07152494
0.44422624 0.031911939 0.071505673
0.44421157 0.033501782 0.071486406
0.44248393 0.034910522 0.07038375
0.43818665 0.036060132 0.067655824
0.43817186 0.037662491 0.067636408
0.43644395 0.039094482 0.066533439
0.43642914 0.040700417 0.066513978
0.43384463 0.042061534 0.064869113
0.43382978 0.043672834 0.064849585
0.43210167 0.045128074 0.063746326
0.43037352 0.046590466 0.062643014
0.42778862 0.047985561 0.06099771
0.42606032 0.049464047 0.059894204
0.42347527 0.050878808 0.058248647
0.42174682 0.052373394 0.057144962
0.42173174 0.054009732 0.057125133
0.41914642 0.05544953 0.055479269
0.41484752 0.056772612 0.05274925
0.44551545 0.0080598276 0.070610091
0.44550079 0.0096496716 0.070590824
0.44548616 0.011239508 0.070571557
0.4454715 0.012829352 0.070552289
0.44545683 0.014419189 0.070533022
0.4454422 0.016009033 0.070513755
0.44542754 0.017598869 0.070494495
0.4454129 0.019188713 0.070475228
0.4471086 0.020991847 0.071541652
0.44709396 0.022578117 0.07152243
0.44707936 0.024164377 0.071503207
0.44706473 0.025750637 0.071483985
0.44705012 0.027336907 0.071464762
0.44532499 0.028727757 0.070359625
0.44531035 0.030317601 0.070340358
0.44529569 0.031907439 0.070321091
0.44357049 0.033312593 0.069215812
0.44098988 0.034634348 0.067567393
0.43926451 0.036055595 0.066461928
0.43753904 0.037484001 0.065356337
0.43752423 0.039089937 0.065336876
0.43750945 0.040695872 0.065317415
0.43492851 0.04205697 0.063668542
0.43320283 0.043508619 0.062562659
0.43147713 0.044967432 0.06145674
0.42889589 0.046357144 0.059807491
0.42888093 0.047980964 0.059787814
0.42458862 0.049241424 0.057051882
0.42286262 0.050732423 0.055945572
0.42284754 0.05236876 0.055925742
0.42026591 0.053803183 0.054275941
0.41853973 0.055313848 0.053169396
0.44489196 0.0062199868 0.068356849
0.44658491 0.0080553275 0.069425523
0.44657025 0.0096451715 0.069406256
0.44655558 0.011235008 0.069386989
0.44654095 0.012824852 0.069367722
0.44652629 0.01441469 0.069348454
0.44651166 0.016004533 0.069329195
0.44649699 0.017594371 0.069309928
0.44648233 0.019184215 0.06929066
0.44817564 0.020987358 0.070359752
0.44816101 0.022573626 0.070340529
0.4481464 0.024159888 0.070321307
0.44813177 0.025746148 0.070302084
0.44640908 0.02713342 0.069194324
0.44639444 0.028723257 0.069175057
0.44637978 0.030313101 0.06915579
0.44465703 0.03171467 0.068047889
0.44208008 0.033031039 0.066395529
0.44035715 0.034448702 0.065287441
0.4403424 0.036051061 0.065268025
0.43861932 0.037479457 0.064159766
0.43860453 0.039085392 0.064140305
0.43602726 0.040441107 0.062487509
0.43430403 0.041889176 0.061379001
0.43258077 0.043344401 0.060270462
0.43256584 0.044962849 0.060250849
0.42998821 0.04635255 0.058597598
0.42826477 0.047827438 0.057488807
0.42568696 0.049236804 0.055835329
0.42396337 0.050727792 0.054726355
0.42394829 0.05236413 0.054706525
0.42137024 0.053798538 0.053052731
0.41964647 0.055309191 0.051943518
0.44596383 0.0062154769 0.067169607
0.44765437 0.0080508273 0.068240948
0.4476397 0.0096406713 0.068221681
0.44762507 0.011230509 0.068202414
0.44761041 0.012820353 0.068183146
0.44759575 0.014410189 0.068163879
0.44758111 0.016000034 0.068144612
0.44756645 0.017589871 0.068125345
0.44755182 0.019179715 0.068106078
0.44924268 0.020982867 0.069177844
0.44922808 0.022569137 0.069158621
0.44921345 0.024155397 0.069139391
0.4474932 0.025539076 0.068029016
0.44747856 0.02712892 0.068009749
0.4474639 0.028718757 0.067990482
0.44744924 0.030308601 0.067971215
0.4457289 0.031710159 0.066860646
0.44315556 0.033026516 0.065204293
0.44143504 0.034444164 0.064093538
0.4397144 0.035868976 0.062982664
0.43969962 0.037474912 0.062963203
0.43712598 0.038825244 0.061306473
0.43540519 0.040269725 0.060195345
0.43368438 0.041721363 0.059084184
0.43366945 0.043339819 0.059064571
0.43109548 0.044724129 0.05740739
0.42937449 0.046195436 0.05629598
0.42680034 0.047599424 0.054638561
0.42507917 0.049086824 0.053526964
0.42506409 0.050723162 0.053507134
0.4224897 0.052152187 0.051849414
0.44448149 0.0058426876 0.064342432
0.44702101 0.0078043868 0.065963052
0.44700634 0.0093977991 0.06594374
0.44869453 0.011226009 0.067017838
0.44867986 0.012815853 0.066998571
0.44866523 0.014405689 0.066979304
0.44865057 0.015995534 0.066960037
0.44863591 0.017585371 0.06694077
0.44862127 0.019175215 0.066921502
0.44860661 0.020765059 0.066902235
0.45029512 0.022564646 0.067976706
0.44857731 0.023944739 0.066863701
0.44856265 0.025534576 0.066844434
0.44854802 0.02712442 0.066825174
0.44853336 0.028714256 0.066805907
0.44681543 0.030112229 0.065692715
0.44680077 0.031705651 0.065673403
0.44423103 0.03302199 0.064013056
0.4425129 0.034439631 0.062899642
0.44079471 0.035864428 0.061786097
0.44077989 0.037470363 0.061766636
0.43820989 0.038820684 0.060105912
0.43649149 0.040265154 0.058992121
0.43477309 0.041716784 0.057878293
0.43220276 0.043095715 0.056217175
0.43048421 0.044563431 0.055103138
0.4279137 0.045962039 0.053441793
0.426195 0.047445852 0.052327577
0.42617992 0.04908219 0.052307744
0.44385657 0.0055926279 0.062055264
0.44554222 0.007436946 0.063131817
0.44807819 0.0093932897 0.064756513
0.44806349 0.010986709 0.064737201
0.44804883 0.012580129 0.064717889
0.44803414 0.014173542 0.064698577
0.44972003 0.015991034 0.065775469
0.44970536 0.017580871 0.065756202
0.44969073 0.019170715 0.065736935
0.44967607 0.020760559 0.065717667
0.4496614 0.022350395 0.0656984
0.44964677 0.023940239 0.065679133
0.44963211 0.025530076 0.065659873
0.44961748 0.02711992 0.065640606
0.44790199 0.0285143 0.064524792
0.4478873 0.03010772 0.06450548
0.44532123 0.031418681 0.062841192
0.44360554 0.032832734 0.061725155
0.44188976 0.034253947 0.06060899
0.44187498 0.035859883 0.06058953
0.43930864 0.037204824 0.058924869
0.43759269 0.038645703 0.057808455
0.4358767 0.040093746 0.056692004
0.43331006 0.041467302 0.055026956
0.43329507 0.043091118 0.055007279
0.43157893 0.044558827 0.05389059
0.42901203 0.04595742 0.05222524
0.44323644 0.0053425552 0.059762731
0.44491971 0.0071904524 0.060841944
0.44660297 0.0090311971 0.061921205
0.44658822 0.010629981 0.06190183
0.4465735 0.012228765 0.061882459
0.44910601 0.014169032 0.063511334
0.44909132 0.015762452 0.06349203
0.45077482 0.01757637 0.064571626
0.45076019 0.019166214 0.064552359
0.45074552 0.020756058 0.064533092
0.45073086 0.022345895 0.064513825
0.45071623 0.023935739 0.064494558
0.45070156 0.025525576 0.06447529
0.44898853 0.026916377 0.063356861
0.44897386 0.02850979 0.06333755
0.44641143 0.029815372 0.061669335
0.44639671 0.031414155 0.06164996
0.44468343 0.032828201 0.060531255
0.44297007 0.034249403 0.059412424
0.44040737 0.035588965 0.057743836
0.43869385 0.037026256 0.0566248
0.43698031 0.038470712 0.055505726
0.43441731 0.039838888 0.053836752
0.43440235 0.041462705 0.053817075
0.43268865 0.042926826 0.052697752
0.44430193 0.0069439453 0.058546703
0.44598281 0.0087882765 0.059628624
0.44596803 0.010390637 0.059609208
0.44595328 0.011992996 0.059589788
0.4459385 0.013595356 0.059570372
0.45016319 0.015757943 0.062304795
0.45014849 0.017351361 0.062285487
0.4501338 0.018944774 0.062266175
0.45181498 0.020751558 0.063348517
0.45180035 0.022341395 0.06332925
0.45178568 0.023931239 0.063309982
0.45007509 0.025318448 0.062188935
0.4500604 0.026911868 0.062169626
0.44750163 0.028212063 0.060497474
0.44748691 0.029810846 0.060478099
0.44577608 0.031221304 0.059356771
0.44406515 0.032638922 0.058235317
0.44405034 0.034244858 0.058215857
0.43979505 0.035406813 0.055441141
0.43808395 0.036847681 0.054319449
0.43552461 0.038210467 0.052646536
0.43550962 0.039834291 0.052626856
0.44284242 0.006576424 0.055694181
0.44536743 0.0085453354 0.057330672
0.44704592 0.010386101 0.058415305
0.44533783 0.011757206 0.05729175
0.44701639 0.01359082 0.058376469
0.44869497 0.015417282 0.059461236
0.45122036 0.017346852 0.06109824
0.45120567 0.018940264 0.061078932
0.45119101 0.020533685 0.06105962
0.45117632 0.022127105 0.061040312
0.45116162 0.023720518 0.061021004
0.45114693 0.025313936 0.061001692
0.44859183 0.026608761 0.059325609
0.44857711 0.028207537 0.059306238
0.44686872 0.029614417 0.058182288
0.44685397 0.03121677 0.058162868
0.44514543 0.032634377 0.05703875
0.44259 0.033968542 0.055362232
0.43918756 0.035224639 0.053133167
0.43917263 0.036843099 0.053113557
0.4422355 0.0063298638 0.053386938
0.4464477 0.0085407896 0.056134105
0.44643289 0.010146725 0.056114644
0.44641811 0.01175266 0.056095183
0.44640329 0.013358597 0.056075722
0.44977045 0.015412756 0.05827
0.4497557 0.01701154 0.058250625
0.44974098 0.018610317 0.058231249
0.44972625 0.0202091 0.058211874
0.4497115 0.021807885 0.058192499
0.44969678 0.023406668 0.058173124
0.44968206 0.025005452 0.058153749
0.4496673 0.026604235 0.058134373
0.44796136 0.028007522 0.057007805
0.44794661 0.029609881 0.056988385
0.44624051 0.031023895 0.055861644
0.44368875 0.032352675 0.0541812
0.44198251 0.033782788 0.053054251
0.44027627 0.03522006 0.051927269
0.44163343 0.0060832989 0.051074415
0.44499537 0.008178602 0.053273536
0.44751316 0.01014218 0.054918088
0.44496566 0.011401201 0.053234484
0.44748357 0.013354051 0.054879166
0.44915739 0.015184109 0.055969246
0.45083117 0.017007016 0.057059389
0.45081645 0.018605791 0.057040013
0.4508017 0.020204576 0.057020638
0.45078698 0.021803359 0.057001263
0.45077226 0.023402143 0.056981888
0.4507575 0.025000926 0.056962512
0.449054 0.026400628 0.055833321
0.44903925 0.028002987 0.055813901
0.4473356 0.029413413 0.05468455
0.44478747 0.030736815 0.053000163
0.4430837 0.032163341 0.051870596
0.44606441 0.0097853411 0.05205344
0.44603473 0.013007947 0.052014384
0.44854906 0.014955441 0.053663135
0.4502205 0.016781934 0.054755926
0.45189193 0.018601267 0.055848777
0.45187718 0.02020005 0.055829402
0.45186245 0.021798834 0.055810027
0.45016143 0.023191372 0.054678254
0.45014665 0.024793733 0.054658838
0.45013189 0.026396092 0.054639418
0.44843066 0.027802933 0.053507444
0.44841588 0.029408868 0.053487983
0.44587138 0.030732255 0.051799592
0.45129836 0.016777398 0.053562026
0.4512836 0.018379757 0.053542607
0.45126882 0.019982118 0.05352319
0.45125407 0.021584477 0.05350377
0.45123929 0.023186836 0.053484354
0.45122454 0.024789197 0.053464934
0.44952574 0.026192451 0.052330337
0.44951096 0.027798388 0.052310877
0.45069483 0.016552286 0.05125054
0.45236146 0.018375222 0.052348707
0.45234671 0.019977583 0.052329287
0.45233193 0.021579942 0.052309871
0.45063564 0.022976028 0.051172692
0.45062083 0.024581963 0.051153231
0.45060605 0.026187906 0.05113377
