# .PCD v0.7 - Point Cloud Data file format
VERSION 0.7
FIELDS x y z
SIZE 4 4 4
TYPE F F F
COUNT 1 1 1
WIDTH 1368
HEIGHT 1
VIEWPOINT 0 0 0 1 0 0 0
POINTS 1368
DATA ascii
0.39219135 0.014614513 0.10863761
0.39217648 0.016229387 0.10861804
0.39216161 0.017844271 0.10859847
0.39214671 0.019459145 0.1085789
0.39213184 0.021074021 0.10855933
0.39031515 0.022483144 0.10755529
0.39030024 0.024101604 0.10753568
0.3812609 0.026363352 0.10257332
0.38755259 0.028669778 0.10599981
0.38753763 0.030293601 0.10598013
0.38752267 0.031917423 0.10596045
0.38750771 0.03354124 0.10594077
0.39019585 0.035430782 0.10739838
0.39018092 0.037049241 0.10737877
0.39016601 0.038667694 0.10735916
0.39015111 0.040286146 0.10733955
0.39013618 0.041904602 0.10731993
0.39012128 0.043523058 0.10730032
0.39010635 0.045141507 0.1072807
0.39159775 0.0014386548 0.10660437
0.39158285 0.0030571134 0.10658476
0.39156792 0.0046755644 0.10656514
0.39155301 0.0062940228 0.10654553
0.39153808 0.0079124738 0.10652591
0.39152318 0.0095309326 0.1065063
0.39150825 0.011149384 0.10648669
0.39329255 0.012995067 0.10745396
0.39327765 0.014609942 0.10743438
0.39326277 0.016224816 0.10741482
0.3932479 0.0178397 0.10739525
0.393233 0.019454576 0.10737567
0.39321813 0.02106945 0.10735611
0.39320326 0.022684334 0.10733654
0.39138895 0.024097022 0.10632978
0.39137402 0.025715474 0.10631017
0.39135912 0.027333932 0.10629056
0.39134419 0.028952383 0.10627095
0.39132929 0.03057084 0.10625133
0.39131439 0.032189291 0.10623172
0.39129946 0.033807751 0.1062121
0.39128456 0.035426203 0.10619249
0.39126962 0.037044659 0.10617287
0.39125472 0.038663112 0.10615326
0.39123979 0.040281568 0.10613365
0.39122489 0.04190002 0.10611404
0.39120996 0.043518476 0.10609443
0.39119506 0.045136929 0.10607481
0.39268646 0.0014340738 0.10539847
0.39267156 0.0030525324 0.10537885
0.39265662 0.0046709836 0.10535924
0.39264172 0.0062894421 0.10533962
0.39262679 0.0079078926 0.10532001
0.39261189 0.0095263515 0.1053004
0.39439371 0.011375614 0.10627029
0.39437884 0.012990496 0.10625072
0.39436397 0.014605371 0.10623115
0.39434907 0.016220247 0.10621158
0.3943342 0.017835129 0.10619201
0.39431933 0.019450005 0.10617244
0.39430442 0.021064879 0.10615287
0.39428955 0.022679763 0.1061333
0.39427468 0.024294637 0.10611373
0.39246273 0.025710892 0.10510427
0.39244783 0.02732935 0.10508466
0.39243293 0.028947802 0.10506504
0.392418 0.03056626 0.10504543
0.3924031 0.032184713 0.10502581
0.39238816 0.033803169 0.1050062
0.39237326 0.035421621 0.10498659
0.39235833 0.037040081 0.10496698
0.39234343 0.03865853 0.10494737
0.3923285 0.040276986 0.10492775
0.3923136 0.041895442 0.10490814
0.3922987 0.043513894 0.10488852
0.39228377 0.045132346 0.10486891
0.39379007 -0.00018895822 0.10421219
0.39377517 0.0014294928 0.10419258
0.39376023 0.0030479515 0.10417296
0.39374533 0.0046664025 0.10415335
0.39373043 0.0062848609 0.10413373
0.3937155 0.0079033123 0.10411412
0.3937006 0.0095217703 0.10409451
0.39548001 0.011371043 0.10506707
0.39546514 0.012985925 0.10504749
0.39545026 0.0146008 0.10502792
0.39543536 0.016215676 0.10500836
0.39542049 0.017830558 0.10498878
0.39540562 0.019445434 0.10496921
0.39539072 0.021060308 0.10494965
0.39537585 0.022675192 0.10493007
0.39536098 0.024290066 0.1049105
0.39534608 0.025904942 0.10489094
0.3953312 0.027519824 0.10487136
0.39531633 0.0291347 0.1048518
0.39530143 0.030749574 0.10483222
0.39349177 0.03218013 0.10381992
0.39347687 0.03379859 0.10380031
0.39346197 0.035417039 0.10378069
0.39524192 0.03720909 0.10475394
0.39522704 0.038823966 0.10473438
0.39521214 0.040438846 0.1047148
0.39340231 0.04189086 0.10370225
0.39338738 0.043509316 0.10368263
0.39337248 0.045127764 0.10366302
0.39335755 0.04674622 0.1036434
0.39487877 -0.00019353916 0.1030063
0.39486387 0.0014249119 0.10298669
0.39484894 0.0030433706 0.10296707
0.39483404 0.0046618218 0.10294746
0.39481911 0.0062802802 0.10292785
0.39480421 0.0078987312 0.10290823
0.3965812 0.0097515965 0.10388341
0.3965663 0.011366472 0.10386384
0.39655143 0.012981354 0.10384427
0.39653656 0.014596229 0.1038247
0.39652166 0.016211106 0.10380512
0.39650679 0.017825987 0.10378556
0.39649191 0.019440863 0.10376599
0.39647701 0.021055738 0.10374642
0.39646214 0.022670621 0.10372685
0.39644727 0.024285495 0.10370728
0.39643237 0.025900371 0.10368771
0.3964175 0.027515253 0.10366814
0.39640263 0.029130129 0.10364857
0.39638773 0.030745003 0.103629
0.39637285 0.032359887 0.10360943
0.39635798 0.033974763 0.10358986
0.39634308 0.035589647 0.10357029
0.39632821 0.037204519 0.10355072
0.39631334 0.038819395 0.10353115
0.39629844 0.040434275 0.10351158
0.39628357 0.042049155 0.10349201
0.3962687 0.043664027 0.10347244
0.39625379 0.045278911 0.10345287
0.39623892 0.04689379 0.1034333
0.39622405 0.04850867 0.10341373
0.39596748 -0.00019812011 0.1018004
0.39595258 0.001420331 0.10178079
0.39593765 0.0030387896 0.10176118
0.39592275 0.0046572406 0.10174157
0.39590782 0.006275699 0.10172196
0.39589292 0.00789415 0.10170234
0.39587799 0.0095126089 0.10168273
0.3976526 0.011361901 0.10266061
0.39763772 0.012976783 0.10264104
0.39762285 0.014591658 0.10262147
0.39760795 0.016206535 0.1026019
0.39759308 0.017821416 0.10258234
0.39757821 0.019436292 0.10256276
0.39756331 0.021051167 0.10254319
0.39754844 0.02266605 0.10252362
0.39753357 0.024280924 0.10250405
0.39751866 0.0258958 0.10248448
0.39750379 0.027510682 0.10246491
0.39748892 0.029125558 0.10244534
0.39747402 0.030740434 0.10242578
0.39745915 0.032355316 0.1024062
0.39744428 0.033970192 0.10238663
0.39742938 0.035585076 0.10236707
0.39741451 0.037199948 0.10234749
0.39739963 0.038814824 0.10232792
0.39738473 0.040429704 0.10230836
0.39736986 0.042044584 0.10228878
0.39735499 0.043659456 0.10226921
0.39734009 0.04527434 0.10224964
0.39732522 0.046889219 0.10223007
0.39552006 0.048355512 0.10121201
0.39439076 -0.0022103626 0.099114358
0.39705619 -0.00020270109 0.10059451
0.39704129 0.00141575 0.10057489
0.39702636 0.0030342084 0.10055528
0.39701146 0.0046526594 0.10053567
0.39699653 0.0062711183 0.10051605
0.39698163 0.0078895688 0.10049644
0.3969667 0.0095080277 0.10047682
0.39695179 0.011126479 0.10045721
0.39872402 0.012972212 0.10143781
0.39870915 0.014587088 0.10141823
0.39869428 0.016201964 0.10139867
0.39867938 0.017816845 0.1013791
0.3986645 0.019431721 0.10135952
0.39864963 0.021046596 0.10133996
0.39863473 0.022661479 0.10132039
0.39861986 0.024276353 0.10130081
0.39860499 0.02589123 0.10128125
0.39859009 0.027506111 0.10126168
0.39857522 0.029120987 0.1012421
0.39856035 0.030735863 0.10122254
0.39854544 0.032350745 0.10120296
0.39853057 0.033965621 0.1011834
0.3985157 0.035580505 0.10116383
0.3985008 0.037195377 0.10114425
0.39848593 0.038810253 0.10112469
0.39847106 0.040425133 0.10110512
0.39845616 0.042040013 0.10108554
0.39844128 0.043654885 0.10106598
0.39842641 0.045269769 0.10104641
0.39662367 0.046732478 0.10002572
0.39660877 0.04835093 0.1000061
0.39659384 0.049969383 0.099986494
0.39548308 -0.0022149589 0.097904466
0.3981449 -0.00020728204 0.099388614
0.39812997 0.0014111691 0.099368997
0.39811507 0.0030296275 0.099349387
0.39810017 0.0046480787 0.099329777
0.39808524 0.0062665371 0.09931016
0.39807034 0.0078849886 0.09929055
0.3980554 0.0095034465 0.099270932
0.3980405 0.011121898 0.099251322
0.39802557 0.012740357 0.099231705
0.39801067 0.014358807 0.099212095
0.39799574 0.015977265 0.099192478
0.39798084 0.017595718 0.099172868
0.39796594 0.019214168 0.099153258
0.39795101 0.020832626 0.099133641
0.39972103 0.022656908 0.10011716
0.39970616 0.024271782 0.10009759
0.39969128 0.025886659 0.10007802
0.39967638 0.027501542 0.10005845
0.39966151 0.029116416 0.10003888
0.39964664 0.030731292 0.10001931
0.39963174 0.032346174 0.099999741
0.39961687 0.03396105 0.099980168
0.399602 0.035575934 0.099960603
0.39958709 0.037190806 0.09994103
0.39957222 0.038805682 0.099921457
0.39955735 0.040420562 0.099901892
0.39954245 0.042035442 0.09988232
0.39952758 0.043650314 0.099862754
0.39772728 0.04510944 0.098839439
0.39771238 0.046727896 0.09881983
0.39769745 0.048346352 0.098800212
0.39768255 0.0499648 0.098780602
0.39498928 0.051371086 0.097255081
0.39051035 0.052650213 0.09472546
0.39657542 -0.002219555 0.096694566
0.39923361 -0.00021186298 0.098182723
0.39921868 0.0014065881 0.098163113
0.39920378 0.0030250465 0.098143496
0.39918885 0.0046434975 0.098123886
0.39917395 0.0062619564 0.098104268
0.39915901 0.0078804074 0.098084658
0.39914411 0.0094988663 0.098065041
0.39912921 0.011117317 0.098045431
0.39911428 0.012735776 0.098025814
0.39909938 0.014354226 0.098006204
0.39908445 0.015972685 0.097986586
0.39906955 0.017591136 0.097966976
0.39905462 0.019209588 0.097947367
0.39903972 0.020828046 0.097927749
0.39902478 0.022446496 0.097908139
0.39900988 0.024064956 0.097888522
0.39899498 0.025683407 0.097868912
0.39898005 0.027301865 0.097849295
0.39896515 0.028920315 0.097829685
0.39895022 0.030538775 0.097810067
0.39893532 0.032157227 0.097790457
0.39892039 0.033775683 0.097770847
0.39890549 0.035394136 0.09775123
0.40067339 0.037186235 0.098737806
0.40065852 0.038801111 0.098718233
0.40064365 0.040415991 0.098698668
0.39884582 0.041867953 0.097672775
0.39883092 0.043486409 0.097653165
0.39881599 0.045104861 0.097633548
0.39880109 0.046723314 0.097613938
0.39878616 0.04834177 0.097594328
0.39877126 0.049960222 0.097574711
0.3960816 0.051366489 0.096045189
0.39428347 0.052852418 0.095018886
0.39159364 0.054278355 0.093489125
0.39766771 -0.002224151 0.095484681
0.39765275 -0.00060033618 0.095465004
0.40030739 0.0014020072 0.096957222
0.40029249 0.0030204656 0.096937604
0.40027755 0.0046389168 0.096917994
0.40026265 0.0062573752 0.096898377
0.40024772 0.0078758262 0.096878767
0.40023282 0.0094942851 0.09685915
0.40021789 0.011112736 0.09683954
0.40020299 0.012731194 0.096819922
0.40018806 0.014349646 0.096800312
0.40017316 0.015968105 0.096780695
0.40015826 0.017586555 0.096761085
0.40014333 0.019205006 0.096741475
0.40012842 0.020823466 0.096721858
0.40011349 0.022441916 0.096702248
0.40009859 0.024060374 0.09668263
0.40008366 0.025678825 0.096663021
0.40006876 0.027297284 0.096643403
0.40005383 0.028915735 0.096623793
0.40003893 0.030534193 0.096604176
0.40002403 0.032152645 0.096584566
0.4000091 0.033771105 0.096564956
0.39999419 0.035389554 0.096545339
0.39997926 0.037008014 0.096525729
0.39996436 0.038626462 0.096506111
0.39994943 0.040244918 0.096486501
0.39993453 0.041863374 0.096466884
0.3999196 0.043481827 0.096447274
0.3999047 0.045100279 0.096427657
0.3998898 0.046718735 0.096408047
0.39987487 0.048337188 0.096388437
0.39718887 0.049738072 0.094854981
0.39539319 0.051220417 0.093826048
0.3953782 0.052847814 0.093806326
0.39269197 0.054273732 0.092272572
0.39089608 0.055775754 0.091243409
0.39699781 -0.0041156588 0.093284018
0.39698282 -0.0024882609 0.093264297
0.39874506 -0.00060493237 0.094255112
0.4013961 0.0013974261 0.095751315
0.40138119 0.0030158847 0.095731705
0.40136626 0.0046343356 0.095712088
0.40135136 0.0062527945 0.095692478
0.40133643 0.007871245 0.095672861
0.40132153 0.0094897039 0.095653251
0.4013066 0.011108155 0.095633633
0.4012917 0.012726613 0.095614024
0.4012768 0.014345065 0.095594406
0.40126187 0.015963523 0.095574796
0.40124696 0.017581975 0.095555186
0.40123203 0.019200426 0.095535569
0.40121713 0.020818884 0.095515959
0.4012022 0.022437334 0.095496342
0.4011873 0.024055794 0.095476732
0.40117237 0.025674244 0.095457114
0.40115747 0.027292702 0.095437504
0.40114257 0.028911155 0.095417887
0.40112764 0.030529613 0.095398277
0.40111274 0.032148063 0.095378667
0.4010978 0.033766523 0.09535905
0.4010829 0.035384972 0.09533944
0.40284601 0.037177093 0.096331343
0.40283114 0.038791969 0.09631177
0.40281624 0.040406849 0.096292205
0.40102324 0.041858792 0.095260985
0.40100834 0.043477248 0.095241368
0.40099341 0.045095697 0.095221758
0.40097851 0.046714153 0.095202148
0.40096357 0.048332609 0.095182531
0.40094867 0.049951058 0.095162921
0.39826623 0.051357295 0.093625404
0.39647293 0.052843206 0.092593767
0.3937903 0.054269113 0.091056019
0.39199683 0.05577112 0.090024188
0.39809251 -0.0041202651 0.092071474
0.39807752 -0.0024928672 0.092051752
0.39983737 -0.00060952851 0.09304522
0.39982241 0.0010142939 0.093025535
0.39980745 0.0026381088 0.093005858
0.40245497 0.0046297549 0.094506197
0.40244007 0.0062482134 0.094486587
0.40242514 0.0078666648 0.094466969
0.40241024 0.0094851227 0.094447359
0.40239531 0.011103574 0.094427742
0.40238041 0.012722033 0.094408132
0.40236548 0.014340484 0.094388522
0.40235057 0.015958942 0.094368905
0.40233564 0.017577393 0.094349295
0.40232074 0.019195843 0.094329678
0.40230584 0.020814303 0.094310068
0.40229091 0.022432754 0.09429045
0.40227601 0.024051212 0.09427084
0.40226108 0.025669664 0.094251223
0.40224618 0.027288122 0.094231613
0.40223125 0.028906573 0.094211996
0.40221635 0.030525032 0.094192386
0.40220141 0.032143481 0.094172776
0.40218651 0.033761941 0.094153158
0.40217161 0.035380393 0.094133548
0.40215668 0.036998849 0.094113931
0.40214178 0.038617302 0.094094321
0.40212685 0.040235758 0.094074704
0.40211195 0.04185421 0.094055094
0.40209702 0.043472666 0.094035476
0.39941838 0.04485742 0.092494227
0.39940342 0.046481241 0.09247455
0.39938846 0.048105061 0.092454866
0.39759761 0.049583808 0.091420658
0.39758262 0.051211208 0.091400936
0.39490366 0.052631728 0.089859247
0.39488861 0.05426449 0.089839466
0.39309755 0.055766489 0.088804968
0.39308247 0.057402827 0.088785142
0.39652863 -0.0045195371 0.089335226
0.39917225 -0.0024974733 0.090839192
0.39915726 -0.00087008259 0.090819471
0.40091473 0.0010096977 0.091815658
0.40089977 0.0026335125 0.091795973
0.40088481 0.0042573349 0.091776296
0.40086985 0.0058811572 0.09175662
0.40085489 0.0075049722 0.091736943
0.4008399 0.0091287941 0.091717266
0.40082493 0.010752616 0.091697581
0.40080997 0.012376431 0.091677904
0.40079501 0.014000254 0.091658227
0.40078005 0.015624069 0.09163855
0.40076509 0.017247891 0.091618873
0.40075013 0.018871713 0.091599196
0.40073517 0.020495528 0.091579512
0.40072021 0.022119351 0.091559835
0.40070525 0.023743173 0.091540158
0.40069026 0.025366988 0.091520481
0.4006753 0.02699081 0.091500804
0.40066034 0.028614625 0.091481127
0.40064538 0.030238448 0.091461442
0.40063041 0.03186227 0.091441765
0.40061545 0.033486083 0.091422088
0.40060049 0.035109907 0.091402411
0.40058553 0.036733728 0.091382734
0.40057057 0.038357545 0.091363057
0.40055558 0.039981365 0.091343373
0.40054062 0.041605186 0.091323696
0.40052566 0.043229003 0.091304019
0.4005107 0.044852823 0.091284342
0.40049574 0.046476644 0.091264665
0.39870733 0.047951806 0.09022782
0.39869234 0.049579203 0.090208098
0.39601704 0.050994344 0.088662483
0.39600199 0.052627105 0.088642694
0.39598694 0.05425987 0.088622905
0.3941983 0.055761859 0.087585755
0.39418322 0.057398196 0.087565921
0.39416814 0.059034534 0.087546095
0.39587206 -0.0064236159 0.087120071
0.39762694 -0.0045241583 0.088118672
0.39761189 -0.0028913964 0.088098891
0.40025195 -0.00087468885 0.089606918
0.40023696 0.00075270934 0.089587197
0.40022197 0.0023801075 0.089567475
0.40020698 0.0040075057 0.089547753
0.40196216 0.0058765612 0.090546727
0.4019472 0.0075003761 0.090527043
0.40193224 0.009124198 0.090507366
0.40191725 0.01074802 0.090487689
0.40190229 0.012371835 0.090468012
0.40188733 0.013995658 0.090448335
0.40187237 0.015619473 0.090428658
0.40185741 0.017243296 0.090408973
0.40184245 0.018867118 0.090389296
0.40182748 0.020490931 0.090369619
0.40181252 0.022114754 0.090349942
0.40179756 0.023738576 0.090330265
0.4017826 0.025362391 0.090310588
0.40176761 0.026986213 0.090290904
0.40175265 0.028610028 0.090271227
0.40173769 0.030233851 0.09025155
0.40172273 0.031857673 0.090231873
0.40170777 0.03348149 0.090212196
0.40169281 0.03510531 0.090192519
0.40167785 0.036729135 0.090172835
0.40166289 0.038352948 0.090153158
0.40164793 0.039976772 0.090133481
0.40163293 0.041600589 0.090113804
0.40161797 0.043224409 0.090094127
0.40160301 0.044848226 0.090074442
0.39981705 0.046319805 0.089034989
0.39980206 0.047947202 0.089015268
0.39978707 0.049574595 0.088995546
0.39711538 0.050989725 0.08744593
0.39710033 0.052622486 0.087426141
0.39708528 0.054255247 0.087406352
0.39529905 0.055757225 0.086366534
0.39528397 0.057393566 0.086346701
0.39526889 0.059029903 0.086326875
0.3969577 -0.0047919098 0.085881025
0.39694262 -0.0031555719 0.085861191
0.39869517 -0.0012632558 0.086862549
0.39868012 0.00036950613 0.08684276
0.3986651 0.0020022606 0.086822972
0.40130171 0.0040028994 0.088335194
0.40128669 0.0056302901 0.088315472
0.4012717 0.0072576883 0.08829575
0.40125671 0.0088850865 0.088276029
0.40124172 0.010512485 0.088256307
0.4012267 0.012139875 0.088236585
0.40121171 0.013767274 0.088216864
0.40119672 0.015394672 0.088197142
0.40118173 0.017022062 0.08817742
0.40116674 0.018649461 0.088157699
0.40115172 0.020276859 0.088137977
0.40113673 0.021904258 0.088118255
0.40112174 0.023531647 0.088098533
0.40110675 0.025159046 0.088078812
0.40109175 0.026786445 0.08805909
0.40107673 0.028413843 0.088039368
0.40106174 0.030041233 0.088019647
0.40281504 0.031853076 0.089021981
0.40280008 0.033476893 0.089002296
0.40278512 0.035100713 0.088982619
0.40277016 0.036724538 0.088962942
0.4027552 0.038348351 0.088943265
0.40274024 0.039972175 0.088923588
0.40272528 0.041595992 0.088903904
0.40271029 0.043219812 0.088884227
0.40092677 0.044687804 0.087842152
0.40091178 0.046315201 0.08782243
0.40089679 0.047942594 0.087802708
0.39822873 0.04935234 0.086249165
0.39821371 0.050985102 0.086229376
0.39819866 0.052617863 0.086209588
0.39818361 0.054250624 0.086189799
0.39639977 0.055752594 0.085147314
0.39638469 0.057388932 0.085127488
0.39636961 0.059025269 0.085107654
0.39635453 0.060661606 0.085087821
0.39805841 -0.0047965413 0.084661819
0.39804333 -0.0031602036 0.084641986
0.39802825 -0.0015238656 0.084622152
0.39977846 0.00036488468 0.085626207
0.39976341 0.0019976392 0.085606419
0.39974838 0.0036304011 0.085586637
0.39973333 0.0052631632 0.085566849
0.39971828 0.0068959254 0.08554706
0.39970323 0.0085286871 0.085527271
0.39968818 0.010161449 0.08550749
0.39967313 0.011794211 0.085487701
0.39965808 0.013426973 0.085467912
0.39964303 0.015059735 0.085448131
0.39962801 0.016692497 0.085428342
0.39961296 0.018325252 0.085408553
0.39959791 0.019958014 0.085388765
0.39958286 0.021590775 0.085368983
0.39956781 0.023223538 0.085349195
0.39955276 0.024856299 0.085329406
0.39953771 0.026489062 0.085309625
0.40217146 0.028409237 0.086826809
0.40215647 0.030036626 0.086807087
0.40214148 0.031664025 0.086787365
0.40212649 0.033291422 0.086767644
0.40211147 0.034918822 0.086747922
0.40209648 0.036546212 0.0867282
0.40208149 0.038173612 0.086708479
0.4020665 0.039801009 0.086688757
0.40205151 0.041428402 0.086669035
0.40203649 0.043055803 0.086649314
0.4020215 0.044683196 0.086629592
0.40200651 0.046310592 0.08660987
0.39934212 0.04771496 0.085052393
0.39932707 0.049347717 0.085032612
0.39931202 0.050980479 0.085012823
0.39929697 0.052613243 0.084993035
0.39751557 0.054111626 0.083947934
0.39750049 0.055747963 0.083928108
0.39748541 0.057384301 0.083908275
0.39747033 0.059020638 0.083888449
0.39745525 0.060656976 0.083868615
0.39653009 -0.0068376083 0.081922814
0.39915916 -0.0048011728 0.083442599
0.39914408 -0.003164835 0.083422765
0.399129 -0.0015284972 0.083402939
0.39911392 0.00010784067 0.083383106
0.39909884 0.0017441785 0.08336328
0.40084669 0.0036257796 0.084370084
0.40083164 0.0052585416 0.084350295
0.40081662 0.0068913037 0.084330507
0.40080157 0.0085240658 0.084310718
0.40078652 0.010156828 0.084290937
0.40077147 0.01178959 0.084271148
0.40075642 0.013422351 0.084251359
0.40074137 0.015055113 0.084231578
0.40072632 0.016687876 0.084211789
0.40071127 0.018320629 0.084192
0.40069625 0.019953392 0.084172212
0.4006812 0.021586154 0.08415243
0.40066615 0.023218917 0.084132642
0.4006511 0.024851678 0.084112853
0.40063605 0.026484441 0.084093072
0.400621 0.028117202 0.084073283
0.40060595 0.029749963 0.084053494
0.40059093 0.031382725 0.084033705
0.40057588 0.03301549 0.084013924
0.40056083 0.034648251 0.083994135
0.40054578 0.036281005 0.083974347
0.40053073 0.037913766 0.083954565
0.40051568 0.039546527 0.083934776
0.40050063 0.041179292 0.083914988
0.40048558 0.042812053 0.083895199
0.40047055 0.044444814 0.083875418
0.4004555 0.046077576 0.083855629
0.40044045 0.047710337 0.08383584
0.4004254 0.049343098 0.083816059
0.40041035 0.050975859 0.08379627
0.39863139 0.052470654 0.082748547
0.39861631 0.054106992 0.082728714
0.39860123 0.055743333 0.082708888
0.39858615 0.05737967 0.082689054
0.39857107 0.059016008 0.082669228
0.39855599 0.060652345 0.082649395
0.39763445 -0.0068422551 0.080699593
0.39761934 -0.0052005458 0.0806797
0.4002448 -0.0031694665 0.082203545
0.40022975 -0.0015331288 0.082183719
0.40021467 0.00010320909 0.082163885
0.40019959 0.001739547 0.082144059
0.40018451 0.0033758848 0.082124226
0.40016943 0.0050122226 0.0821044
0.40015435 0.0066485605 0.082084566
0.40013927 0.0082848985 0.08206474
0.40012419 0.009921236 0.082044907
0.40010911 0.011557574 0.082025081
0.40009403 0.013193912 0.082005247
0.40007895 0.014830249 0.081985421
0.40006387 0.016466588 0.081965588
0.40004879 0.018102925 0.081945755
0.40003371 0.019739263 0.081925929
0.40001863 0.021375602 0.081906095
0.40000355 0.02301194 0.081886269
0.39998847 0.024648277 0.081866436
0.39997339 0.026284615 0.08184661
0.40171933 0.028112581 0.08285673
0.40170428 0.029745342 0.082836941
0.40168923 0.031378105 0.082817152
0.40167418 0.033010866 0.082797371
0.40165916 0.034643628 0.082777582
0.40164411 0.036276381 0.082757793
0.40162906 0.037909146 0.082738012
0.40161401 0.039541908 0.082718223
0.40159896 0.041174669 0.082698435
0.40158391 0.04280743 0.082678646
0.40156886 0.044440195 0.082658865
0.40155381 0.046072956 0.082639076
0.40153879 0.047705717 0.082619287
0.40152374 0.049338475 0.082599498
0.39974719 0.050829686 0.08154916
0.39973211 0.052466024 0.081529327
0.39971703 0.054102361 0.081509501
0.39970195 0.055738699 0.081489667
0.39968687 0.057375036 0.081469841
0.39967179 0.059011377 0.081450008
0.39701417 0.060467575 0.079883896
0.39435917 -0.0091644023 0.076917067
0.3987388 -0.0068469015 0.079476379
0.39872366 -0.0052051926 0.079456486
0.39870852 -0.0035634909 0.079436593
0.40133047 -0.0015377604 0.080964498
0.40131539 9.8577526e-05 0.080944672
0.40130031 0.0017349154 0.080924839
0.40128523 0.0033712531 0.080905013
0.40127015 0.0050075911 0.080885179
0.40125507 0.0066439291 0.080865346
0.40123999 0.008280267 0.08084552
0.40122491 0.0099166045 0.080825686
0.40120983 0.011552943 0.08080586
0.40119475 0.01318928 0.080786027
0.40117967 0.014825618 0.080766201
0.40116459 0.016461955 0.080746368
0.40114951 0.018098295 0.080726542
0.40113443 0.019734632 0.080706708
0.40111935 0.02137097 0.080686882
0.40110427 0.023007307 0.080667049
0.40108919 0.024643645 0.080647223
0.40107411 0.026279984 0.080627389
0.40105903 0.027916322 0.080607556
0.40104398 0.029552659 0.08058773
0.4010289 0.031188997 0.080567896
0.40101382 0.032825336 0.08054807
0.40099874 0.034461673 0.080528237
0.40098366 0.036098011 0.080508411
0.40096858 0.037734348 0.080488577
0.4009535 0.039370686 0.080468751
0.40093842 0.041007023 0.080448918
0.40092334 0.042643361 0.080429092
0.40090826 0.044279702 0.080409259
0.40089318 0.045916039 0.080389433
0.4008781 0.047552381 0.080369599
0.40086302 0.049188718 0.080349773
0.40084794 0.050825056 0.08032994
0.40083286 0.052461393 0.080310106
0.40081778 0.054097731 0.08029028
0.4008027 0.055734068 0.080270447
0.40078762 0.057370406 0.080250621
0.39813364 0.058821227 0.078680582
0.39811853 0.060462929 0.078660682
0.39546952 -0.0091690738 0.075687185
0.39808762 -0.0071182973 0.077218786
0.39982802 -0.0052098394 0.078233264
0.39981288 -0.0035681378 0.078213364
0.39979777 -0.0019264361 0.078193471
0.40241614 9.394595e-05 0.079725452
0.40240106 0.0017302838 0.079705618
0.40238598 0.0033666217 0.079685792
0.4023709 0.0050029596 0.079665959
0.40235582 0.0066392976 0.079646133
0.40234074 0.0082756355 0.079626299
0.40232566 0.009911973 0.079606473
0.39967671 0.011207192 0.078034312
0.4022955 0.013184649 0.079566807
0.39964646 0.014490595 0.077994525
0.39963135 0.016132297 0.077974625
0.39961621 0.017773999 0.077954732
0.39960107 0.019415701 0.077934839
0.39958596 0.02105741 0.077914946
0.39957082 0.02269911 0.077895045
0.39955568 0.024340812 0.077875152
0.40217486 0.026275352 0.079408169
0.40215978 0.027911689 0.079388343
0.4021447 0.029548027 0.079368509
0.40212962 0.031184366 0.079348683
0.40211454 0.032820702 0.07932885
0.40209946 0.034457039 0.079309024
0.40208438 0.03609338 0.07928919
0.4020693 0.037729718 0.079269357
0.40205422 0.039366055 0.079249531
0.40203914 0.041002393 0.079229698
0.40202406 0.04263873 0.079209872
0.40200898 0.044275071 0.079190038
0.4019939 0.045911409 0.079170212
0.40197882 0.047547746 0.079150379
0.40196374 0.049184084 0.079130553
0.40194866 0.050820421 0.079110719
0.40193358 0.052456763 0.079090893
0.4019185 0.0540931 0.07907106
0.40190342 0.055729438 0.079051234
0.39925313 0.057174876 0.077477254
0.39923799 0.058816582 0.077457353
0.39922285 0.060458284 0.07743746
0.39920774 0.062099986 0.077417567
0.394842 -0.011098314 0.073440306
0.39482677 -0.0094440971 0.073420264
0.39656466 -0.007523105 0.074437305
0.39917922 -0.0054776692 0.075972974
0.40091723 -0.0035727844 0.076990157
0.40090209 -0.0019310828 0.076970257
0.40088695 -0.00028938116 0.076950364
0.40087184 0.0013523205 0.076930471
0.4008567 0.0029940295 0.076910578
0.40084159 0.0046357312 0.076890677
0.40082645 0.0062774331 0.076870784
0.40081131 0.0079191346 0.076850891
0.4007962 0.0095608365 0.076830998
0.40078107 0.011202545 0.076811098
0.40076593 0.012844247 0.076791205
0.40075082 0.014485949 0.076771311
0.40073568 0.01612765 0.076751418
0.40072054 0.017769352 0.076731518
0.40070543 0.019411054 0.076711625
0.40069029 0.021052763 0.076691732
0.40067518 0.022694465 0.076671839
0.40066004 0.024336167 0.076651938
0.4006449 0.025977867 0.076632045
0.40062979 0.027619569 0.076612152
0.40061465 0.029261278 0.076592259
0.40059951 0.03090298 0.076572359
0.4005844 0.03254468 0.076552466
0.40056926 0.034186382 0.076532573
0.40055412 0.035828084 0.076512672
0.40053901 0.037469786 0.076492779
0.40052387 0.039111495 0.076472886
0.40050876 0.040753197 0.076452993
0.40049362 0.042394899 0.076433092
0.40047848 0.044036604 0.076413199
0.40046337 0.04567831 0.076393306
0.40307957 0.047543116 0.077931158
0.40306449 0.049179453 0.077911332
0.40304941 0.050815791 0.077891499
0.40303433 0.052452128 0.077871673
0.4003877 0.053886827 0.076293834
0.40037259 0.055528525 0.076273933
0.40035746 0.057170227 0.07625404
0.40034235 0.058811933 0.076234147
0.40032721 0.060453635 0.076214254
0.40031207 0.062095337 0.076194353
0.3933441 -0.013173485 0.070668459
0.39595476 -0.011102997 0.072207771
0.39593953 -0.0094487788 0.072187729
0.39592427 -0.0077945548 0.07216768
0.39765981 -0.0058771358 0.073187433
0.40027079 -0.0038370488 0.074727155
0.40025562 -0.0021917711 0.074707218
0.40024048 -0.00054649363 0.07468728
0.40197617 0.0013476737 0.075707257
0.40196106 0.0029893829 0.075687364
0.40194592 0.0046310844 0.075667471
0.40193078 0.0062727863 0.07564757
0.40191567 0.0079144882 0.075627677
0.40190053 0.0095561892 0.075607784
0.40188539 0.011197899 0.075587891
0.40187028 0.0128396 0.075567991
0.40185514 0.014481301 0.075548097
0.40184003 0.016123004 0.075528204
0.40182489 0.017764704 0.075508311
0.40180975 0.019406406 0.075488411
0.40179464 0.021048116 0.075468518
0.4017795 0.022689817 0.075448625
0.40176436 0.024331519 0.075428732
0.40174925 0.025973221 0.075408831
0.40173411 0.027614923 0.075388938
0.40171897 0.029256633 0.075369045
0.40170386 0.030898333 0.075349152
0.40168872 0.032540035 0.075329252
0.40167361 0.034181736 0.075309359
0.40165848 0.035823438 0.075289465
0.40164334 0.03746514 0.075269572
0.40162823 0.03910685 0.075249672
0.40161309 0.040748551 0.075229779
0.40159795 0.042390253 0.075209886
0.40158284 0.044031959 0.075189985
0.4015677 0.045673665 0.075170092
0.40155256 0.047315363 0.075150199
0.40153745 0.048957065 0.075130306
0.40152231 0.05059877 0.075110406
0.4015072 0.052240472 0.075090513
0.40149206 0.053882178 0.07507062
0.40147692 0.05552388 0.075050727
0.40146181 0.057165582 0.075030826
0.40144667 0.058807287 0.075010933
0.40143153 0.060448989 0.07499104
0.40141642 0.062090691 0.074971147
0.40140128 0.063732393 0.074951246
0.39450637 -0.01815694 0.069492243
0.39449108 -0.016497351 0.069472127
0.39447579 -0.014837763 0.069452018
0.3944605 -0.013178182 0.069431908
0.39444521 -0.011518594 0.069411792
0.39705229 -0.0094534615 0.07095518
0.39703706 -0.0077992366 0.07093513
0.3970218 -0.0061450195 0.070915088
0.39875495 -0.0042311591 0.071937546
0.39873976 -0.0025805177 0.071917541
0.40134722 -0.00055115053 0.073461391
0.40133205 0.0010941344 0.073441453
0.40131691 0.002739412 0.073421516
0.40130174 0.0043846895 0.073401578
0.40128657 0.0060299742 0.07338164
0.4012714 0.0076752519 0.073361695
0.40125626 0.0093205292 0.073341757
0.40124109 0.010965815 0.073321819
0.40122592 0.012611092 0.073301882
0.40121078 0.014256369 0.073281944
0.40119562 0.015901648 0.073262006
0.40118045 0.017546931 0.073242068
0.40116528 0.019192209 0.073222131
0.40115014 0.020837488 0.073202193
0.40113497 0.022482771 0.073182255
0.4011198 0.02412805 0.073162317
0.40110463 0.025773328 0.07314238
0.40108949 0.027418604 0.073122442
0.40107432 0.02906389 0.073102497
0.40105915 0.030709166 0.073082559
0.40104398 0.032354444 0.073062621
0.40102884 0.03399973 0.073042683
0.40101367 0.035645008 0.073022746
0.4009985 0.037290286 0.073002808
0.40098333 0.038935568 0.07298287
0.40096819 0.040580846 0.072962932
0.40095302 0.042226125 0.072942995
0.40093786 0.043871403 0.072923057
0.40267205 0.045669015 0.073946871
0.40265691 0.047310717 0.073926978
0.4026418 0.048952419 0.073907077
0.40262666 0.050594125 0.073887184
0.40261152 0.052235827 0.073867291
0.40259641 0.053877532 0.073847398
0.40258127 0.055519234 0.073827498
0.40256616 0.057160936 0.073807605
0.40080142 0.058678918 0.07274361
0.40078625 0.060324199 0.072723672
0.40252078 0.062086046 0.073747918
0.40250564 0.063727751 0.073728025
0.4024905 0.06536945 0.073708132
0.39563805 -0.019821227 0.068275817
0.39824128 -0.017729253 0.06982287
0.39560744 -0.016502049 0.068235591
0.39559215 -0.014842461 0.068215482
0.39557686 -0.013182879 0.068195365
0.39556158 -0.011523291 0.068175256
0.39554629 -0.0098637026 0.068155147
0.39814982 -0.0078039188 0.069702588
0.39813456 -0.0061497018 0.069682539
0.39811933 -0.0044954773 0.069662496
0.3998501 -0.0025851899 0.070687659
0.3998349 -0.00093454105 0.070667654
0.39981967 0.00071610027 0.070647657
0.39980447 0.0023667491 0.070627652
0.39978927 0.0040173903 0.070607647
0.39977404 0.005668039 0.070587642
0.39975885 0.0073186806 0.070567638
0.39974362 0.0089693293 0.07054764
0.39972842 0.01061997 0.070527636
0.39971322 0.012270619 0.070507631
0.39969799 0.013921261 0.070487626
0.39968279 0.015571902 0.070467621
0.39966756 0.01722255 0.070447624
0.40227205 0.019187553 0.071996249
0.40225688 0.020832829 0.071976312
0.40224171 0.022478115 0.071956374
0.40222654 0.024123393 0.071936436
0.4022114 0.025768669 0.071916498
0.39957631 0.02712642 0.070327602
0.39956111 0.028777063 0.070307598
0.39954588 0.030427711 0.070287593
0.39953068 0.032078352 0.070267588
0.39951548 0.033729002 0.070247591
0.39950025 0.035379641 0.070227586
0.39948505 0.037030283 0.070207581
0.39946982 0.038680933 0.070187576
0.39945462 0.040331576 0.070167571
0.39943942 0.041982222 0.070147574
0.40204459 0.043866746 0.071697176
0.40202945 0.045512024 0.071677238
0.40201429 0.047157302 0.0716573
0.40199912 0.048802584 0.071637362
0.40198395 0.050447863 0.071617424
0.40196881 0.052093145 0.071597487
0.40195364 0.053738423 0.071577549
0.40193847 0.055383701 0.071557611
0.4019233 0.057028983 0.071537673
0.40190816 0.058674261 0.071517736
0.40189299 0.060319543 0.071497791
0.40187782 0.061964821 0.071477853
0.40360996 0.063723102 0.072504811
0.40359485 0.065364808 0.072484918
0.39936927 -0.01938815 0.068610378
0.39935404 -0.017733933 0.068590328
0.39672384 -0.016506746 0.066999048
0.39670852 -0.014847158 0.066978939
0.39669323 -0.013187577 0.06695883
0.39667794 -0.011527988 0.066938713
0.39666265 -0.0098684002 0.066918604
0.39926258 -0.007808601 0.068470053
0.39924732 -0.006154384 0.068450004
0.39923209 -0.0045001595 0.068429962
0.39921683 -0.0028459348 0.068409912
0.3992016 -0.0011917176 0.068389863
0.40093005 0.00071142823 0.069417775
0.40091485 0.0023620769 0.06939777
0.40089962 0.0040127183 0.069377765
0.39914063 0.0054251659 0.06830968
0.39912537 0.0070793908 0.06828963
0.39911014 0.0087336153 0.068269588
0.39909488 0.010387832 0.068249539
0.39907965 0.012042057 0.068229489
0.39906439 0.013696275 0.068209447
0.39904916 0.015350499 0.068189397
0.40077794 0.017217878 0.069217741
0.40076274 0.018868519 0.069197737
0.40074751 0.020519169 0.069177732
0.40073231 0.02216981 0.069157727
0.40071708 0.023820458 0.06913773
0.3989577 0.025275825 0.068069115
0.39894244 0.026930049 0.068049073
0.39892721 0.028584266 0.068029024
0.39891195 0.030238491 0.068008974
0.39889672 0.031892717 0.067988932
0.39888147 0.033546932 0.067968883
0.40061063 0.035374969 0.068997703
0.4005954 0.037025612 0.068977699
0.4005802 0.038676262 0.068957694
0.40056497 0.040326905 0.068937689
0.40054977 0.041977551 0.068917692
0.40053457 0.043628197 0.068897687
0.40313619 0.045507364 0.070451364
0.40312102 0.047152646 0.070431426
0.40310585 0.048797928 0.070411488
0.40309072 0.050443206 0.070391543
0.40307555 0.052088488 0.070371605
0.40306038 0.053733766 0.070351668
0.40304521 0.055379044 0.07033173
0.40303007 0.057024326 0.070311792
0.4030149 0.058669604 0.070291854
0.40038246 0.060134638 0.068697654
0.40036723 0.061785284 0.068677649
0.40296942 0.063605443 0.070232041
0.40469918 0.065360159 0.071261704
0.40468407 0.067001857 0.071241811
0.39787078 -0.01983062 0.065802738
0.4004668 -0.017738616 0.067357786
0.3978402 -0.016511444 0.065762512
0.39782491 -0.014851855 0.065742403
0.39780962 -0.013192275 0.065722287
0.39779431 -0.011532686 0.065702178
0.39777902 -0.0098730978 0.065682068
0.39776373 -0.0082135089 0.065661952
0.40036011 -0.0061590662 0.067217462
0.40034485 -0.0045048418 0.067197412
0.40032962 -0.002850617 0.067177363
0.40031436 -0.0011963998 0.067157321
0.40029913 0.00045782485 0.067137271
0.40028387 0.0021120419 0.067117222
0.40026864 0.0037662666 0.06709718
0.40025339 0.0054204836 0.06707713
0.40023816 0.0070747086 0.067057088
0.4002229 0.0087289335 0.067037039
0.40020767 0.010383151 0.067016989
0.40019241 0.012037375 0.066996947
0.40017718 0.013691592 0.066976897
0.40016192 0.015345817 0.066956848
0.40014669 0.017000034 0.066936806
0.40013143 0.018654259 0.066916756
0.40011621 0.020308483 0.066896714
0.40010095 0.0219627 0.066876665
0.40008572 0.023616925 0.066856615
0.40007046 0.025271142 0.066836573
0.40005523 0.026925366 0.066816524
0.40003997 0.028579583 0.066796474
0.40002474 0.030233808 0.066776432
0.40000948 0.031888034 0.066756383
0.39999425 0.033542249 0.066736341
0.399979 0.035196476 0.066716291
0.39996377 0.036850691 0.066696241
0.39994851 0.038504917 0.066676199
0.40167534 0.040322233 0.067707822
0.40166011 0.041972879 0.067687817
0.40164492 0.043623522 0.067667812
0.40162969 0.045274165 0.067647815
0.40161449 0.046924811 0.06762781
0.40159929 0.048575453 0.067607805
0.40158406 0.050226096 0.0675878
0.40156886 0.051876742 0.067567796
0.40155363 0.053527385 0.067547798
0.40153843 0.055178031 0.067527793
0.40152323 0.056828678 0.067507789
0.401508 0.05847932 0.067487784
0.4014928 0.060129967 0.067467779
0.40147758 0.061780613 0.067447782
0.40407616 0.063600786 0.069006152
0.40406102 0.065246068 0.068986215
0.40578842 0.066997215 0.070018589
0.40403068 0.068536624 0.068946339
0.39898714 -0.019835318 0.064566195
0.39897186 -0.01817573 0.064546086
0.39895657 -0.016516142 0.064525969
0.39894128 -0.014856553 0.06450586
0.39892599 -0.013196972 0.064485751
0.3989107 -0.011537383 0.064465635
0.39889538 -0.0098777954 0.064445525
0.39888009 -0.0082182065 0.064425416
0.39886481 -0.0065586255 0.0644053
0.39884952 -0.0048990371 0.064385191
0.39883423 -0.0032394486 0.064365081
0.39881894 -0.0015798602 0.064344965
0.40141189 0.00045314265 0.065904722
0.40139663 0.0021073599 0.06588468
0.4013814 0.0037615844 0.06586463
0.40136614 0.0054158014 0.065844588
0.40135092 0.0070700264 0.065824538
0.40133566 0.0087242508 0.065804489
0.40132043 0.010378468 0.065784447
0.40130517 0.012032692 0.065764397
0.40128994 0.01368691 0.065744348
0.40127468 0.015341135 0.065724306
0.40125945 0.016995352 0.065704256
0.40124419 0.018649576 0.065684214
0.40122896 0.020303801 0.065664165
0.40121371 0.021958018 0.065644115
0.39858952 0.023313936 0.064043291
0.39857423 0.024973517 0.064023182
0.39855894 0.026633106 0.064003065
0.39854366 0.028292693 0.063982956
0.39852834 0.029952282 0.063962847
0.40112224 0.031883352 0.06552384
0.40110701 0.033537567 0.065503791
0.40109175 0.035191793 0.065483741
0.40107653 0.036846008 0.065463699
0.40106127 0.038500234 0.06544365
0.40104604 0.040154457 0.0654236
0.40277049 0.041968208 0.066457935
0.40275526 0.04361885 0.066437937
0.40274006 0.045269493 0.066417933
0.40272486 0.046920139 0.066397928
0.40270963 0.048570782 0.066377923
0.40269443 0.050221425 0.066357918
0.4026792 0.051872071 0.066337921
0.40266401 0.053522713 0.066317916
0.40264881 0.05517336 0.066297911
0.40263358 0.056824002 0.066277906
0.40261838 0.058474649 0.066257901
0.40260315 0.060125295 0.066237904
0.40258795 0.061775938 0.066217899
0.40257275 0.063426584 0.066197895
0.40516776 0.065241411 0.067760333
0.40515259 0.066886686 0.067740396
0.40513742 0.068531968 0.067720458
0.39836746 -0.020131892 0.062274225
0.40008825 -0.018180426 0.063309543
0.3983368 -0.016805563 0.062233914
0.39832148 -0.015142399 0.06221376
0.39830613 -0.013479235 0.062193602
0.39829081 -0.01181607 0.062173449
0.40001178 -0.009882492 0.063208982
0.39999649 -0.0082229041 0.063188873
0.39998117 -0.0065633231 0.063168764
0.39996588 -0.0049037347 0.063148648
0.39995059 -0.003244146 0.063128538
0.39993531 -0.0015845576 0.063108429
0.39992002 7.5023359e-05 0.063088313
0.39990473 0.0017346118 0.063068204
0.39988941 0.0033942002 0.063048095
0.39987412 0.0050537884 0.063027978
0.39985883 0.0067133694 0.063007869
0.39984354 0.0083729578 0.06298776
0.39982826 0.010032547 0.062967643
0.39981297 0.011692127 0.062947534
0.39979765 0.013351716 0.062927425
0.39978236 0.015011304 0.062907308
0.39976707 0.016670892 0.062887199
0.39975178 0.018330473 0.06286709
0.39973649 0.019990062 0.062846974
0.39972121 0.021649651 0.062826864
0.39970589 0.023309238 0.062806748
0.3996906 0.02496882 0.062786639
0.39967531 0.026628409 0.06276653
0.39966002 0.028287997 0.062746413
0.39964473 0.029947584 0.062726304
0.39962944 0.031607166 0.062706195
0.39961413 0.033266753 0.062686078
0.40220454 0.03518711 0.064251199
0.40218928 0.036841329 0.06423115
0.40217406 0.038495552 0.0642111
0.4021588 0.040149774 0.064191058
0.40214357 0.041803993 0.064171009
0.40212831 0.043458216 0.064150967
0.40211308 0.045112435 0.064130917
0.40209782 0.046766661 0.064110868
0.40208259 0.04842088 0.064090826
0.40206733 0.050075103 0.064070776
0.4020521 0.051729321 0.064050727
0.40203685 0.053383544 0.064030685
0.40202162 0.055037767 0.064010635
0.40200636 0.056691986 0.063990593
0.40199113 0.058346212 0.063970543
0.40197587 0.060000431 0.063950494
0.40196064 0.061654653 0.063930452
0.40194538 0.063308872 0.063910402
0.4036679 0.065072559 0.064948007
0.40625933 0.066882029 0.066514522
0.40363747 0.068373844 0.064908005
0.39688578 -0.020574424 0.059447933
0.3994709 -0.018473435 0.061014865
0.39945558 -0.016810272 0.060994711
0.39683965 -0.01556884 0.059387274
0.39682427 -0.013900313 0.059367053
0.39680892 -0.012231785 0.059346832
0.39939427 -0.010157614 0.060914088
0.39937896 -0.0084944572 0.060893934
0.39936361 -0.006831293 0.06087378
0.39934829 -0.0051681283 0.060853623
0.39933297 -0.0035049643 0.060833469
0.39931765 -0.0018417999 0.060813315
0.40103638 7.0325987e-05 0.061851777
0.40102109 0.0017299145 0.061831664
0.4010058 0.0033895029 0.061811551
0.40099049 0.0050490913 0.061791442
0.4009752 0.0067086723 0.061771329
0.40095991 0.0083682602 0.061751217
0.40094462 0.010027849 0.061731104
0.40092933 0.01168743 0.061710995
0.40091404 0.013347019 0.061690882
0.40089872 0.015006606 0.061670769
0.40088344 0.016666194 0.06165066
0.40086815 0.018325776 0.061630547
0.40085286 0.019985365 0.061610434
0.40083757 0.021644954 0.061590325
0.40082228 0.023304541 0.061570212
0.40080696 0.024964122 0.061550099
0.40079167 0.026623711 0.06152999
0.40077639 0.0282833 0.061509877
0.4007611 0.029942887 0.061489765
0.40074581 0.031602468 0.061469652
0.40073052 0.033262055 0.061449543
0.4007152 0.034921646 0.06142943
0.40069991 0.036581233 0.061409317
0.40328681 0.038490869 0.062978566
0.40327156 0.040145092 0.062958524
0.40325633 0.041799311 0.062938474
0.40324107 0.043453533 0.062918425
0.40322584 0.045107752 0.062898383
0.40321058 0.046761978 0.062878333
0.40319535 0.048416201 0.062858291
0.40318009 0.05007042 0.062838241
0.40316486 0.051724643 0.062818192
0.4031496 0.053378861 0.06279815
0.40313435 0.055033084 0.0627781
0.40311912 0.056687303 0.062758051
0.40310386 0.058341529 0.062738009
0.40308863 0.059995748 0.062717959
0.40307337 0.061649971 0.062697917
0.40305814 0.063304193 0.062677868
0.40304288 0.064958408 0.062657818
0.40476304 0.066718534 0.063698128
0.40474781 0.068369173 0.063678123
0.39627692 -0.020871045 0.05714396
0.39799279 -0.01891062 0.058184516
0.39797741 -0.017242091 0.058164295
0.39796203 -0.015573563 0.058144074
0.39794666 -0.013905035 0.058123857
0.39793128 -0.012236508 0.058103636
0.39791593 -0.010567979 0.058083415
0.39790055 -0.0088994512 0.058063194
0.39788517 -0.007230923 0.058042973
0.3978698 -0.0055623949 0.058022756
0.39785442 -0.0038938669 0.058002535
0.40043643 -0.0018465074 0.059574109
0.40042108 -0.00018334316 0.059553955
0.40040576 0.0014798212 0.059533797
0.40039045 0.0031429781 0.059513643
0.4003751 0.0048061423 0.05949349
0.40035978 0.0064693065 0.059473332
0.40207627 0.0083635636 0.060514677
0.40206099 0.010023152 0.060494564
0.4020457 0.011682733 0.060474455
0.40203041 0.013342321 0.060454343
0.40201512 0.01500191 0.06043423
0.40199983 0.016661499 0.060414121
0.40198451 0.018321078 0.060394008
0.40196922 0.019980667 0.060373895
0.40022185 0.021437777 0.059291936
0.40020651 0.023100942 0.059271783
0.40019119 0.024764098 0.059251629
0.40017587 0.026427263 0.059231471
0.40016055 0.028090427 0.059211317
0.4001452 0.029753592 0.059191164
0.40012988 0.031416755 0.059171006
0.40184689 0.033257362 0.060213003
0.4018316 0.034916949 0.06019289
0.40181631 0.036576536 0.060172778
0.40180099 0.038236119 0.060152669
0.40438432 0.040140409 0.061725974
0.40436909 0.041794632 0.061705928
0.40435383 0.043448851 0.061685883
0.4043386 0.045103073 0.061665833
0.40432334 0.046757296 0.061645787
0.40430811 0.048411518 0.061625741
0.40429285 0.050065737 0.061605696
0.40167865 0.051512815 0.059991773
0.40166336 0.053172398 0.05997166
0.40164807 0.054831982 0.059951551
0.40163279 0.056491572 0.059931438
0.40161747 0.058151156 0.059911326
0.40160218 0.059810746 0.059891213
0.40158689 0.06147033 0.059871104
0.4015716 0.063129917 0.059850991
0.40155631 0.064789504 0.059830878
0.40414041 0.066607952 0.061405227
0.40152571 0.068108678 0.059790656
0.39479303 -0.019636165 0.054282688
0.39737087 -0.01753157 0.055857573
0.39735547 -0.015859466 0.055837307
0.39734006 -0.014187355 0.055817045
0.39732465 -0.012515251 0.05579678
0.39730924 -0.010843147 0.055776518
0.39729384 -0.0091710426 0.055756252
0.39727843 -0.0074989386 0.05573599
0.39899218 -0.0055671176 0.056779545
0.3989768 -0.0038985894 0.056759324
0.39896142 -0.0022300615 0.056739107
0.39894605 -0.00056153332 0.056718886
0.39893067 0.0011069947 0.056698665
0.39891529 0.0027755229 0.056678444
0.39889991 0.0044440511 0.056658227
0.39888456 0.0061125788 0.056638006
0.39886919 0.007781107 0.056617785
0.39885381 0.0094496347 0.056597564
0.39883843 0.011118163 0.056577343
0.40141726 0.013117249 0.058153506
0.40140194 0.014780413 0.058133353
0.40138662 0.016443577 0.058113199
0.39877692 0.017792275 0.056496464
0.39876154 0.019460803 0.056476243
0.39874616 0.02112934 0.056456026
0.39873078 0.022797868 0.056435805
0.39871541 0.024466395 0.056415584
0.39870003 0.026134923 0.056395363
0.39868465 0.027803451 0.056375146
0.3986693 0.02947198 0.056354925
0.40124866 0.03141205 0.057931803
0.40123335 0.033075213 0.057911646
0.40121803 0.034738377 0.057891492
0.40120268 0.036401533 0.057871338
0.40118736 0.0380647 0.05785118
0.40117204 0.039727863 0.057831027
0.40115669 0.041391026 0.057810873
0.40114138 0.04305419 0.057790715
0.40112606 0.044717353 0.057770561
0.40284091 0.046529356 0.058815569
0.40282562 0.048188943 0.058795456
0.40281031 0.049848527 0.058775347
0.40279502 0.051508117 0.058755234
0.40277973 0.053167701 0.058735121
0.40276444 0.054827284 0.058715012
0.40274915 0.056486875 0.058694899
0.40273386 0.058146458 0.058674786
0.40271854 0.059806049 0.058654673
0.40270326 0.061465632 0.058634564
0.40268797 0.063125223 0.058614451
0.40267268 0.064784802 0.058594339
0.40265739 0.066444397 0.058574229
0.40091148 0.068001635 0.057488389
0.39590597 -0.017963445 0.05301249
0.3958905 -0.016285971 0.052992161
0.39846486 -0.014192087 0.05457117
0.39844945 -0.012519984 0.054550905
0.39843404 -0.01084788 0.054530643
0.39841864 -0.0091757756 0.054510381
0.39840323 -0.0075036711 0.054490115
0.39838782 -0.0058315676 0.054469854
0.39837241 -0.0041594636 0.054449588
0.398357 -0.0024873521 0.054429326
0.3983416 -0.00081524806 0.054409061
0.39832619 0.00085685588 0.054388799
0.39831078 0.0025289599 0.054368537
0.4000223 0.0044393283 0.055415027
0.40000692 0.0061078565 0.055394806
0.39999157 0.0077763842 0.055374589
0.39997619 0.0094449129 0.055354368
0.39996082 0.011113441 0.055334147
0.39994544 0.012781968 0.055313926
0.39993006 0.014450497 0.055293705
0.39991468 0.016119026 0.055273488
0.3998993 0.017787553 0.055253267
0.39988393 0.019456081 0.055233046
0.39986855 0.021124616 0.055212826
0.39985317 0.022793144 0.055192605
0.39983779 0.024461674 0.055172388
0.39982241 0.026130201 0.055152167
0.39980704 0.027798729 0.055131946
0.39979166 0.029467257 0.055111725
0.39977631 0.031135784 0.055091508
0.39976093 0.032804314 0.055071287
0.39974555 0.034472842 0.055051066
0.39973018 0.036141369 0.055030845
0.3997148 0.037809897 0.055010624
0.40229082 0.039723154 0.056591824
0.40227547 0.041386317 0.056571666
0.40226015 0.043049484 0.056551512
0.40224484 0.044712644 0.056531359
0.40222952 0.046375807 0.056511201
0.40221417 0.048038974 0.056491047
0.40219885 0.049702138 0.05647089
0.40218353 0.051365297 0.056450736
0.40216821 0.053028461 0.056430582
0.40215287 0.054691628 0.056410424
0.40213755 0.056354787 0.056390271
0.40212223 0.058017951 0.056370117
0.40210691 0.059681114 0.056349959
0.40209156 0.061344277 0.056329805
0.40207624 0.063007437 0.056309652
0.40206093 0.064670607 0.056289494
0.40204558 0.066333771 0.05626934
0.40203026 0.067996927 0.056249186
0.39701891 -0.016290719 0.051742297
0.39700347 -0.014613244 0.051721968
0.39955884 -0.010852612 0.053284779
0.39954343 -0.0091805076 0.053264517
0.39952803 -0.0075084041 0.053244252
0.39951262 -0.0058363001 0.05322399
0.39949721 -0.0041641961 0.053203724
0.3994818 -0.0024920849 0.053183462
0.3994664 -0.00081998087 0.053163201
0.39945099 0.00085212308 0.053142935
0.39943558 0.0025242271 0.053122673
0.39942017 0.0041963309 0.053102408
0.39940476 0.0058684349 0.053082146
0.39938936 0.0075405389 0.05306188
0.39937395 0.0092126429 0.053041618
0.39935854 0.010884754 0.053021356
0.39934313 0.012556858 0.053001091
0.39932773 0.014228962 0.052980829
0.39931229 0.015901066 0.052960563
0.39929688 0.01757317 0.052940302
0.39928147 0.019245274 0.05292004
0.39926606 0.020917378 0.052899774
0.39925066 0.022589482 0.052879512
0.39923525 0.024261594 0.052859247
0.39921984 0.025933698 0.052838985
0.39920443 0.027605802 0.052818719
