# .PCD v0.7 - Point Cloud Data file format
VERSION 0.7
FIELDS x y z
SIZE 4 4 4
TYPE F F F
COUNT 1 1 1
WIDTH 1227
HEIGHT 1
VIEWPOINT 0 0 0 1 0 0 0
POINTS 1227
DATA ascii
0.40573502 0.0092031574 0.10718819
0.40572029 0.010801941 0.10716882
0.40570557 0.012400725 0.10714944
0.40509728 0.00094882329 0.10509397
0.40508252 0.0025511829 0.10507455
0.40506774 0.0041535427 0.10505513
0.40683997 0.006001072 0.1060357
0.40682524 0.0075998558 0.10601633
0.40949112 0.0095556527 0.1074971
0.40947646 0.011149072 0.10747779
0.40946177 0.012742492 0.10745849
0.40944707 0.014335905 0.10743918
0.40943241 0.015929325 0.10741986
0.40941772 0.017522745 0.10740056
0.40618992 -0.00065807183 0.10391948
0.40617517 0.00094428787 0.10390007
0.40616038 0.0025466476 0.10388065
0.40793017 0.0043977629 0.10486384
0.40791544 0.0059965467 0.10484447
0.41057768 0.0079577295 0.10632918
0.41056299 0.0095511423 0.10630988
0.4105483 0.011144563 0.10629056
0.41231832 0.012968851 0.10727409
0.41230369 0.014558688 0.10725483
0.41228902 0.016148532 0.10723556
0.41227439 0.017738368 0.10721629
0.41225973 0.019328212 0.10719702
0.41224506 0.020918056 0.10717776
0.40551531 -0.0041339723 0.10175932
0.4055005 -0.0025280369 0.10173986
0.40726781 -0.0006626072 0.10272559
0.40725303 0.0009397525 0.10270616
0.40723827 0.0025421123 0.10268675
0.40900564 0.0043932376 0.10367261
0.40899092 0.0059920214 0.10365323
0.41164955 0.00795322 0.10514194
0.41163486 0.0095466319 0.10512263
0.41162017 0.011140052 0.10510332
0.41338778 0.012964351 0.10608952
0.41337314 0.014554188 0.10607025
0.41335848 0.016144032 0.10605098
0.41334385 0.017733868 0.10603172
0.41332918 0.019323712 0.10601245
0.41509706 0.021126542 0.10699894
0.41508242 0.022712812 0.10697971
0.41506782 0.024299072 0.10696049
0.40397078 -0.0093724066 0.099109747
0.40662518 -0.0073503894 0.10060167
0.4066104 -0.0057444535 0.10058221
0.40659559 -0.0041385181 0.10056275
0.40658081 -0.0025325825 0.10054329
0.40834567 -0.00066714262 0.10153168
0.40833092 0.00093521707 0.10151227
0.40831614 0.0025375767 0.10149284
0.41008112 0.0043887123 0.10248137
0.4100664 0.0059874961 0.10246199
0.4127214 0.0079487097 0.10395471
0.4127067 0.0095421225 0.1039354
0.41447189 0.011370007 0.1049242
0.41445726 0.012959851 0.10490493
0.4144426 0.014549688 0.10488567
0.41442794 0.016139532 0.1048664
0.4144133 0.017729368 0.10484714
0.41617873 0.019535793 0.10583624
0.4161641 0.021122053 0.10581702
0.4161495 0.022708321 0.1057978
0.41613486 0.024294583 0.10577857
0.41612026 0.025880843 0.10575935
0.40330732 -0.012884119 0.096938014
0.40506953 -0.010988266 0.09792871
0.40505466 -0.0093769673 0.097909182
0.40770549 -0.0073549347 0.09940511
0.40769067 -0.0057489993 0.099385649
0.40767586 -0.0041430634 0.099366188
0.40766108 -0.002537128 0.099346727
0.40942356 -0.00067167799 0.10033778
0.40940878 0.00093068171 0.10031836
0.40939403 0.0025330414 0.10029895
0.41115659 0.0043841871 0.10129014
0.41114184 0.0059829708 0.10127076
0.41379327 0.0079441993 0.10276746
0.41377857 0.0095376121 0.10274816
0.41554135 0.011365507 0.10373963
0.41552669 0.012955352 0.10372037
0.41551206 0.014545188 0.10370111
0.41549739 0.016135033 0.10368184
0.41548276 0.01772487 0.10366257
0.41724578 0.019531302 0.10465433
0.41723117 0.021117562 0.10463511
0.41721654 0.022703832 0.10461588
0.41720194 0.024290092 0.10459666
0.41985393 0.026179789 0.1060942
0.40615341 -0.010992827 0.096728139
0.40613857 -0.009381528 0.096708611
0.40878576 -0.00735948 0.098208539
0.40877095 -0.0057535446 0.098189078
0.40875617 -0.0041476092 0.098169617
0.40874135 -0.0025416736 0.098150156
0.41050142 -0.00067621341 0.099143878
0.41048667 0.00092614628 0.099124461
0.41047189 0.0025285061 0.099105045
0.41223207 0.0043796618 0.1000989
0.41221732 0.0059784455 0.10007952
0.41486514 0.0079396898 0.10158022
0.41485044 0.0095331017 0.10156091
0.41661081 0.011361008 0.10255506
0.41659614 0.012950852 0.10253579
0.41658151 0.014540688 0.10251652
0.41656685 0.016130533 0.10249726
0.41655222 0.01772037 0.10247799
0.41831282 0.019526813 0.10347243
0.41829821 0.021113073 0.1034532
0.41828358 0.022699341 0.10343398
0.41826898 0.024285603 0.10341476
0.42091739 0.026175313 0.10491628
0.42090282 0.02775621 0.10489713
0.42266372 0.029532252 0.10589194
0.42264917 0.031109573 0.10587282
0.40547991 -0.01289326 0.094531558
0.40723732 -0.010997388 0.095527582
0.40722245 -0.0093860887 0.095508054
0.40720761 -0.0077747814 0.095488526
0.40719277 -0.0061634821 0.095468998
0.40983644 -0.0041521545 0.096973054
0.40982166 -0.0025462192 0.096953593
0.40980685 -0.00094028353 0.096934132
0.41156456 0.00092161092 0.097930558
0.41154978 0.0025239706 0.097911142
0.41330755 0.0043751365 0.09890765
0.4132928 0.0059739202 0.098888278
0.41593698 0.0079351794 0.10039299
0.41769493 0.0097666709 0.10138975
0.41768026 0.011356507 0.10137048
0.41766563 0.012946351 0.10135122
0.41765097 0.014536188 0.10133195
0.41763631 0.016126033 0.10131268
0.41762167 0.017715869 0.10129341
0.41937986 0.019522322 0.10229052
0.41936526 0.021108583 0.1022713
0.41935065 0.022694852 0.10225207
0.41933602 0.024281112 0.10223285
0.42198083 0.026170839 0.10373838
0.42196625 0.027751736 0.10371922
0.42372474 0.029527787 0.1047167
0.4237102 0.031105109 0.10469759
0.42369565 0.032682437 0.10467847
0.42368114 0.034259759 0.10465936
0.4236666 0.03583708 0.10464024
0.40656623 -0.012897831 0.093328319
0.40655136 -0.011282956 0.093308754
0.40653646 -0.0096680736 0.093289182
0.40652159 -0.0080531985 0.093269616
0.40650672 -0.0064383228 0.093250044
0.40826181 -0.0045567434 0.094248913
0.41090193 -0.0025507647 0.095757023
0.41088712 -0.00094482902 0.095737562
0.41087234 0.00066110655 0.095718101
0.41262767 0.0025194352 0.096717238
0.41438302 0.0043706112 0.097716413
0.41436827 0.0059693949 0.097697042
0.41700885 0.007930669 0.099205747
0.41876438 0.0097621707 0.10020518
0.41874972 0.011352007 0.10018592
0.41873506 0.012941851 0.10016665
0.41872042 0.014531688 0.10014738
0.41870576 0.016121533 0.10012811
0.41869113 0.017711369 0.10010885
0.42044693 0.019517833 0.1011086
0.4204323 0.021104094 0.10108938
0.4204177 0.022690361 0.10107016
0.42040306 0.024276624 0.10105094
0.42304426 0.026166365 0.10256047
0.42302969 0.02774726 0.10254131
0.42478579 0.029523322 0.10354145
0.42477125 0.031100644 0.10352233
0.42475671 0.032677971 0.10350322
0.42474216 0.034255292 0.1034841
0.42472765 0.035832614 0.10346498
0.42294228 0.03723266 0.10242636
0.40765253 -0.012902402 0.092125095
0.40763766 -0.011287527 0.09210553
0.4058553 -0.0099500772 0.091065042
0.4058404 -0.0083316192 0.091045432
0.40759301 -0.0064428938 0.09204682
0.40757811 -0.0048280112 0.092027247
0.40933084 -0.002950005 0.093028814
0.4119674 -0.00094937452 0.094541006
0.41195261 0.00065656105 0.094521545
0.41370553 0.0025148997 0.095523335
0.41369078 0.0041172593 0.095503919
0.41544375 0.0059648696 0.096505806
0.41808072 0.0079261595 0.098018512
0.41983384 0.0097576706 0.0990206
0.41981918 0.011347507 0.099001333
0.41980454 0.012937351 0.098982073
0.41978988 0.014527189 0.098962806
0.41977522 0.016117033 0.098943539
0.41976058 0.017706869 0.098924272
0.42151397 0.019513343 0.099926695
0.42149937 0.021099605 0.099907473
0.42148474 0.022685872 0.09988825
0.42412227 0.024580985 0.10140172
0.4241077 0.026161889 0.10138256
0.42586136 0.027941536 0.10238532
0.42584682 0.029518858 0.1023662
0.42583227 0.031096179 0.10234709
0.42581773 0.032673508 0.10232797
0.42580321 0.034250829 0.10230886
0.42578867 0.035828151 0.10228974
0.42577413 0.037405472 0.10227063
0.42399117 0.03880908 0.1012293
0.40697384 -0.013191568 0.08989837
0.40695894 -0.01157311 0.089878753
0.40694404 -0.0099546583 0.089859143
0.40692911 -0.0083362004 0.089839526
0.4069142 -0.0067177489 0.089819916
0.40689927 -0.0050992905 0.089800306
0.40864953 -0.0032177067 0.09080445
0.41039988 -0.0013432663 0.091808729
0.41303289 0.0006520155 0.093324974
0.41301811 0.0022579585 0.093305513
0.41476864 0.0041127242 0.094310015
0.41475388 0.0057150838 0.094290599
0.4165045 0.0075591281 0.095295191
0.4191379 0.009515062 0.096811958
0.42088863 0.011343007 0.097816758
0.420874 0.012932852 0.097797491
0.42085934 0.014522688 0.097778223
0.42084467 0.016112532 0.097758956
0.42083004 0.017702369 0.097739697
0.42258102 0.019508854 0.098744795
0.42256641 0.021095114 0.098725572
0.42255178 0.022681382 0.09870635
0.42518571 0.024576509 0.10022379
0.42517117 0.026157415 0.10020464
0.42692238 0.027937071 0.10121007
0.42690784 0.029514393 0.10119096
0.42689332 0.031091714 0.10117184
0.42687878 0.032669045 0.10115273
0.42686424 0.034246363 0.10113361
0.42684969 0.035823684 0.1011145
0.42683518 0.037401006 0.10109539
0.42505461 0.038804606 0.10005137
0.42504004 0.040385503 0.10003222
0.40806255 -0.013196149 0.088692479
0.40538874 -0.010375428 0.087113835
0.40537378 -0.0087516056 0.087094158
0.40535882 -0.0071277837 0.087074474
0.40798798 -0.0051038712 0.088594414
0.40797308 -0.0034854203 0.088574797
0.40972096 -0.0016073949 0.089581646
0.41146892 0.00026347977 0.090588644
0.41409838 0.002253413 0.09210895
0.41408357 0.0038593486 0.092089489
0.41583174 0.0057105483 0.093096696
0.41757995 0.0075546033 0.094103955
0.41756523 0.0091533791 0.094084583
0.42019507 0.011103972 0.095605403
0.42194343 0.012928352 0.096612923
0.42192879 0.014518188 0.096593656
0.42191413 0.016108032 0.096574396
0.4218995 0.017697869 0.096555129
0.42364809 0.019504363 0.097562879
0.42363346 0.021090625 0.097543657
0.42361885 0.022676893 0.097524434
0.42624918 0.024572035 0.099045888
0.4262346 0.02615294 0.099026732
0.42798343 0.027932609 0.10003482
0.42796889 0.029509928 0.10001571
0.42795435 0.03108725 0.099996589
0.4279398 0.032664578 0.099977478
0.42792529 0.0342419 0.09995836
0.42791075 0.035819221 0.099939249
0.4278962 0.037396543 0.099920131
0.42611805 0.038800132 0.098873466
0.42610347 0.040381029 0.098854311
0.4260889 0.041961931 0.098835148
0.40475082 -0.013912285 0.084914461
0.40649602 -0.012003839 0.085923627
0.40648103 -0.010380024 0.08590395
0.40646607 -0.0087562017 0.085884273
0.40645111 -0.0071323798 0.085864596
0.40643615 -0.0055085649 0.085844912
0.40906176 -0.0034900012 0.087368906
0.40904686 -0.0018715427 0.087349296
0.41079238 2.9095477e-06 0.088358849
0.41253799 0.0018702184 0.089368545
0.41516387 0.003854803 0.090892918
0.41514906 0.0054607387 0.090873457
0.41689488 0.0073083728 0.091883376
0.4186407 0.0091488538 0.092893347
0.41862595 0.010747638 0.092873976
0.42125225 0.012692882 0.094398864
0.42123756 0.014286295 0.094379552
0.4212229 0.015879715 0.094360247
0.42296895 0.017693369 0.095370546
0.42471513 0.019499874 0.096380971
0.42470053 0.021086134 0.096361749
0.4246859 0.022672402 0.096342519
0.42731261 0.024567561 0.097867981
0.42729804 0.026148465 0.097848825
0.42904446 0.027928144 0.098859578
0.42902991 0.029505465 0.09884046
0.4290154 0.031082785 0.098821349
0.42900085 0.032660116 0.098802231
0.42898631 0.034237437 0.098783121
0.42897177 0.035814758 0.098764002
0.42895725 0.037392076 0.098744892
0.42718148 0.038795657 0.097695559
0.42716691 0.040376555 0.097676396
0.42715234 0.041957453 0.097657241
0.42449588 0.043293834 0.096092619
0.40583053 -0.012289492 0.083682187
0.40581554 -0.010662095 0.083662465
0.40580055 -0.009034696 0.083642744
0.40754342 -0.0071369759 0.084654696
0.40752846 -0.005513161 0.084635019
0.41015047 -0.0034945821 0.086163014
0.41013557 -0.0018761236 0.086143404
0.41012064 -0.00025767251 0.086123787
0.41186377 0.0016132139 0.087136053
0.41360703 0.0034769571 0.08814846
0.41622934 0.0054561929 0.089676887
0.41621456 0.0070621287 0.089657426
0.41795799 0.0089061968 0.090670057
0.41970143 0.010743112 0.09168274
0.4196867 0.012341897 0.091663361
0.42230943 0.014281784 0.093192309
0.42229474 0.015875204 0.093172997
0.42403841 0.017688869 0.094185971
0.42402375 0.019278713 0.094166704
0.42576757 0.021081645 0.095179841
0.42575294 0.022667913 0.095160618
0.42837605 0.024563085 0.096690059
0.42836148 0.02614399 0.096670903
0.43010548 0.027923679 0.097684339
0.43009096 0.029501 0.09766522
0.43007642 0.031078322 0.097646102
0.43006188 0.032655649 0.097626992
0.43004733 0.03423297 0.097607873
0.43003282 0.035810292 0.097588763
0.42825949 0.037210286 0.096536793
0.42824495 0.038791183 0.096517637
0.42823038 0.040372077 0.096498482
0.42557752 0.041703079 0.094929941
0.42556292 0.043289345 0.094910719
0.39990366 -0.013418355 0.078332737
0.40427712 -0.011082935 0.080898501
0.40426207 -0.009450173 0.080878712
0.40688026 -0.0074119116 0.082410462
0.40862077 -0.005517757 0.083425127
0.40860581 -0.0038939349 0.08340545
0.41122428 -0.0018807045 0.084937498
0.41120934 -0.00026225348 0.084917888
0.41295007 0.0016086431 0.085932828
0.4129352 0.0032235258 0.085913256
0.41730964 0.0054516476 0.088480324
0.41729483 0.007057583 0.088460863
0.41903585 0.0089016613 0.089476161
0.4190211 0.010504021 0.089456737
0.42076218 0.012337372 0.090472125
0.4233813 0.014277274 0.092005081
0.42336661 0.015870694 0.09198577
0.42335191 0.017464114 0.091966458
0.4250932 0.019274214 0.092982136
0.42507857 0.020864058 0.092962869
0.42682001 0.022663424 0.09397871
0.42680538 0.024249684 0.093959488
0.42942491 0.026139516 0.095492996
0.42941034 0.027720412 0.095473833
0.43115199 0.029496536 0.096489966
0.43113747 0.031073857 0.096470855
0.43112293 0.032651186 0.096451737
0.43110839 0.034228507 0.096432619
0.4293375 0.035624906 0.095378049
0.42932293 0.037205812 0.095358886
0.42930838 0.038786706 0.09533973
0.4266592 0.040112328 0.093767256
0.42664459 0.04169859 0.093748033
0.42662996 0.043284856 0.093728811
0.39925501 -0.013704072 0.076072663
0.40099287 -0.0117813 0.07708963
0.40536037 -0.0094547942 0.079662159
0.40534535 -0.0078220321 0.079642378
0.40971309 -0.0055223531 0.082215242
0.40969813 -0.003898531 0.082195565
0.40968317 -0.0022747086 0.082175881
0.41229805 -0.00026683442 0.083711997
0.41228315 0.0013516167 0.083692379
0.41402149 0.0032189549 0.084710024
0.41575998 0.0050791348 0.085727796
0.41837513 0.0070530376 0.087264292
0.41836032 0.0086589735 0.087244831
0.42009896 0.010499486 0.088262834
0.42008421 0.012101846 0.088243417
0.42182291 0.01393163 0.089261517
0.42180818 0.015530414 0.089242138
0.42442378 0.017459603 0.090779215
0.42616266 0.019269714 0.09179756
0.42614803 0.020859558 0.091778293
0.42788705 0.022658933 0.092796795
0.42787242 0.024245193 0.092777573
0.42785782 0.025831455 0.09275835
0.4304738 0.027715938 0.094295926
0.43045923 0.029296836 0.094276771
0.43219849 0.031069392 0.095295608
0.43218395 0.032646719 0.095276497
0.43041551 0.034039535 0.094219297
0.43040094 0.035620432 0.094200134
0.43038639 0.037201338 0.094180979
0.42774087 0.038521573 0.092604563
0.42772624 0.040107839 0.09258534
0.42771164 0.041694101 0.092566118
0.42769703 0.043280367 0.092546895
0.4276824 0.044866633 0.092527673
0.39773586 -0.014130357 0.07328745
0.40034661 -0.012063451 0.074826844
0.40208209 -0.010144245 0.075846523
0.40644366 -0.0078266542 0.078425817
0.40905473 -0.0057937261 0.079965636
0.41079044 -0.003903127 0.080985665
0.41077548 -0.0022793047 0.080965988
0.41076052 -0.00065548986 0.080946311
0.41337186 0.0013470358 0.082486488
0.41335693 0.0029654943 0.082466878
0.41509292 0.0048292591 0.083487228
0.41682902 0.0066858809 0.084507711
0.4194406 0.0086544277 0.086048268
0.41942582 0.010260363 0.086028807
0.4211621 0.01209731 0.087049514
0.42114732 0.01369967 0.087030098
0.42113256 0.015302029 0.087010682
0.42286891 0.017124671 0.08803153
0.42723212 0.019265214 0.090612985
0.42721748 0.020855058 0.090593718
0.42720282 0.022444895 0.090574451
0.42893949 0.024240704 0.091595657
0.42892486 0.025826965 0.091576435
0.42891026 0.027413234 0.091557212
0.43152267 0.029292362 0.093098864
0.43150809 0.030873265 0.093079701
0.43149352 0.032454163 0.093060546
0.43147895 0.034035061 0.09304139
0.43146437 0.035615958 0.093022227
0.42882255 0.036930822 0.091441877
0.42880791 0.03851708 0.091422655
0.42879331 0.04010335 0.091403432
0.42877868 0.041689612 0.09138421
0.42876408 0.043275874 0.09136498
0.42874944 0.044862144 0.091345757
0.39711326 -0.016070345 0.07103537
0.39884624 -0.014135029 0.072057568
0.39883101 -0.01248438 0.072037563
0.40143821 -0.010422823 0.073581018
0.40579373 -0.0081016384 0.076166943
0.40752694 -0.0061985133 0.077189483
0.41013443 -0.0041709342 0.078733347
0.41011944 -0.002543536 0.078713626
0.41185284 -0.00066008599 0.079736419
0.41446054 0.0013424548 0.081280597
0.41444564 0.0029609133 0.081260987
0.41443071 0.0045793643 0.081241377
0.41616434 0.0064395638 0.082264431
0.41789806 0.0082926201 0.083287627
0.42050609 0.010255817 0.084832236
0.42049128 0.011861754 0.084812775
0.42222521 0.013695135 0.085836194
0.42046168 0.015073624 0.084773853
0.42394438 0.017120147 0.086840294
0.42655283 0.019043997 0.088385433
0.42828694 0.020850558 0.08940915
0.42827228 0.022440394 0.089389883
0.42825761 0.024030238 0.089370616
0.4299919 0.025822476 0.090394534
0.4299773 0.027408743 0.090375312
0.42996266 0.028995004 0.090356089
0.43257153 0.030868791 0.091901787
0.43255699 0.032449689 0.091882624
0.43254241 0.034030586 0.091863468
0.42990419 0.035340063 0.090279199
0.42988959 0.036926329 0.090259977
0.42987496 0.038512591 0.090240754
0.42986035 0.040098861 0.090221524
0.42984572 0.041685119 0.090202302
0.42983112 0.043271385 0.090183079
0.42981648 0.044857655 0.090163857
0.42980188 0.046443917 0.090144634
0.39562276 -0.018161638 0.0682557
0.39822602 -0.016075028 0.069802821
0.39821079 -0.014420803 0.069782771
0.39819553 -0.012766586 0.069762729
0.39992616 -0.010838411 0.070787676
0.40252978 -0.0087822024 0.072335206
0.4068794 -0.0064699319 0.074927896
0.40861022 -0.0045703729 0.075953141
0.41121417 -0.0025481421 0.077501081
0.41119915 -0.00092075148 0.077481359
0.41293019 0.00095914019 0.078506857
0.41553435 0.0029563324 0.080055095
0.41551942 0.0045747836 0.080035485
0.41550452 0.006193242 0.080015868
0.41723576 0.0080498755 0.081041634
0.4189671 0.0098993583 0.082067527
0.42157158 0.011857208 0.083616205
0.42155677 0.013463143 0.083596744
0.42154199 0.015069079 0.083577283
0.42327353 0.016895318 0.084603459
0.42500514 0.018714398 0.085629679
0.42761001 0.020632906 0.087178878
0.42934173 0.022435894 0.0882053
0.4293271 0.024025738 0.088186041
0.42931244 0.025615575 0.088166773
0.43104434 0.027404254 0.089193404
0.43102974 0.028990515 0.089174181
0.4310151 0.030576782 0.089154951
0.43362042 0.032445215 0.090704717
0.43098587 0.033749312 0.089116506
0.43097126 0.035335574 0.089097284
0.43095663 0.03692184 0.089078061
0.43094203 0.038508102 0.089058839
0.4309274 0.040094372 0.089039616
0.43091279 0.04168063 0.089020394
0.43089816 0.043266896 0.089001171
0.43088356 0.044853166 0.088981949
0.43086892 0.046439428 0.088962726
0.43085432 0.048025694 0.088943496
0.39675441 -0.019825922 0.067039274
0.39673913 -0.018166335 0.067019165
0.39933878 -0.016079709 0.068570286
0.39932355 -0.014425484 0.068550237
0.39930829 -0.012771267 0.068530194
0.39929307 -0.011117043 0.068510145
0.4010213 -0.0091924341 0.069537796
0.40536484 -0.006874782 0.072137088
0.40796503 -0.0048382254 0.073688842
0.40969351 -0.0029422324 0.074716799
0.41229388 -0.00092535774 0.0762688
0.41402251 0.00095454406 0.077296957
0.41400754 0.0025783589 0.07727728
0.41660812 0.0045702024 0.078829579
0.41659322 0.0061886609 0.078809969
0.41832206 0.0080453046 0.079838395
0.41830719 0.0096601797 0.07981883
0.42003614 0.011506097 0.080847442
0.42263708 0.013458597 0.08240018
0.42000645 0.014728704 0.080808386
0.42260745 0.016670469 0.082361259
0.42433664 0.018493142 0.083390139
0.42606586 0.020308657 0.084419072
0.42866719 0.022221817 0.085972331
0.43039656 0.024021238 0.087001458
0.43038189 0.025611075 0.086982191
0.43036726 0.027200921 0.086962923
0.43209678 0.028986024 0.087992266
0.43208218 0.030572293 0.087973043
0.43206754 0.032158554 0.087953821
0.43205294 0.033744823 0.087934598
0.43203831 0.035331082 0.087915376
0.4320237 0.036917351 0.087896153
0.43200907 0.038503613 0.087876923
0.43199447 0.040089879 0.087857701
0.43197984 0.041676141 0.087838478
0.43196523 0.043262407 0.087819256
0.4319506 0.044848673 0.087800033
0.431936 0.046434939 0.087780811
0.43192136 0.048021205 0.087761588
0.43016213 0.049458686 0.086693197
0.39351863 -0.020560257 0.063177541
0.39785549 -0.018171033 0.065782622
0.3978402 -0.016511444 0.065762512
0.40043631 -0.014430167 0.067317694
0.40042108 -0.01277595 0.067297645
0.40040582 -0.011121725 0.067277595
0.40213168 -0.0091971066 0.068307921
0.4064692 -0.0068794289 0.070913866
0.40645406 -0.00523772 0.070893973
0.4090507 -0.0032065192 0.072449796
0.41077679 -0.0013140917 0.073480457
0.41337359 0.00069743418 0.075036526
0.41509986 0.0025737628 0.076067388
0.4150849 0.0041975849 0.076047704
0.41768193 0.0061840801 0.077604078
0.417667 0.0078025311 0.07758446
0.41939348 0.0096556088 0.078615606
0.41937858 0.011270484 0.078596033
0.42110518 0.013112843 0.079627357
0.41934884 0.014500243 0.078556895
0.42107549 0.016335443 0.079588301
0.42367294 0.01827186 0.081145234
0.42539978 0.020090967 0.082176819
0.42712662 0.021902915 0.083208457
0.42972437 0.023810718 0.084765784
0.43145135 0.025606576 0.085797623
0.43143669 0.02719642 0.085778363
0.43142205 0.028786257 0.085759096
0.43314922 0.030567802 0.086791143
0.43313459 0.032154065 0.08677192
0.43311998 0.03374033 0.086752698
0.43310535 0.035326593 0.086733475
0.43309075 0.036912862 0.086714245
0.43307611 0.038499121 0.086695023
0.43306151 0.04008539 0.0866758
0.43304688 0.041671652 0.086656578
0.43303227 0.043257914 0.086637355
0.43301764 0.044844184 0.086618133
0.43300304 0.04643045 0.08659891
0.43298841 0.048016712 0.086579688
0.43123159 0.049454186 0.08550863
0.39290252 -0.020856846 0.060881563
0.39462563 -0.018896451 0.06191412
0.39721802 -0.016800856 0.06347312
0.39894128 -0.014856553 0.06450586
0.39892599 -0.013196972 0.064485751
0.40151858 -0.011126407 0.066045053
0.40324202 -0.009201779 0.067078039
0.40322682 -0.0075511374 0.067058042
0.40755841 -0.0052423668 0.069670759
0.41015142 -0.0032111509 0.071230575
0.41013634 -0.0015748129 0.071210749
0.41186008 0.00031404875 0.072244123
0.41445333 0.002320226 0.073804244
0.41617718 0.0041929889 0.074837826
0.41616222 0.0058168112 0.074818142
0.41875571 0.0077979504 0.076378569
0.41874081 0.0094164088 0.076358959
0.42046487 0.011265914 0.077392809
0.42218909 0.013108282 0.078426786
0.42043513 0.014495672 0.077353671
0.42215937 0.016330881 0.07838773
0.42475322 0.018267313 0.079948671
0.42647764 0.020086432 0.080982916
0.42646289 0.021688791 0.0809635
0.42818734 0.023497174 0.081997849
0.43078154 0.025399629 0.08355923
0.43250614 0.02719192 0.08459378
0.43249151 0.028781757 0.084574513
0.43421626 0.030563314 0.085609227
0.43420166 0.032149576 0.085590005
0.43418702 0.033735842 0.085570782
0.43417242 0.035322104 0.08555156
0.43415779 0.036908373 0.085532337
0.43414319 0.038494632 0.085513115
0.43412855 0.040080901 0.085493892
0.43411395 0.041667163 0.08547467
0.43409932 0.043253426 0.08545544
0.43408471 0.044839695 0.085436217
0.43407008 0.046425957 0.085416995
0.43405548 0.048012223 0.085397772
0.43230104 0.049449686 0.084324054
0.39401191 -0.019189475 0.059615437
0.39573264 -0.017232645 0.060650703
0.39832148 -0.015142399 0.06221376
0.40004236 -0.013201669 0.063249208
0.40263137 -0.011131089 0.064812504
0.40261611 -0.0094768722 0.064792462
0.40433717 -0.0075558093 0.065828159
0.40866277 -0.0052470136 0.068447538
0.40864763 -0.0036053117 0.068427637
0.41123709 -0.0015794445 0.069991529
0.41122201 5.6893368e-05 0.069971696
0.41294336 0.0019421818 0.071007781
0.41553307 0.0039430181 0.072571963
0.41725454 0.0058122152 0.073608249
0.41723958 0.0074360301 0.073588572
0.41982949 0.0094118277 0.075153068
0.41981459 0.011030279 0.07513345
0.4215363 0.012876226 0.076169997
0.41978475 0.014267188 0.07509423
0.42150655 0.016105976 0.07613086
0.42583352 0.018262768 0.0787521
0.42581871 0.019868704 0.07873264
0.42754075 0.021684255 0.079769596
0.427526 0.023286616 0.07975018
0.42924809 0.025091432 0.080787234
0.43183872 0.026988538 0.082352683
0.43356097 0.028777257 0.083389945
0.4335463 0.030367101 0.083370686
0.4352687 0.032145083 0.084408097
0.43525407 0.033731353 0.084388867
0.43523946 0.035317615 0.084369645
0.43522486 0.036903881 0.084350422
0.43521023 0.038490143 0.0843312
0.43519562 0.040076412 0.084311977
0.43518099 0.041662671 0.084292755
0.43516639 0.043248937 0.084273532
0.43515176 0.044835206 0.08425431
0.43513715 0.046421468 0.084235087
0.43512252 0.048007734 0.084215865
0.39253622 -0.01962667 0.05678241
0.39512131 -0.017522104 0.058349296
0.39683965 -0.01556884 0.059387274
0.39942491 -0.013483942 0.060954399
0.40114343 -0.011546778 0.06199256
0.40372887 -0.0094815549 0.06355992
0.40371364 -0.0078273304 0.063539878
0.40803322 -0.0055149244 0.066165917
0.40975198 -0.0036099586 0.067204431
0.40973684 -0.0019682569 0.06718453
0.41232273 5.2261796e-05 0.068752483
0.41230765 0.0016885997 0.068732649
0.41402665 0.0035703224 0.069771439
0.41661277 0.0055658026 0.071339689
0.41833189 0.007431434 0.072378673
0.41831693 0.0090552559 0.072358996
0.4209033 0.011025698 0.073927552
0.42088839 0.012644157 0.073907934
0.42087346 0.014262607 0.073888324
0.42085856 0.015881065 0.073868714
0.42257795 0.017716289 0.074908063
0.42689899 0.019864159 0.077536076
0.4268842 0.021470094 0.077516615
0.42860386 0.023282081 0.078556292
0.42858911 0.02488444 0.078536868
0.43030882 0.026685691 0.079576626
0.4328959 0.028577441 0.081146136
0.43461576 0.0303626 0.082186103
0.43460113 0.031952437 0.082166836
0.43632114 0.033726864 0.083206967
0.43630651 0.035313122 0.083187744
0.4362919 0.036899392 0.083168522
0.43627727 0.038485654 0.083149299
0.43626267 0.04007192 0.083130077
0.43624803 0.041658182 0.083110854
0.43623343 0.043244448 0.083091632
0.4362188 0.044830713 0.083072409
0.4362042 0.046416979 0.083053187
0.43618956 0.048003245 0.083033964
0.39366463 -0.019631417 0.055532552
0.39364916 -0.017953949 0.055512227
0.3962307 -0.015854733 0.057083171
0.39794666 -0.013905035 0.058123857
0.40052837 -0.011825486 0.059695039
0.40484166 -0.0094862366 0.062327377
0.4048264 -0.0078320121 0.062307328
0.40481114 -0.0061777951 0.062287282
0.40912479 -0.0038743038 0.064920105
0.4108412 -0.0019729035 0.065961324
0.41082606 -0.00033120194 0.065941431
0.4134084 0.0016839681 0.067513429
0.41512498 0.003565701 0.068554886
0.4177075 0.0055611962 0.07012713
0.41769251 0.0071885944 0.070107408
0.41940925 0.0090506598 0.071149111
0.41939428 0.010674482 0.071129434
0.42197707 0.012639576 0.07270205
0.41936436 0.01392212 0.07109008
0.42194727 0.015876485 0.072662823
0.42193234 0.017494936 0.072643206
0.42538136 0.019539805 0.074746989
0.42796448 0.021465547 0.076320045
0.42794967 0.023071483 0.076300584
0.42966697 0.024879904 0.077342972
0.42965221 0.026482264 0.077323548
0.43396777 0.028572932 0.079958901
0.43568522 0.0303581 0.081001528
0.43567058 0.031947937 0.08098226
0.43565592 0.033537783 0.080962993
0.43737355 0.035308633 0.082005836
0.43735895 0.036894903 0.081986614
0.43734431 0.038481165 0.081967391
0.43732971 0.040067431 0.081948161
0.43731508 0.041653693 0.081928939
0.43730047 0.043239955 0.081909716
0.43728584 0.044826224 0.081890494
0.43727124 0.04641249 0.081871271
0.43552408 0.047846347 0.080789596
0.43550941 0.049436186 0.080770329
0.39306414 -0.019924497 0.053219214
0.39477757 -0.017958697 0.054262359
0.3947621 -0.016281223 0.05424203
0.39734006 -0.014187355 0.055817045
0.39905369 -0.01224123 0.056860425
0.40336087 -0.0098965848 0.059499368
0.40334558 -0.0082369959 0.059479255
0.40592393 -0.0061824773 0.061054736
0.40763783 -0.0042685354 0.062098518
0.41021639 -0.0022336831 0.063674286
0.41020122 -0.00058840553 0.063654348
0.41191527 0.0013058529 0.064698309
0.41190013 0.0029475621 0.064678416
0.41447899 0.0049520121 0.066254549
0.41619322 0.0068266033 0.067298763
0.41877222 0.0088113863 0.068875134
0.41875723 0.010438785 0.068855412
0.41874221 0.012066175 0.068835691
0.41872722 0.013693574 0.068815969
0.42044172 0.015541338 0.069860503
0.42042673 0.01716516 0.069840826
0.42300612 0.019108806 0.071417704
0.4264504 0.021146543 0.073526897
0.42902997 0.023066938 0.075104013
0.42901516 0.024672873 0.075084552
0.43073007 0.026477728 0.076129653
0.43071532 0.028080089 0.076110229
0.43502495 0.030161841 0.078752346
0.43501025 0.031755261 0.078733034
0.43672538 0.033533283 0.079778425
0.43671072 0.035123125 0.079759158
0.43669608 0.036712963 0.079739891
0.43841138 0.038476672 0.080785476
0.43839675 0.040062942 0.080766253
0.43838215 0.041649204 0.080747031
0.43836752 0.043235466 0.080727808
0.43662283 0.044662166 0.079643562
0.43660817 0.046252005 0.079624295
0.43659353 0.047841847 0.079605028
0.43657887 0.049431685 0.079585761
0.39417946 -0.018248204 0.051946312
0.39416397 -0.016567159 0.051925939
0.39587507 -0.014608495 0.052971832
0.39844945 -0.012519984 0.054550905
0.4001607 -0.010577424 0.055597007
0.40446198 -0.0082416935 0.058242705
0.40703669 -0.0061871591 0.059822202
0.40702143 -0.0045329346 0.059802152
0.40873298 -0.0026225664 0.060848635
0.41130796 -0.00059306243 0.062428463
0.41129282 0.0010522224 0.062408522
0.41300449 0.0029429153 0.063455202
0.41298935 0.004584617 0.063435309
0.41556463 0.0065837186 0.065015502
0.4172765 0.0084547438 0.066062421
0.41985193 0.010434179 0.067642853
0.4172464 0.011720268 0.066022851
0.41982195 0.013688968 0.067603409
0.41980696 0.015316365 0.067583688
0.42151904 0.017160565 0.068630941
0.42409483 0.019104226 0.070211813
0.42580709 0.020932326 0.071259238
0.42751944 0.022753283 0.072306812
0.43009546 0.024668328 0.073887989
0.43008065 0.026274271 0.073868528
0.43179318 0.028075553 0.074916326
0.43350577 0.029869676 0.075964168
0.43608212 0.03175075 0.077545792
0.43606746 0.033344164 0.077526487
0.43778017 0.035118625 0.078574583
0.43776554 0.036708463 0.078555316
0.43775088 0.038298305 0.078536049
0.43773624 0.039888144 0.078516781
0.43772158 0.041477989 0.078497514
0.43770692 0.043067828 0.078478247
0.43769228 0.044657666 0.078458987
0.43767762 0.046247505 0.07843972
0.43766299 0.047837347 0.078420453
0.43592063 0.049278341 0.077333383
0.43590593 0.05087176 0.077314079
0.39700347 -0.014613244 0.051721968
0.396988 -0.012935775 0.051701639
0.39955884 -0.010852612 0.053284779
0.40126771 -0.0089136194 0.054333579
0.40556306 -0.0065868096 0.056986053
0.40813419 -0.0045376169 0.058569606
0.40811896 -0.0028833924 0.058549561
0.40982813 -0.00097658962 0.059598751
0.41239956 0.0010475656 0.061182644
0.41238439 0.0026928431 0.061162706
0.4140937 0.0045799701 0.062212095
0.41407856 0.0062216721 0.062192202
0.4166503 0.0082154246 0.063776456
0.41835976 0.010082885 0.064826079
0.41662014 0.011488101 0.063736796
0.41832969 0.013348409 0.064786509
0.42090169 0.015311759 0.066371128
0.42261136 0.017155968 0.067421049
0.4225964 0.01877979 0.067401372
0.42516863 0.020718103 0.068986304
0.4251537 0.022336554 0.068966694
0.42686364 0.024157513 0.070016876
0.43116093 0.026269725 0.072671957
0.43114614 0.027875662 0.072652496
0.43285632 0.029673377 0.073703006
0.43284154 0.031275731 0.07368359
0.43455178 0.033062719 0.074734181
0.43712461 0.034933075 0.07631994
0.43710995 0.036526494 0.076300628
0.43882033 0.038293805 0.077351473
0.4388057 0.039883643 0.077332206
0.43879104 0.041473489 0.077312939
0.4387764 0.043063328 0.077293672
0.43876174 0.044653166 0.077274404
0.43874708 0.046243005 0.077255137
0.43700716 0.047680411 0.07616546
0.43699247 0.04927383 0.076146156
0.43697777 0.050867248 0.076126844
0.43696311 0.052460663 0.076107532
0.43694842 0.054054085 0.07608822
0.40066823 -0.0091852406 0.052018642
0.4049575 -0.0068548303 0.054677755
0.40666413 -0.0049319188 0.055729404
0.40923172 -0.0028880744 0.057317015
0.40921649 -0.0012338572 0.057296965
0.40920123 0.00042036732 0.057276919
0.41090804 0.0023200284 0.058328874
0.41347599 0.004333464 0.059916891
0.41346082 0.0059787487 0.059896953
0.41516778 0.0078587271 0.060949083
0.41773593 0.0098471306 0.062537402
0.41513753 0.011142137 0.060909294
0.41770577 0.013119807 0.062497746
0.41769069 0.014756145 0.062477916
0.42198139 0.016934544 0.065138862
0.4219664 0.018561943 0.06511914
0.42367375 0.02039901 0.066171795
0.42624241 0.022331974 0.067760788
0.42794994 0.024152942 0.068813644
0.42965755 0.02596676 0.069866627
0.43222642 0.027871115 0.071455933
0.43221164 0.029477051 0.071436472
0.43391943 0.031271193 0.072489686
0.43390465 0.032873552 0.07247027
0.4356125 0.034656975 0.073523574
0.43818182 0.036521982 0.075113386
0.43816712 0.038115397 0.075094081
0.43987516 0.039879143 0.076147638
0.43986049 0.041468989 0.076128371
0.43984583 0.043058828 0.076109104
0.4398312 0.044648666 0.076089837
0.43809369 0.046082485 0.074997529
0.43807903 0.0476759 0.074978217
0.43806434 0.049269322 0.074958913
0.43804964 0.050862737 0.074939601
0.43803498 0.052456155 0.074920289
0.43802029 0.054049574 0.074900977
0.4380056 0.055642989 0.074881673
0.40348172 -0.0055860085 0.051806733
0.40604565 -0.0035332092 0.053398237
0.40774992 -0.0016174392 0.054452639
0.41031399 0.00041568518 0.056044385
0.41029876 0.0020699024 0.056024339
0.41200322 0.0039659976 0.057078987
0.41456756 0.0059740921 0.058671065
0.41627213 0.0078540798 0.059725869
0.41625699 0.0094957817 0.059705976
0.41624188 0.011137491 0.05968608
0.41622674 0.012779192 0.059666187
0.41879144 0.014751513 0.061258696
0.42049626 0.01660469 0.062313829
0.42306113 0.018557336 0.063906573
0.42476606 0.020394413 0.06496191
0.42733112 0.022327391 0.066554897
0.42731622 0.023945851 0.066535287
0.42902133 0.025763247 0.067590855
0.43072659 0.027573505 0.068646543
0.43329191 0.029472506 0.070239902
0.4332771 0.031078441 0.070220441
0.43498254 0.032869019 0.071276367
0.43496776 0.034471378 0.07125695
0.43667325 0.036251236 0.072312959
0.43923897 0.038110886 0.073906846
0.4392243 0.039704304 0.073887534
0.43920961 0.041297726 0.07386823
0.43919492 0.042891141 0.073848918
0.43918025 0.044484556 0.073829606
0.43916556 0.046077974 0.073810294
0.43915087 0.047671393 0.07379099
0.43913618 0.049264811 0.073771678
0.43912151 0.050858229 0.073752366
0.43910682 0.052451644 0.073733054
0.43909213 0.054045063 0.07371375
0.43907747 0.055638481 0.073694438
0.40716442 -0.0035379168 0.052159034
0.40886629 -0.0016221366 0.0532161
0.408851 3.7444355e-05 0.053195987
0.41141152 0.0020652201 0.05479179
0.41139627 0.0037194449 0.054771744
0.41309837 0.0056119743 0.055829104
0.41565916 0.0076147127 0.057425249
0.41736135 0.0094911344 0.058482755
0.41562882 0.010905275 0.057385374
0.4173311 0.012774546 0.058442965
0.41731596 0.014416248 0.058423068
0.41987708 0.01638322 0.060019646
0.42157951 0.018232822 0.061077487
0.42414084 0.020180127 0.062674306
0.42584342 0.02201364 0.063732341
0.4284049 0.023941269 0.065329395
0.42839 0.025559722 0.065309785
0.43009275 0.027373558 0.066368043
0.43179563 0.029180244 0.067426443
0.4343574 0.031073896 0.06902387
0.43434259 0.03267983 0.069004409
0.43604565 0.034466844 0.070063047
0.43603086 0.036069203 0.070043631
0.43773398 0.037845492 0.071102351
0.43771926 0.039444271 0.071082972
0.44028148 0.041293215 0.07268098
0.44026679 0.042886633 0.072661676
0.4402521 0.044480044 0.072642364
0.44023743 0.046073467 0.072623052
0.44022274 0.047666881 0.072603747
0.44020805 0.0492603 0.072584435
0.44019338 0.050853718 0.072565123
0.44017869 0.052447133 0.072545812
0.440164 0.054040555 0.072526507
0.44014934 0.05563397 0.072507195
0.40998265 -0.001626834 0.05197956
0.40996736 3.2746986e-05 0.051959448
0.40995207 0.0016923354 0.051939338
0.41250905 0.0037147626 0.053539198
0.41420871 0.0056073023 0.054599222
0.4167659 0.0076100556 0.056199372
0.4184657 0.0094864881 0.057259541
0.41673559 0.010900619 0.056159496
0.41843542 0.012769898 0.057219751
0.41842031 0.0144116 0.057199858
0.42097783 0.016378587 0.058800429
0.42096275 0.018014926 0.058780599
0.42266279 0.019860962 0.059841149
0.42693573 0.022009043 0.062522441
0.42949361 0.023936689 0.064123504
0.4294787 0.025555139 0.064103894
0.42946377 0.027173599 0.064084277
0.43116418 0.028983863 0.065145247
0.43286467 0.030786984 0.066206358
0.43542287 0.032675285 0.067807853
0.43540806 0.03428122 0.067788392
0.43710876 0.036064666 0.068849728
0.437094 0.037667029 0.068830311
0.43879473 0.039439745 0.069891736
0.43878001 0.041038532 0.069872364
0.43876526 0.042637311 0.069852985
0.44132397 0.044475533 0.071455121
0.4413093 0.046068955 0.071435809
0.44129461 0.04766237 0.071416497
0.43870634 0.049032442 0.069775485
0.43869159 0.050631229 0.069756113
0.43867686 0.052230008 0.069736741
0.43866214 0.053828791 0.069717363
0.43864739 0.055427574 0.069697991
0.41362181 0.0037100804 0.052306663
0.41360655 0.0053642974 0.052286614
0.41530386 0.0072532715 0.05334935
0.4178575 0.0092506763 0.054953557
0.41527343 0.010554561 0.053309344
0.41782716 0.012541239 0.054913681
0.41952464 0.014406954 0.055976644
0.4195095 0.016048655 0.055956751
0.42206347 0.018010294 0.05756139
0.42376113 0.019856341 0.058624595
0.42374608 0.021489104 0.058604807
0.42801309 0.02362827 0.061292883
0.43056741 0.025550559 0.062897988
0.43055248 0.027169017 0.062878378
0.43225047 0.028979292 0.063942023
0.4322356 0.030594166 0.063922457
0.43393371 0.03239372 0.064986274
0.43648836 0.034276675 0.066591829
0.43647355 0.035882611 0.066572361
0.43817186 0.037662491 0.067636408
0.43815711 0.03926485 0.067616992
0.43985546 0.041034006 0.068681128
0.43984073 0.042632788 0.068661749
0.43982601 0.044231571 0.068642378
0.43981126 0.045830354 0.068622999
0.43979654 0.047429133 0.068603627
0.43978181 0.04902792 0.068584248
0.43976706 0.050626703 0.068564877
0.43975234 0.052225482 0.068545505
0.43973759 0.053824265 0.068526126
0.43972287 0.055423051 0.068506755
0.416399 0.0088992482 0.052099466
0.41636857 0.012200538 0.052059457
0.41891876 0.01418186 0.053667855
0.42061386 0.016044009 0.054733526
0.42059875 0.01768571 0.054713633
0.42314914 0.019642001 0.056322344
0.42484441 0.021484483 0.057388254
0.4291054 0.023623673 0.060082987
0.43165612 0.025545977 0.061692096
0.43164119 0.027164437 0.061672486
0.43162629 0.028782887 0.061652873
0.43332189 0.030589595 0.062719218
0.43330702 0.032204479 0.062699646
0.43500277 0.034000468 0.063766174
0.43755385 0.035878066 0.065375797
0.43753904 0.037484001 0.065356337
0.43923497 0.039260317 0.066423088
0.43922022 0.040862676 0.066403672
0.44091621 0.042628262 0.067470513
0.44090146 0.044227045 0.067451142
0.44088674 0.045825828 0.067431763
0.44087201 0.047424611 0.067412391
0.44085726 0.049023394 0.067393012
0.44084254 0.050622176 0.067373641
0.44082782 0.052220955 0.067354269
0.44081306 0.053819742 0.06733489
0.44079834 0.055418525 0.067315519
0.42001036 0.01582248 0.052422039
0.42170307 0.017681064 0.053490419
0.42168796 0.019322766 0.053470526
0.42423478 0.021273706 0.055083293
0.42848971 0.023416491 0.057784632
0.43018275 0.025242893 0.058853414
0.4327299 0.027159855 0.060466595
0.432715 0.028778307 0.060446981
0.43270007 0.030396765 0.060427368
0.43439332 0.032199908 0.061496422
0.43437842 0.033814784 0.061476853
0.43607181 0.035607208 0.062546089
0.43861932 0.037479457 0.064159766
0.43860453 0.039085392 0.064140305
0.44029808 0.040858138 0.065209769
0.44028333 0.042460501 0.065190352
0.44197693 0.044222519 0.066259906
0.44196221 0.045821305 0.066240527
0.44194749 0.047420084 0.066221155
0.44193274 0.049018867 0.066201776
0.44191802 0.05061765 0.066182405
0.44190329 0.052216433 0.066163033
0.44188854 0.053815216 0.066143654
0.44187382 0.055413999 0.066124283
0.42279229 0.019318119 0.052247316
0.42277715 0.020959828 0.052227419
0.42532045 0.022905413 0.053844243
0.42956945 0.025039284 0.056552358
0.43126008 0.026862118 0.057623852
0.43124512 0.028485933 0.057604175
0.43378878 0.030392185 0.059221476
0.43377385 0.032010633 0.059201863
0.43546474 0.033810213 0.060273625
0.43544984 0.035425097 0.060254056
0.43714085 0.037213944 0.061326001
0.43968481 0.039080847 0.062943742
0.43967003 0.040686782 0.062924281
0.44136119 0.042455964 0.063996449
0.44134644 0.044058323 0.063977033
0.44303769 0.045816779 0.065049291
0.44302294 0.047415558 0.065029919
0.44300821 0.049014341 0.06501054
0.44299349 0.050613128 0.064991169
0.44297874 0.052211907 0.064971797
0.44296402 0.05381069 0.064952418
0.4429493 0.055409472 0.064933047
0.42810932 0.024736142 0.05369902
0.43064916 0.026662076 0.055320077
0.43233743 0.028481336 0.056394279
0.43232247 0.030105159 0.056374602
0.43486255 0.032006055 0.057995971
0.43484765 0.033624511 0.057976358
0.43653613 0.035420526 0.059050832
0.43822473 0.037209384 0.06012544
0.44076508 0.039076298 0.061747171
0.4407503 0.040682238 0.06172771
0.44243908 0.04245143 0.062802546
0.44242433 0.044053789 0.06278313
0.44240955 0.045656148 0.062763713
0.44239479 0.047258507 0.06274429
0.44238001 0.048860867 0.062724873
0.44236526 0.050463226 0.062705457
0.44235048 0.052065589 0.062686041
0.44233572 0.053667948 0.062666617
0.44232094 0.055270307 0.062647201
0.4291926 0.026364282 0.052462682
0.4317289 0.028284866 0.054087806
0.43341479 0.030100564 0.055164706
0.43339983 0.031724386 0.055145025
0.43593636 0.033619933 0.056770455
0.43592143 0.035238381 0.056750841
0.43760756 0.037030827 0.057828024
0.43929377 0.038816124 0.058905344
0.44183058 0.040677689 0.060531143
0.44181579 0.042283624 0.060511682
0.44350219 0.044049252 0.06158923
0.44348744 0.045651615 0.06156981
0.44347265 0.047253974 0.06155039
0.4434579 0.048856333 0.061530974
0.44344312 0.050458692 0.061511554
0.44342837 0.052061051 0.061492138
0.44341359 0.05366341 0.061472718
0.44339883 0.055265769 0.061453301
0.43280861 0.029907651 0.052855525
0.43449214 0.031719789 0.053935144
0.43447718 0.033343606 0.053915463
0.43701014 0.035233803 0.05554495
0.43699524 0.036852259 0.055525336
0.43867898 0.038641132 0.056605227
0.44036281 0.040422864 0.057685256
0.44289607 0.04227908 0.059315115
0.44288126 0.043885019 0.059295654
0.44286647 0.045490954 0.05927619
0.44455054 0.047249436 0.06035649
0.44453576 0.048851795 0.06033707
0.44452101 0.050454158 0.060317654
0.44450623 0.052056517 0.060298234
0.44449148 0.053658877 0.060278818
0.43388835 0.031530444 0.05162324
0.43556949 0.033339009 0.052705571
0.43555453 0.034962829 0.05268589
0.43808395 0.036847681 0.054319449
0.43976527 0.038636561 0.055402003
0.4397504 0.040251441 0.055382434
0.44143188 0.042029608 0.056465171
0.44396156 0.043880474 0.058099087
0.44394675 0.045486409 0.058079623
0.44393197 0.047092345 0.058060162
0.44391716 0.04869828 0.058040701
0.44390234 0.050304215 0.05802124
0.44388756 0.051910151 0.058001779
0.44387275 0.053516086 0.057982318
0.43915772 0.038461551 0.053093944
0.4408367 0.04024687 0.054179195
0.44082183 0.04186175 0.054159626
0.44250092 0.043636348 0.055245072
0.44248608 0.045247652 0.055225544
0.44501224 0.0470878 0.056863595
0.44499743 0.048693735 0.056844134
0.44498265 0.050299671 0.056824673
0.44496784 0.051905606 0.056805212
0.44495305 0.053511541 0.056785747
0.44024643 0.038456969 0.051888041
0.44023153 0.040075425 0.051868428
0.44190812 0.041857179 0.052956402
0.44189322 0.043472052 0.05293683
0.44356996 0.045243092 0.054024987
0.44355512 0.046854392 0.054005459
0.44354028 0.048465692 0.053985931
0.44606292 0.050295126 0.055628106
0.44604814 0.051901061 0.055608645
0.44349572 0.053299598 0.053927351
0.44297951 0.043467484 0.051733606
0.44296464 0.045082364 0.051714037
0.444639 0.046849832 0.052804898
0.44462416 0.048461132 0.05278537
0.44460931 0.050072435 0.052765846
0.44459444 0.051683731 0.052746318
0.4445796 0.053295035 0.052726794
