# .PCD v0.7 - Point Cloud Data file format
VERSION 0.7
FIELDS x y z
SIZE 4 4 4
TYPE F F F
COUNT 1 1 1
WIDTH 1387
HEIGHT 1
VIEWPOINT 0 0 0 1 0 0 0
POINTS 1387
DATA ascii
0.61319023 0.082517833 0.032097336
0.61245733 0.083390489 0.031440735
0.61247981 0.084131077 0.031436224
0.61250234 0.084871657 0.031431708
0.61252481 0.085612245 0.031427197
0.61254734 0.086352825 0.031422682
0.61256987 0.087093413 0.031418171
0.61183733 0.087977208 0.030761519
0.61185986 0.088719383 0.030756997
0.61188245 0.089461565 0.030752474
0.61190498 0.09020374 0.030747952
0.61192751 0.090945914 0.030743429
0.6119501 0.091688097 0.030738907
0.61197263 0.092430271 0.030734384
0.61124051 0.093326814 0.030077655
0.6112631 0.094070576 0.030073123
0.61128569 0.094814353 0.030068591
0.61130834 0.095558114 0.030064059
0.61133093 0.096301891 0.030059526
0.61135352 0.09704566 0.030054994
0.61137611 0.097789429 0.030050462
0.61139876 0.098533198 0.030045928
0.61142135 0.099276967 0.030041397
0.61068964 0.10018943 0.029384552
0.61071229 0.1009348 0.02938001
0.61073494 0.10168016 0.029375467
0.61075759 0.10242552 0.029370926
0.61078024 0.10317089 0.029366383
0.61004889 0.10409291 0.028709501
0.6100716 0.10483986 0.028704949
0.60858637 0.10594651 0.027395656
0.60785526 0.10687809 0.026738694
0.60712421 0.10781286 0.026081733
0.60563952 0.10893543 0.024772342
0.60415494 0.11006438 0.023462914
0.60267061 0.1111997 0.022153446
0.60118645 0.11234138 0.02084394
0.60045612 0.11329845 0.020186841
0.5997259 0.11425869 0.019529726
0.59899575 0.11522213 0.01887257
0.59901917 0.11599296 0.018867873
0.59775823 0.033468787 0.01942661
0.5977816 0.034238037 0.019421922
0.59780502 0.035007291 0.019417234
0.5985859 0.035746444 0.020065228
0.59860921 0.036514103 0.02006055
0.60014737 0.037215192 0.021361293
0.60244268 0.037875034 0.023314785
0.60627514 0.039204113 0.026569214
0.6108638 0.040460091 0.030476606
0.61240059 0.041116588 0.03177762
0.6131801 0.041811146 0.032425884
0.61395955 0.042502519 0.033074189
0.6139819 0.043238323 0.033069704
0.61400431 0.043974131 0.033065222
0.61402667 0.044709936 0.033060737
0.61404902 0.045445744 0.033056255
0.61407137 0.046181548 0.03305177
0.61409372 0.046917357 0.033047285
0.61411613 0.047653165 0.033042803
0.61413848 0.048388969 0.033038318
0.61416084 0.049124774 0.033033837
0.61418319 0.049860582 0.033029351
0.6142056 0.05059639 0.033024866
0.61422795 0.051332194 0.033020385
0.6142503 0.052067999 0.033015899
0.61351633 0.052872133 0.032358482
0.61353874 0.053609531 0.03235399
0.61356115 0.05434693 0.032349497
0.61358356 0.055084329 0.032345001
0.61360598 0.055821728 0.032340508
0.61362839 0.056559127 0.032336015
0.6136508 0.057296522 0.032331523
0.61367321 0.058033921 0.032327026
0.61369562 0.05877132 0.032322533
0.61371803 0.059508722 0.032318041
0.6129846 0.060330369 0.031660538
0.61300707 0.061069362 0.031656034
0.61302954 0.061808351 0.03165153
0.61305201 0.062547341 0.031647027
0.61307448 0.063286342 0.031642523
0.61309689 0.064025328 0.031638019
0.61311936 0.064764321 0.031633519
0.61314183 0.065503314 0.031629015
0.61316431 0.0662423 0.031624511
0.61318678 0.066981293 0.031620007
0.61320925 0.067720287 0.031615503
0.61323166 0.06845928 0.031610999
0.61325413 0.069198266 0.031606499
0.6132766 0.069937259 0.031601995
0.61329907 0.070676252 0.031597491
0.61332154 0.071415238 0.031592987
0.61334401 0.072154231 0.031588484
0.61336648 0.072893225 0.031583983
0.6133889 0.073632218 0.03157948
0.61341137 0.074371204 0.031574976
0.61343384 0.075110205 0.031570472
0.61345631 0.075849198 0.031565968
0.61347878 0.076588184 0.031561464
0.61350125 0.077327177 0.031556964
0.61352372 0.07806617 0.03155246
0.61354613 0.078805164 0.031547956
0.6135686 0.079544149 0.031543452
0.61283654 0.080410391 0.030885657
0.61285901 0.081150979 0.030881144
0.61288154 0.081891567 0.030876631
0.61290407 0.082632147 0.030872118
0.61292654 0.083372734 0.030867605
0.61294907 0.084113315 0.030863091
0.61221731 0.084990703 0.030205248
0.6122399 0.085732885 0.030200725
0.61226243 0.086475059 0.030196203
0.61228502 0.087217242 0.03019168
0.61230755 0.087959416 0.030187158
0.61233014 0.088701591 0.030182635
0.61159873 0.089590125 0.029524723
0.61162132 0.090333901 0.029520191
0.61164397 0.09107767 0.029515658
0.61166656 0.09182144 0.029511126
0.61168915 0.092565209 0.029506594
0.61171174 0.093308978 0.02950206
0.61173439 0.094052739 0.029497528
0.61175698 0.094796516 0.029492997
0.61102599 0.095699385 0.028834978
0.61104864 0.096444756 0.028830435
0.61107129 0.097190119 0.028825894
0.61109394 0.097935475 0.028821351
0.61111659 0.098680846 0.02881681
0.6111393 0.099426202 0.028812267
0.61116195 0.10017157 0.028807726
0.6111846 0.10091693 0.028803183
0.61120725 0.10166229 0.028798642
0.61047673 0.1025811 0.028140545
0.61049944 0.10332804 0.028135993
0.61052215 0.104075 0.02813144
0.60979187 0.10500018 0.027473286
0.60906166 0.10592853 0.026815131
0.60757864 0.10704147 0.025503334
0.60609585 0.10816079 0.024191497
0.60536605 0.10910188 0.023533264
0.60388356 0.11023234 0.022221362
0.603154 0.11118141 0.021563061
0.60167187 0.11232302 0.02025109
0.60018992 0.11347099 0.018939098
0.60021329 0.11424025 0.01893441
0.59948415 0.11520365 0.018276023
0.59950763 0.11597449 0.018271325
0.59953105 0.11674533 0.018266628
0.5990023 0.033425059 0.019485177
0.59902561 0.034192719 0.0194805
0.59904897 0.034960378 0.019475821
0.59907228 0.035728037 0.019471144
0.59985203 0.036464043 0.02012039
0.60063177 0.037196863 0.020769674
0.60292399 0.037856821 0.022726864
0.60750771 0.039148066 0.026641438
0.61209023 0.040401086 0.030556224
0.61362493 0.041056067 0.031859715
0.61364734 0.041793466 0.031855218
0.61442578 0.042484876 0.032504756
0.61444813 0.043220684 0.032500274
0.61447054 0.043956488 0.032495789
0.61449289 0.044692297 0.032491304
0.61451524 0.045428101 0.032486822
0.6145376 0.046163909 0.032482337
0.61455995 0.046899714 0.032477852
0.61458236 0.047635522 0.03247337
0.61384904 0.048430059 0.031814776
0.61387151 0.049167458 0.031810284
0.61389393 0.049904857 0.031805791
0.61391634 0.050642256 0.031801298
0.61393875 0.051379655 0.031796806
0.61396116 0.052117053 0.031792309
0.61398357 0.052854452 0.031787816
0.61400598 0.053591851 0.031783324
0.61402839 0.05432925 0.031778831
0.61405081 0.055066649 0.031774335
0.61331809 0.055878703 0.031115657
0.61334056 0.056617692 0.031111155
0.61336303 0.057356685 0.031106651
0.61338544 0.058095675 0.031102147
0.61340791 0.058834668 0.031097645
0.61343038 0.059573662 0.031093141
0.61345285 0.060312651 0.031088639
0.61347532 0.061051644 0.031084135
0.61349779 0.061790634 0.031079631
0.61352026 0.062529624 0.031075129
0.61354268 0.063268624 0.031070625
0.61356515 0.06400761 0.031066122
0.61358762 0.064746603 0.03106162
0.61361009 0.065485597 0.031057116
0.61363256 0.066224582 0.031052612
0.61365503 0.066963576 0.03104811
0.61367744 0.067702569 0.031043606
0.61369991 0.068441562 0.031039102
0.61372238 0.069180548 0.0310346
0.61374485 0.069919541 0.031030096
0.61376733 0.070658535 0.031025594
0.6137898 0.071397521 0.03102109
0.61381227 0.072136514 0.031016586
0.61383468 0.072875507 0.031012084
0.61385715 0.0736145 0.03100758
0.61387962 0.074353486 0.031003077
0.61390209 0.075092487 0.030998575
0.61392456 0.07583148 0.030994071
0.61394703 0.076570466 0.030989567
0.61321574 0.077430308 0.030330578
0.61323822 0.078170888 0.030326065
0.61326075 0.078911476 0.030321551
0.61328328 0.079652056 0.030317038
0.61330575 0.080392636 0.030312527
0.61332828 0.081133224 0.030308014
0.61335081 0.081873812 0.030303501
0.61261994 0.082746379 0.029644452
0.61264247 0.083488561 0.02963993
0.61266506 0.084230736 0.029635407
0.61268759 0.084972911 0.029630885
0.61271018 0.085715085 0.029626362
0.61273271 0.08645726 0.02962184
0.61200219 0.087340988 0.028962724
0.61202478 0.088084765 0.028958192
0.61204737 0.088828526 0.028953658
0.61207002 0.089572296 0.028949127
0.61209261 0.090316072 0.028944595
0.6121152 0.091059834 0.028940063
0.61138499 0.091954716 0.02828086
0.61140764 0.092700072 0.028276317
0.61143029 0.093445435 0.028271776
0.61145294 0.094190799 0.028267233
0.61147559 0.094936162 0.028262692
0.6114983 0.095681518 0.028258149
0.61152095 0.096426889 0.028253607
0.6115436 0.097172253 0.028249064
0.61156625 0.097917609 0.028244523
0.61083651 0.098828413 0.027585242
0.61085922 0.099575363 0.02758069
0.61088192 0.10032231 0.027576139
0.61090463 0.10106926 0.027571587
0.61092734 0.10181622 0.027567035
0.61095005 0.10256319 0.027562484
0.61097276 0.10331014 0.027557932
0.61024338 0.10423368 0.026898554
0.60951418 0.1051604 0.026239175
0.60878503 0.10609032 0.02557976
0.6073041 0.10720477 0.024265487
0.60657519 0.10814264 0.023606041
0.60584641 0.1090837 0.022946576
0.60436594 0.11021409 0.021632208
0.6036374 0.11116312 0.020972675
0.60215724 0.11230465 0.019658238
0.60142893 0.11326164 0.018998675
0.60070074 0.1142218 0.018339094
0.6007241 0.11499106 0.018334405
0.59999603 0.115956 0.017674776
0.60001945 0.11672685 0.017670078
0.60024434 0.03338141 0.019546213
0.60026759 0.034147475 0.019541545
0.60029089 0.034913544 0.019536875
0.60031414 0.035679612 0.019532207
0.60109288 0.036414061 0.020182716
0.60187149 0.037145328 0.020833222
0.61255944 0.040383331 0.029983094
0.61409217 0.04103839 0.031289048
0.61411458 0.041775789 0.031284556
0.61489201 0.042467237 0.031935323
0.61415941 0.043250583 0.031275567
0.61418182 0.043987986 0.031271074
0.61420423 0.044725385 0.031266581
0.61422664 0.045462783 0.031262089
0.61424905 0.046200182 0.031257592
0.61427146 0.046937581 0.031253099
0.61429387 0.04767498 0.031248607
0.61431628 0.048412379 0.031244114
0.6143387 0.049149778 0.031239619
0.61436111 0.049887177 0.031235127
0.61438352 0.050624575 0.031230632
0.61440599 0.051361974 0.03122614
0.6144284 0.052099373 0.031221645
0.61369646 0.052905016 0.030561773
0.61371893 0.053644009 0.030557269
0.6137414 0.054383002 0.030552767
0.61376387 0.055121992 0.030548263
0.61378634 0.055860985 0.030543759
0.61380881 0.056599975 0.030539257
0.61383122 0.057338968 0.030534754
0.61385369 0.058077957 0.03053025
0.61312222 0.058897939 0.029870272
0.61314476 0.059638523 0.029865758
0.61316723 0.060379107 0.029861245
0.61318976 0.061119691 0.029856732
0.61321229 0.061860275 0.029852219
0.61323476 0.062600859 0.029847708
0.61325729 0.063341446 0.029843194
0.61327982 0.064082026 0.029838681
0.61330229 0.064822614 0.029834168
0.61332482 0.065563194 0.029829655
0.61334735 0.066303782 0.029825142
0.61336982 0.067044362 0.02982063
0.61339235 0.06778495 0.029816117
0.61341488 0.06852553 0.029811604
0.61343735 0.069266126 0.029807091
0.61345989 0.070006706 0.029802578
0.61348242 0.070747294 0.029798064
0.61350489 0.071487874 0.029793551
0.61352742 0.072228454 0.02978904
0.61354995 0.072969042 0.029784527
0.61357242 0.073709622 0.029780013
0.61359495 0.07445021 0.0297755
0.61361748 0.075190797 0.029770987
0.61363995 0.075931378 0.029766474
0.61366248 0.076671965 0.029761961
0.61368501 0.077412546 0.029757449
0.61370748 0.078153133 0.029752936
0.61373001 0.078893714 0.029748423
0.61299992 0.079759881 0.029088181
0.61302251 0.080502056 0.029083658
0.61304504 0.081244238 0.029079136
0.61306763 0.081986412 0.029074613
0.61309016 0.082728587 0.029070091
0.61311275 0.083470769 0.029065568
0.61313528 0.084212944 0.029061045
0.6124056 0.085091844 0.028400727
0.61242825 0.085835621 0.028396195
0.61245084 0.08657939 0.028391661
0.61247343 0.087323159 0.028387129
0.61249608 0.088066928 0.028382597
0.61176664 0.088955387 0.0277222
0.61178929 0.089700758 0.027717657
0.61181194 0.090446122 0.027713116
0.61183465 0.091191478 0.027708573
0.6118573 0.091936842 0.027704032
0.61187994 0.092682198 0.027699489
0.61115086 0.093581811 0.027039044
0.61117357 0.094328769 0.027034493
0.61119628 0.095075727 0.027029941
0.61121899 0.095822677 0.027025389
0.6112417 0.096569635 0.027020838
0.61126441 0.097316593 0.027016286
0.61128712 0.098063536 0.027011734
0.61130983 0.098810501 0.027007183
0.61133254 0.099557452 0.027002631
0.61135525 0.10030441 0.026998078
0.6106267 0.10122154 0.026337506
0.61064947 0.10197008 0.026332946
0.61067218 0.10271864 0.026328385
0.61069494 0.10346718 0.026323823
0.6099667 0.10439228 0.025663221
0.60923851 0.10532056 0.025002582
0.60851043 0.10625202 0.024341943
0.60778242 0.10718668 0.023681264
0.60705453 0.10812451 0.023020586
0.60557598 0.10925004 0.021703782
0.60484833 0.11019584 0.021043055
0.60412073 0.11114483 0.020382289
0.60264266 0.11228628 0.019065388
0.60191536 0.11324324 0.018404592
0.60118818 0.11420336 0.017743779
0.60121155 0.11497261 0.017739091
0.60123491 0.11574186 0.017734403
0.60125828 0.11651111 0.017729716
0.6007297 0.033363044 0.018953361
0.60075301 0.034129109 0.018948693
0.60077626 0.034895178 0.018944025
0.60155404 0.035631258 0.019595755
0.6023317 0.036364157 0.020247485
0.6031093 0.037093867 0.020899253
0.60845834 0.039112095 0.025480386
0.61074364 0.039743613 0.027445145
0.61227459 0.040406711 0.028753517
0.61380535 0.041063435 0.030061927
0.61458182 0.041758109 0.03071389
0.61460423 0.042495508 0.030709395
0.61462665 0.043232907 0.030704902
0.61464906 0.043970305 0.030700408
0.61467147 0.044707704 0.030695915
0.61469388 0.045445103 0.030691423
0.61471629 0.046182502 0.030686928
0.6147387 0.046919901 0.030682435
0.61476111 0.0476573 0.030677941
0.61478353 0.048394699 0.030673448
0.61480594 0.049132098 0.030668953
0.61407489 0.049931332 0.030007888
0.61409736 0.050670326 0.030003386
0.61411977 0.051409319 0.029998882
0.61414224 0.052148309 0.02999438
0.61416471 0.052887298 0.029989876
0.61418718 0.053626291 0.029985372
0.61420965 0.054365285 0.02998087
0.6134789 0.055177264 0.029319705
0.61350143 0.055917848 0.029315192
0.61352396 0.056658432 0.029310679
0.61354643 0.057399016 0.029306166
0.61356896 0.0581396 0.029301655
0.61359149 0.058880184 0.029297141
0.61361396 0.059620768 0.029292628
0.61363649 0.060361352 0.029288115
0.61365902 0.061101936 0.029283602
0.61292881 0.061929837 0.028622361
0.61295134 0.062672019 0.028617838
0.61297393 0.063414194 0.028613316
0.61299646 0.064156376 0.028608793
0.61301905 0.064898551 0.028604271
0.61304158 0.065640725 0.028599748
0.61306417 0.066382907 0.028595226
0.6130867 0.067125082 0.028590703
0.61310929 0.067867257 0.028586179
0.61313182 0.068609431 0.028581657
0.61315441 0.069351614 0.028577134
0.61317694 0.070093788 0.028572612
0.61395162 0.070729539 0.029224934
0.61397415 0.071470119 0.029220421
0.61399668 0.072210699 0.029215908
0.61401916 0.072951287 0.029211394
0.61404169 0.073691867 0.029206883
0.61406422 0.074432455 0.02920237
0.61333483 0.075289026 0.028540954
0.61335742 0.076031201 0.028536431
0.61337996 0.076773383 0.028531909
0.61340255 0.077515557 0.028527386
0.61342508 0.078257732 0.028522864
0.61344767 0.078999914 0.02851834
0.6134702 0.079742089 0.028513817
0.61349279 0.080484264 0.028509295
0.61351532 0.081226438 0.028504772
0.61278647 0.082098939 0.027843259
0.61280906 0.082842708 0.027838727
0.61283171 0.083586477 0.027834196
0.6128543 0.084330246 0.027829662
0.61287689 0.085074015 0.02782513
0.61214828 0.085956074 0.027163539
0.61217099 0.08670143 0.027158998
0.61219364 0.087446801 0.027154455
0.61221629 0.088192157 0.027149914
0.61223894 0.088937521 0.027145371
0.61226159 0.089682885 0.02714083
0.61153334 0.09057609 0.02647919
0.61155605 0.09132304 0.026474638
0.61157876 0.092069998 0.026470087
0.61160147 0.092816949 0.026465535
0.61162418 0.093563907 0.026460983
0.61164689 0.094310865 0.026456432
0.610919 0.095215216 0.025794705
0.61094171 0.095963761 0.025790144
0.61096448 0.096712306 0.025785582
0.61098725 0.097460859 0.025781021
0.61100996 0.098209403 0.025776461
0.61103272 0.098957956 0.025771899
0.61105549 0.099706493 0.025767338
0.61107826 0.10045505 0.025762776
0.61110097 0.10120359 0.025758214
0.61037362 0.10212387 0.025096411
0.61039639 0.10287402 0.025091838
0.61041921 0.10362416 0.025087267
0.61044198 0.1043743 0.025082696
0.60971481 0.10530253 0.024420824
0.60898775 0.10623396 0.023758952
0.60751086 0.10734986 0.022439741
0.60678405 0.10828925 0.02177782
0.60605735 0.10923182 0.021115862
0.60533071 0.11017758 0.020453902
0.60460413 0.11112654 0.019791903
0.60387772 0.11207867 0.019129906
0.60240179 0.11322483 0.017810509
0.6024251 0.11399248 0.017805832
0.6024484 0.11476015 0.017801153
0.60247177 0.1155278 0.017796475
0.60249507 0.11629546 0.017791796
0.60196877 0.033319507 0.019018112
0.60199195 0.034083981 0.019013453
0.6020152 0.034848455 0.019008795
0.60279191 0.035582986 0.019661749
0.60356849 0.036314327 0.02031474
0.60434502 0.037042484 0.020967731
0.60587472 0.037732728 0.022278402
0.60740429 0.038416605 0.023589112
0.61274487 0.040388916 0.028179154
0.6135205 0.041088406 0.02883232
0.61429602 0.041784707 0.029485526
0.61431849 0.042523701 0.029481024
0.61434096 0.043262694 0.02947652
0.61436343 0.044001684 0.029472018
0.6143859 0.044740677 0.029467514
0.61440837 0.045479666 0.02946301
0.61443079 0.04621866 0.029458508
0.61445326 0.046957649 0.029454004
0.61447573 0.047696643 0.0294495
0.6144982 0.048435632 0.029444998
0.61452067 0.049174625 0.029440494
0.61454314 0.049913615 0.02943599
0.61456555 0.050652608 0.029431488
0.61458802 0.051391602 0.029426984
0.61385816 0.05219717 0.028764628
0.61388063 0.052937753 0.028760115
0.61390316 0.053678337 0.028755601
0.6139257 0.054418921 0.028751088
0.61394817 0.055159505 0.028746575
0.6139707 0.055900089 0.028742062
0.61399323 0.056640677 0.028737549
0.61326373 0.057458986 0.028075134
0.61328626 0.05820116 0.028070612
0.61330885 0.058943339 0.028066089
0.61333138 0.059685517 0.028061567
0.61335397 0.060427692 0.028057044
0.6133765 0.06116987 0.02805252
0.61339909 0.061912045 0.028047998
0.61342162 0.062654227 0.028043475
0.61344415 0.063396402 0.028038952
0.61346674 0.064138576 0.02803443
0.61348927 0.064880759 0.028029907
0.61351186 0.065622933 0.028025385
0.61353439 0.066365108 0.028020862
0.61355698 0.067107283 0.02801634
0.61357951 0.067849465 0.028011817
0.6136021 0.068591639 0.028007295
0.61362463 0.069333814 0.028002772
0.61364722 0.070075996 0.02799825
0.61366975 0.070818171 0.027993727
0.61369234 0.071560346 0.027989205
0.61371487 0.07230252 0.027984682
0.61373746 0.073044702 0.027980158
0.61375999 0.073786877 0.027975636
0.61378258 0.074529052 0.027971113
0.61380512 0.075271234 0.027966591
0.61382771 0.076013409 0.027962068
0.61385024 0.076755583 0.027957546
0.61387277 0.077497765 0.027953023
0.61389536 0.07823994 0.027948501
0.61316729 0.079106025 0.027285794
0.61318994 0.079849795 0.027281262
0.61321253 0.080593564 0.02727673
0.61323512 0.08133734 0.027272196
0.61325777 0.082081109 0.027267665
0.61328036 0.082824878 0.027263133
0.61255264 0.083702117 0.026600339
0.61257529 0.084447481 0.026595797
0.61259794 0.085192844 0.026591254
0.61262059 0.0859382 0.026586713
0.61264324 0.086683564 0.02658217
0.61191583 0.087570362 0.025919337
0.61193854 0.088317312 0.025914786
0.61196125 0.08906427 0.025910234
0.61198395 0.089811221 0.025905682
0.61200666 0.090558179 0.025901131
0.61202937 0.091305137 0.025896579
0.61130226 0.092203081 0.025233658
0.61132503 0.092951626 0.025229096
0.61134779 0.093700178 0.025224535
0.6113705 0.094448723 0.025219975
0.61139327 0.095197268 0.025215413
0.61141604 0.095945813 0.025210852
0.61143875 0.096694365 0.02520629
0.61071211 0.09760505 0.024543311
0.61073488 0.098355182 0.024538741
0.61075771 0.099105328 0.02453417
0.61078048 0.099855468 0.024529599
0.61080331 0.10060561 0.024525028
0.61082608 0.10135575 0.024520455
0.6108489 0.10210589 0.024515884
0.61087167 0.10285603 0.024511313
0.61014545 0.10378104 0.023848228
0.61016828 0.10453279 0.023843648
0.60944217 0.10546257 0.023180554
0.60871613 0.10639556 0.022517418
0.60799021 0.10733172 0.021854285
0.6072644 0.10827108 0.021191131
0.60653865 0.10921361 0.02052794
0.60581309 0.11015933 0.019864749
0.60508752 0.11110825 0.019201517
0.60436207 0.11206034 0.018538287
0.60363674 0.11301562 0.017875018
0.60366005 0.11378168 0.01787035
0.60293484 0.11474174 0.017207069
0.6037066 0.11531382 0.017861012
0.60298151 0.11627705 0.017197715
0.60300481 0.11704472 0.017193036
0.60318255 0.032513168 0.019089958
0.60320574 0.033276048 0.019085309
0.60322893 0.034038931 0.019080659
0.60325211 0.034801811 0.01907601
0.6032753 0.035564695 0.019071363
0.60405087 0.036296073 0.019725587
0.60482639 0.037024271 0.020379812
0.60940892 0.039076127 0.024319336
0.61168826 0.039707873 0.026291491
0.612463 0.04041218 0.02694588
0.61323768 0.041113298 0.02760027
0.61401224 0.041811235 0.028254678
0.61403477 0.042551819 0.028250165
0.61405724 0.043292403 0.028245652
0.61407977 0.044032987 0.028241139
0.6141023 0.044773571 0.028236626
0.61412477 0.045514155 0.028232113
0.61414731 0.046254739 0.028227601
0.61416984 0.046995323 0.028223088
0.61419231 0.047735911 0.028218575
0.61421484 0.048476495 0.028214062
0.61423737 0.049217079 0.028209548
0.61425984 0.049957663 0.028205035
0.61428237 0.050698247 0.028200522
0.6143049 0.051438831 0.028196011
0.61432737 0.052179415 0.028191498
0.6143499 0.052919999 0.028186984
0.61437243 0.053660583 0.028182471
0.61364377 0.054472484 0.027518863
0.6136663 0.055214662 0.027514338
0.61368883 0.055956837 0.027509816
0.61371142 0.056699015 0.027505293
0.61373395 0.057441194 0.027500771
0.61375654 0.058183368 0.027496248
0.61377907 0.058925547 0.027491726
0.61380166 0.059667721 0.027487203
0.61307341 0.060493957 0.026823508
0.613096 0.061237726 0.026818976
0.61311865 0.061981495 0.026814442
0.61314124 0.062725268 0.02680991
0.61316383 0.063469037 0.026805378
0.61318642 0.064212807 0.026800847
0.61320907 0.064956576 0.026796313
0.61323166 0.065700345 0.026791781
0.61325425 0.066444114 0.026787249
0.6132769 0.067187883 0.026782718
0.61329949 0.067931652 0.026778184
0.61332208 0.068675421 0.026773652
0.61334467 0.06941919 0.02676912
0.61336732 0.070162959 0.026764587
0.61338991 0.070906736 0.026760055
0.6134125 0.071650505 0.026755523
0.61343515 0.072394274 0.026750991
0.61345774 0.073138036 0.026746457
0.61348033 0.073881805 0.026741926
0.61350292 0.074625574 0.026737394
0.61352557 0.075369351 0.026732862
0.61354816 0.07611312 0.026728328
0.61357075 0.076856889 0.026723797
0.61359334 0.077600658 0.026719265
0.61361599 0.078344427 0.026714731
0.61363858 0.079088196 0.026710199
0.61366117 0.079831965 0.026705667
0.61293429 0.080702797 0.026041679
0.61295694 0.08144816 0.026037136
0.61297959 0.082193524 0.026032595
0.61300224 0.082938887 0.026028054
0.61302489 0.083684243 0.026023511
0.61229831 0.084564626 0.025359483
0.61232102 0.085311584 0.025354933
0.61234373 0.086058542 0.025350381
0.61236644 0.086805493 0.025345828
0.61238915 0.087552451 0.025341278
0.61241186 0.088299409 0.025336726
0.61168557 0.089190938 0.024672613
0.61170828 0.08993949 0.024668051
0.61173105 0.090688042 0.024663489
0.61175382 0.09143658 0.024658928
0.61177659 0.092185132 0.024654366
0.6117993 0.092933677 0.024649804
0.61107337 0.093836367 0.023985643
0.6110962 0.094586499 0.023981072
0.61111897 0.095336646 0.023976499
0.6111418 0.09608677 0.023971928
0.61116457 0.096836917 0.023967357
0.6111874 0.097587064 0.023962786
0.61121023 0.098337196 0.023958215
0.611233 0.099087343 0.023953645
0.61125582 0.099837482 0.023949074
0.61053038 0.10075609 0.023284795
0.61055321 0.10150782 0.023280213
0.61057603 0.10225956 0.023275632
0.61059892 0.1030113 0.023271052
0.61062175 0.10376302 0.02326647
0.6098966 0.10469119 0.022602154
0.60991949 0.10544451 0.022597563
0.60919446 0.10637746 0.021933196
0.60846961 0.10731359 0.02126883
0.60774475 0.1082529 0.020604445
0.60702002 0.1091954 0.019940021
0.60629541 0.11014108 0.019275596
0.60557091 0.11108996 0.018611131
0.6055941 0.11185284 0.018606484
0.60486972 0.11280648 0.017942011
0.60414541 0.11376332 0.0172775
0.60491621 0.11433543 0.017932694
0.60419202 0.11529545 0.017268162
0.60421526 0.11606152 0.017263494
0.60441756 0.032471377 0.019159628
0.60444069 0.033232667 0.019154988
0.60446382 0.033993956 0.01915035
0.604487 0.034755245 0.01914571
0.60451013 0.035516534 0.019141072
0.60528463 0.036246359 0.019796519
0.60605907 0.036973 0.020452004
0.60758471 0.037661806 0.021767596
0.60835892 0.038380485 0.022423131
0.60988426 0.039058141 0.023738811
0.61140937 0.039729431 0.025054527
0.61293429 0.040394347 0.026370283
0.61370796 0.041095506 0.027025905
0.61373049 0.041837681 0.027021382
0.61450404 0.042534065 0.027677035
0.61452651 0.043274648 0.027672522
0.61454904 0.044015232 0.027668009
0.61457157 0.044755816 0.027663495
0.61459404 0.0454964 0.027658982
0.61461657 0.046236984 0.027654469
0.61463904 0.046977568 0.027649958
0.61466157 0.047718152 0.027645444
0.6146841 0.048458736 0.027640931
0.61470658 0.04919932 0.027636418
0.61397862 0.050001629 0.026971634
0.61400121 0.050743807 0.026967112
0.61402375 0.051485982 0.026962588
0.61404634 0.05222816 0.026958065
0.61406887 0.052970335 0.026953543
0.61409146 0.053712513 0.02694902
0.61411399 0.054454688 0.026944498
0.61413658 0.055196866 0.026939975
0.61415911 0.055939045 0.026935453
0.61343163 0.056757279 0.026270572
0.61345422 0.057501048 0.02626604
0.61347687 0.058244817 0.026261508
0.61349946 0.058988586 0.026256975
0.61352205 0.059732355 0.026252443
0.6135447 0.060476124 0.026247911
0.61356729 0.061219893 0.026243379
0.61358988 0.061963663 0.026238846
0.61361247 0.062707432 0.026234314
0.61363512 0.063451208 0.026229782
0.61290812 0.064286962 0.025564775
0.61293077 0.065032318 0.025560232
0.61295342 0.065777682 0.025555691
0.61297613 0.066523045 0.025551148
0.61299878 0.067268409 0.025546607
0.61302143 0.068013765 0.025542064
0.61304408 0.068759128 0.025537523
0.61306673 0.069504492 0.02553298
0.61308938 0.070249856 0.025528438
0.6138612 0.070888899 0.026184458
0.61313468 0.071740583 0.025519354
0.61315733 0.072485946 0.025514813
0.61317998 0.073231302 0.02551027
0.61320269 0.073976666 0.025505729
0.61322534 0.074722029 0.025501186
0.61324799 0.075467393 0.025496645
0.61327064 0.076212756 0.025492102
0.61329329 0.07695812 0.025487561
0.61331594 0.077703476 0.025483018
0.61333859 0.078448839 0.025478477
0.61336124 0.079194203 0.025473934
0.61338389 0.079939567 0.025469393
0.61340654 0.080684923 0.02546485
0.61268079 0.081558906 0.02479963
0.6127035 0.082305856 0.024795078
0.61272621 0.083052814 0.024790527
0.61274892 0.083799765 0.024785975
0.61277163 0.084546722 0.024781423
0.61279428 0.08529368 0.024776872
0.61206883 0.086178802 0.024111563
0.6120916 0.086927354 0.024107002
0.61211437 0.087675899 0.02410244
0.61213708 0.088424452 0.024097878
0.61215985 0.089172989 0.024093317
0.61218262 0.089921542 0.024088757
0.61145753 0.090817817 0.0234234
0.6114803 0.091567956 0.023418829
0.61150312 0.092318095 0.023414258
0.61152589 0.093068235 0.023409687
0.61154872 0.093818381 0.023405116
0.61157149 0.094568513 0.023400545
0.61159432 0.09531866 0.023395974
0.61086959 0.096227676 0.02273052
0.61089242 0.096979402 0.02272594
0.61091524 0.097731143 0.022721358
0.61093813 0.09848287 0.022716777
0.61096096 0.099234611 0.022712197
0.61098379 0.09998633 0.022707617
0.61100668 0.10073807 0.022703035
0.61102951 0.1014898 0.022698455
0.61030525 0.10241315 0.022032933
0.61032814 0.10316648 0.022028344
0.61035103 0.1039198 0.022023752
0.61037391 0.10467313 0.022019163
0.6096499 0.10560444 0.021353573
0.60892594 0.10653894 0.020687984
0.6082021 0.10747662 0.020022376
0.60822511 0.10823473 0.020017754
0.60750139 0.10917719 0.019352097
0.60677779 0.11012283 0.018686442
0.60680097 0.11088412 0.018681802
0.60607749 0.11183455 0.018016096
0.60610068 0.11259744 0.018011447
0.60537732 0.11355263 0.017345732
0.60540056 0.1143171 0.017341074
0.60542381 0.11508157 0.017336415
0.60544705 0.11584605 0.017331757
0.6054703 0.11661053 0.017327098
0.60565054 0.032429665 0.019231746
0.60567367 0.03318936 0.019227115
0.60569674 0.033949055 0.019222487
0.6057198 0.034708753 0.019217858
0.60574293 0.035468448 0.019213228
0.605766 0.036228146 0.019208599
0.60728979 0.036921807 0.020526646
0.60806304 0.037643708 0.021183373
0.60958648 0.038326222 0.022501489
0.61035955 0.039040156 0.023158284
0.61188263 0.03971152 0.024476467
0.61265546 0.040417496 0.025133293
0.61342818 0.041120283 0.025790157
0.61420077 0.041819889 0.02644702
0.6142233 0.042562068 0.026442498
0.61424589 0.043304242 0.026437975
0.61426842 0.044046421 0.026433453
0.61429101 0.044788595 0.02642893
0.61431354 0.045530774 0.026424408
0.61433613 0.046272948 0.026419885
0.61435866 0.047015127 0.026415363
0.61438125 0.047757305 0.02641084
0.61440378 0.04849948 0.026406318
0.61442637 0.049241658 0.026401794
0.6144489 0.049983833 0.026397271
0.6144715 0.050726011 0.026392749
0.61449403 0.05146819 0.026388226
0.61451656 0.052210364 0.026383704
0.61378986 0.053020597 0.025717638
0.61381251 0.053764369 0.025713107
0.6138351 0.054508138 0.025708575
0.61385769 0.055251904 0.025704043
0.61388034 0.055995673 0.025699509
0.61390293 0.056739446 0.025694977
0.61392552 0.057483215 0.025690446
0.61319917 0.058306187 0.025024284
0.61322182 0.059051551 0.025019743
0.61324447 0.059796914 0.0250152
0.61326712 0.060542278 0.025010658
0.61328977 0.061287638 0.025006115
0.61331248 0.062033001 0.025001574
0.61333513 0.062778361 0.024997031
0.61335778 0.063523725 0.02499249
0.61338043 0.064269088 0.024987947
0.61340308 0.065014452 0.024983406
0.61342573 0.065759815 0.024978863
0.61344838 0.066505179 0.024974322
0.61347103 0.067250535 0.024969779
0.61349368 0.067995898 0.024965238
0.61351633 0.068741262 0.024960695
0.61353904 0.069486625 0.024956154
0.61356169 0.070231989 0.024951611
0.61358434 0.070977353 0.02494707
0.61360699 0.071722709 0.024942527
0.61362964 0.072468072 0.024937985
0.61365229 0.073213436 0.024933442
0.61367494 0.073958792 0.024928901
0.61369759 0.074704155 0.024924358
0.61372024 0.075449519 0.024919817
0.61374289 0.076194882 0.024915274
0.61301786 0.077059269 0.024248879
0.61304057 0.077806219 0.024244329
0.61306328 0.07855317 0.024239777
0.61308599 0.079300128 0.024235224
0.61310869 0.080047086 0.024230674
0.61313134 0.080794036 0.024226122
0.61315405 0.081540994 0.024221569
0.61317676 0.082287952 0.024217019
0.61245215 0.083166666 0.023550518
0.61247486 0.083915219 0.023545956
0.61249763 0.084663764 0.023541395
0.6125204 0.085412309 0.023536833
0.61254317 0.086160861 0.023532271
0.61256588 0.086909406 0.02352771
0.61258864 0.087657958 0.023523148
0.61186439 0.088549413 0.022856589
0.61188722 0.089299552 0.022852017
0.61190999 0.090049691 0.022847446
0.61193281 0.090799831 0.022842875
0.61195558 0.09154997 0.022838304
0.61197841 0.092300117 0.022833733
0.61125451 0.093202718 0.022167087
0.61127734 0.093954451 0.022162504
0.61130017 0.094706185 0.022157924
0.61132306 0.095457919 0.022153344
0.61134589 0.096209653 0.022148762
0.61136872 0.096961379 0.022144182
0.6113916 0.09771312 0.022139601
0.61141443 0.098464847 0.022135021
0.61069095 0.09938179 0.021468306
0.61071384 0.10013511 0.021463715
0.61073679 0.10088844 0.021459125
0.61075968 0.10164177 0.021454534
0.61078256 0.10239509 0.021449942
0.61080545 0.10314842 0.021445353
0.61008233 0.1040765 0.02077855
0.61010528 0.10483143 0.020773951
0.60938227 0.10576428 0.020107139
0.60940528 0.10652081 0.020102529
0.60868245 0.10745844 0.019435687
0.60870546 0.10821655 0.019431068
0.60798275 0.10915897 0.018764177
0.60800588 0.10991867 0.018759549
0.60728329 0.11086587 0.018092649
0.60730648 0.11162715 0.018088009
0.60658401 0.11257914 0.017421063
0.6066072 0.11334202 0.017416414
0.60663038 0.1141049 0.017411765
0.60665363 0.11486778 0.017407116
0.60667682 0.11563066 0.017402468
0.60688156 0.032388028 0.019306347
0.60615504 0.033171147 0.018639196
0.60692763 0.033904232 0.019297108
0.6069507 0.034662336 0.019292489
0.60697371 0.03542044 0.019287867
0.60699677 0.036178544 0.019283248
0.60776913 0.036903668 0.01994119
0.60854137 0.037625607 0.020599151
0.60931361 0.038344361 0.021257151
0.61083484 0.039022174 0.022577761
0.61160678 0.039732963 0.023235789
0.61237866 0.040440567 0.023893856
0.61315036 0.041144989 0.024551924
0.61392206 0.041846223 0.025210029
0.61394465 0.042589992 0.025205497
0.61396724 0.043333761 0.025200965
0.61398989 0.044077531 0.025196431
0.61401248 0.0448213 0.025191899
0.61403507 0.045565069 0.025187368
0.61405766 0.046308838 0.025182836
0.61408031 0.047052611 0.025178302
0.6141029 0.04779638 0.02517377
0.61412549 0.048540149 0.025169238
0.61414814 0.049283918 0.025164705
0.61417073 0.050027687 0.025160173
0.61419332 0.050771456 0.025155641
0.61421591 0.051515225 0.025151109
0.61423856 0.052258994 0.025146576
0.61426115 0.053002764 0.025142044
0.61428374 0.053746536 0.025137512
0.61430639 0.054490305 0.02513298
0.61358082 0.05530687 0.024465624
0.61360347 0.05605223 0.024461083
0.61362612 0.056797598 0.02445654
0.61364883 0.057542957 0.024451999
0.61367148 0.058288317 0.024447456
0.61369413 0.059033681 0.024442915
0.61371678 0.059779044 0.024438372
0.61373943 0.060524408 0.024433831
0.61301434 0.061355304 0.023766406
0.61303705 0.062102258 0.023761855
0.61305976 0.062849216 0.023757303
0.61308247 0.063596174 0.023752751
0.61310518 0.064343125 0.023748199
0.61312789 0.065090083 0.023743648
0.6131506 0.065837033 0.023739096
0.61317331 0.066583984 0.023734543
0.61319602 0.067330942 0.023729993
0.61321867 0.0680779 0.023725441
0.61324137 0.06882485 0.023720888
0.61326408 0.069571808 0.023716338
0.61328679 0.070318766 0.023711786
0.6133095 0.071065716 0.023707233
0.61333221 0.071812674 0.023702683
0.61335492 0.072559625 0.023698131
0.61337763 0.073306583 0.023693578
0.61340034 0.074053533 0.023689026
0.61342305 0.074800491 0.023684476
0.61344576 0.075547449 0.023679923
0.61346841 0.0762944 0.023675371
0.61349112 0.077041358 0.023670821
0.61276716 0.077908888 0.023003155
0.61278993 0.078657433 0.022998594
0.61281264 0.079405986 0.022994032
0.61283541 0.080154531 0.022989471
0.61285818 0.080903076 0.022984909
0.61288095 0.081651628 0.022980347
0.61290365 0.082400173 0.022975786
0.61292642 0.083148725 0.022971224
0.61294919 0.08389727 0.022966664
0.61297196 0.084645815 0.022962103
0.61224854 0.085530862 0.02229435
0.61227131 0.086281002 0.022289777
0.61229414 0.087031141 0.022285206
0.61231691 0.087781288 0.022280635
0.61233974 0.088531427 0.022276064
0.6123625 0.089281566 0.022271493
0.61238533 0.090031706 0.022266923
0.61166227 0.090929501 0.021599071
0.6116851 0.091681235 0.021594491
0.61170799 0.092432968 0.021589909
0.61173081 0.093184695 0.021585329
0.61175364 0.093936428 0.021580748
0.61177653 0.094688162 0.021576168
0.61105382 0.095597096 0.020908268
0.61107671 0.096350424 0.020903679
0.6110996 0.097103752 0.020899087
0.61112249 0.097857073 0.020894498
0.61114538 0.098610401 0.020889906
0.61116832 0.099363729 0.020885317
0.61119121 0.10011705 0.020880725
0.6112141 0.10087038 0.020876136
0.61049181 0.10179365 0.020208128
0.61051476 0.10254857 0.020203529
0.61053771 0.10330349 0.020198928
0.61056066 0.10405841 0.020194327
0.6098386 0.10498965 0.019526294
0.60986161 0.10574615 0.019521683
0.60988462 0.10650267 0.019517073
0.60916281 0.10744027 0.018848998
0.60918581 0.10819837 0.018844379
0.60846412 0.10914075 0.018176258
0.60848725 0.10990045 0.018171629
0.60776567 0.11084761 0.017503496
0.6077888 0.1116089 0.017498856
0.60781199 0.11237019 0.017494218
0.60783511 0.11313148 0.017489579
0.60711378 0.11408661 0.016821381
0.60713696 0.11484949 0.016816732
0.60716015 0.11561237 0.016812082
0.60718334 0.11637526 0.016807433
0.60720652 0.11713814 0.016802784
0.60808754 0.031589955 0.019388005
0.60736191 0.032369852 0.018719658
0.60738498 0.033127956 0.018715039
0.60740799 0.033886056 0.01871042
0.60743105 0.03464416 0.0187058
0.60745406 0.035402264 0.018701181
0.60822546 0.03612902 0.019360345
0.60899681 0.036852591 0.020019529
0.60976803 0.037572976 0.020678751
0.61053914 0.038290177 0.021337973
0.61131018 0.039004188 0.021997234
0.61208111 0.039715018 0.022656495
0.61285192 0.040422659 0.023315797
0.61287463 0.041169614 0.023311244
0.61364532 0.041872479 0.023970554
0.61366796 0.042617843 0.023966011
0.61369061 0.043363206 0.02396147
0.61371326 0.044108566 0.023956927
0.61373591 0.044853929 0.023952385
0.61450636 0.045547239 0.024611773
0.61452895 0.046291009 0.024607241
0.61455154 0.047034778 0.024602709
0.61457419 0.047778547 0.024598176
0.61459678 0.048522316 0.024593644
0.61461937 0.049266085 0.024589112
0.61464196 0.050009854 0.02458458
0.61391717 0.050816827 0.023916049
0.61393982 0.05156219 0.023911506
0.61396247 0.05230755 0.023906965
0.61398518 0.053052913 0.023902422
0.61400783 0.053798277 0.023897881
0.61403048 0.05454364 0.023893338
0.61405313 0.055289 0.023888797
0.61407578 0.05603436 0.023884254
0.61409843 0.056779727 0.023879712
0.61337411 0.057602622 0.023211107
0.61339682 0.058349576 0.023206554
0.61341953 0.05909653 0.023202002
0.61344224 0.059843488 0.023197452
0.61346495 0.060590442 0.023192899
0.61348766 0.061337397 0.023188347
0.61351037 0.062084351 0.023183797
0.61353308 0.062831305 0.023179244
0.61355573 0.063578263 0.023174692
0.61357844 0.064325213 0.02317014
0.61360115 0.065072171 0.023165589
0.61362386 0.065819122 0.023161037
0.6129002 0.066662729 0.022492282
0.61292291 0.067411274 0.022487722
0.61294568 0.068159826 0.022483161
0.61296844 0.068908371 0.022478599
0.61299121 0.069656923 0.022474037
0.61301392 0.070405468 0.022469476
0.61303669 0.071154013 0.022464914
0.61305946 0.071902566 0.022460353
0.61308217 0.072651111 0.022455791
0.61310494 0.073399656 0.022451229
0.61312771 0.0741482 0.022446668
0.61315048 0.074896753 0.022442106
0.61317319 0.075645298 0.022437546
0.61319596 0.07639385 0.022432985
0.61321872 0.077142395 0.022428423
0.61324143 0.07789094 0.022423862
0.6132642 0.078639485 0.0224193
0.61328697 0.079388037 0.022414738
0.61256421 0.080261901 0.021745821
0.61258703 0.081012033 0.021741251
0.6126098 0.08176218 0.02173668
0.61263263 0.082512319 0.021732109
0.6126554 0.083262458 0.021727538
0.61267823 0.084012598 0.021722965
0.612701 0.084762737 0.021718394
0.61272383 0.085512877 0.021713823
0.6127466 0.086263016 0.021709252
0.61276942 0.087013155 0.021704681
0.6120472 0.087904543 0.021035638
0.61207002 0.088656276 0.021031056
0.61209285 0.08940801 0.021026475
0.61211574 0.090159744 0.021021895
0.61213857 0.090911478 0.021017313
0.6121614 0.091663212 0.021012733
0.61143953 0.092565738 0.020343641
0.61146241 0.093319058 0.020339049
0.61148536 0.094072387 0.02033446
0.61150825 0.094825715 0.020329868
0.61153114 0.095579036 0.020325279
0.61155403 0.096332356 0.020320687
0.61157691 0.097085692 0.020316096
0.6115998 0.097839013 0.020311506
0.61087835 0.098755881 0.019642306
0.6109013 0.099510804 0.019637708
0.61092424 0.10026572 0.019633107
0.61094719 0.10102063 0.019628506
0.61097014 0.10177556 0.019623905
0.61024898 0.10270198 0.018954668
0.61027199 0.10345849 0.018950058
0.610295 0.10421499 0.018945448
0.61031795 0.10497151 0.018940838
0.61034095 0.10572802 0.018936228
0.60962009 0.10666399 0.018266931
0.60964316 0.10742209 0.018262312
0.60966617 0.1081802 0.018257692
0.60894549 0.10912254 0.017588338
0.60896862 0.10988224 0.017583707
0.60899168 0.11064194 0.017579079
0.60827118 0.11159065 0.016909705
0.60829437 0.11235194 0.016905066
0.60831749 0.11311322 0.016900428
0.60834062 0.11387452 0.016895788
0.60836375 0.1146358 0.01689115
0.60838687 0.1153971 0.01688651
0.60841006 0.11615839 0.01688187
0.60768992 0.11711985 0.016212398
0.60854387 0.030815307 0.018807158
0.60856688 0.031571817 0.01880255
0.60858983 0.03232833 0.01879794
0.60861284 0.03308484 0.01879333
0.60863584 0.033841349 0.01878872
0.60865885 0.034597863 0.01878411
0.60868186 0.035354372 0.018779499
0.60945219 0.036079574 0.019439906
0.60947514 0.036834493 0.019435305
0.61024535 0.037554912 0.020095758
0.61101544 0.038272154 0.020756213
0.61103833 0.039023884 0.020751633
0.6118083 0.039736345 0.021412136
0.61257815 0.040445618 0.022072639
0.61334795 0.041151706 0.022733182
0.61337066 0.04189866 0.022728631
0.61339337 0.042645615 0.022724079
0.61341602 0.043392569 0.022719527
0.61418557 0.044090696 0.023380099
0.61420822 0.044836059 0.023375556
0.61423087 0.045581423 0.023371015
0.61425352 0.046326783 0.023366472
0.61427617 0.047072146 0.023361931
0.61429882 0.04781751 0.023357388
0.61432147 0.048562869 0.023352847
0.61434418 0.049308233 0.023348304
0.61436683 0.050053593 0.023343762
0.61438948 0.050798956 0.023339219
0.61441213 0.05154432 0.023334678
0.61368847 0.052356027 0.022664906
0.61371118 0.053102985 0.022660354
0.61373389 0.053849939 0.022655804
0.6137566 0.054596893 0.022651251
0.61377931 0.055343848 0.022646699
0.61380202 0.056090802 0.022642149
0.61382473 0.05683776 0.022637596
0.61384743 0.057584714 0.022633044
0.61387014 0.058331668 0.022628492
0.61389285 0.059078623 0.022623941
0.6139155 0.059825577 0.022619389
0.61319244 0.060656402 0.021949481
0.61321521 0.061404947 0.02194492
0.61323798 0.062153496 0.021940358
0.61326069 0.062902041 0.021935796
0.61328346 0.063650593 0.021931235
0.61330622 0.064399138 0.021926673
0.61332899 0.06514769 0.021922112
0.6133517 0.065896235 0.02191755
0.61337447 0.06664478 0.02191299
0.61339724 0.067393333 0.021908429
0.61342001 0.068141878 0.021903867
0.61344272 0.068890423 0.021899305
0.61346549 0.069638975 0.021894744
0.61348826 0.07038752 0.021890182
0.61351097 0.071136065 0.02188562
0.61353374 0.071884617 0.021881059
0.61281151 0.072742507 0.021211006
0.61283433 0.073492654 0.021206435
0.6128571 0.074242793 0.021201864
0.61287993 0.074992932 0.021197293
0.6129027 0.075743079 0.021192722
0.61292553 0.076493211 0.021188151
0.6129483 0.07724335 0.021183578
0.61297113 0.07799349 0.021179007
0.6129939 0.078743637 0.021174436
0.61301672 0.079493776 0.021169866
0.61303955 0.080243915 0.021165295
0.61306232 0.080994047 0.021160724
0.61308515 0.081744194 0.021156153
0.61310792 0.082494333 0.021151582
0.61238641 0.083376125 0.020481363
0.61240923 0.084127858 0.020476781
0.61243212 0.084879592 0.020472201
0.61245495 0.085631318 0.02046762
0.61247778 0.086383052 0.020463038
0.61250067 0.087134786 0.020458458
0.6125235 0.08788652 0.020453878
0.61254632 0.088638254 0.020449296
0.61182529 0.089534372 0.01977901
0.61184818 0.0902877 0.01977442
0.61187106 0.091041028 0.019769829
0.61189395 0.091794349 0.019765239
0.6119169 0.092547677 0.019760648
0.61193979 0.093300998 0.019756058
0.61196268 0.094054326 0.019751467
0.611242 0.094963185 0.019081084
0.61126488 0.095718116 0.019076483
0.61128783 0.096473023 0.019071884
0.61131078 0.097227946 0.019067284
0.61133373 0.097982869 0.019062683
0.61135668 0.098737784 0.019058082
0.61137962 0.099492699 0.019053483
0.61065936 0.10041431 0.018383041
0.61068237 0.10117082 0.018378431
0.61070532 0.10192732 0.018373821
0.61072832 0.10268383 0.018369211
0.61075133 0.10344035 0.018364601
0.61077434 0.10419685 0.018359993
0.61005437 0.10512961 0.017689481
0.61007744 0.10588771 0.017684862
0.61010045 0.10664582 0.017680243
0.61012352 0.10740392 0.017675621
0.60940379 0.10834464 0.017005045
0.60942686 0.10910433 0.017000416
0.60944992 0.10986403 0.016995788
0.60947305 0.11062372 0.016991157
0.60949612 0.11138342 0.016986528
0.60877669 0.11233369 0.016315913
0.60879987 0.11309498 0.016311273
0.608823 0.11385627 0.016306633
0.60884613 0.11461755 0.016301995
0.60886925 0.11537884 0.016297355
0.60815012 0.11633868 0.015626661
0.60817331 0.11710156 0.015622012
0.6081965 0.11786444 0.015617363
0.6089772 0.029284148 0.018230923
0.60900021 0.030040659 0.018226312
0.60902321 0.03079717 0.018221702
0.60904622 0.031553682 0.018217092
0.60906923 0.032310192 0.018212482
0.60909218 0.033066701 0.018207872
0.60911518 0.033823214 0.018203262
0.60988462 0.034551639 0.018864883
0.6091612 0.035336234 0.018194042
0.60993052 0.036061473 0.018855682
0.61069977 0.036783528 0.01951736
0.61072266 0.037536852 0.019512769
0.61149174 0.038254131 0.020174457
0.61151463 0.039005861 0.020169875
0.61228359 0.03971836 0.020831613
0.61305243 0.04042767 0.021493347
0.6130752 0.041176219 0.021488786
0.61309797 0.041924767 0.021484224
0.61312068 0.042673316 0.021479663
0.61388934 0.043374661 0.022141468
0.61391205 0.044121619 0.022136915
0.61393476 0.044868574 0.022132363
0.61395746 0.045615528 0.022127813
0.61398017 0.046362482 0.02212326
0.61400282 0.047109436 0.022118708
0.61402553 0.04785639 0.022114156
0.61404824 0.048603345 0.022109605
0.61407095 0.049350303 0.022105053
0.61409366 0.050097257 0.022100501
0.61411637 0.050844211 0.02209595
0.61413908 0.051591165 0.022091398
0.61416179 0.05233812 0.022086846
0.6141845 0.053085074 0.022082295
0.61420721 0.053832032 0.022077743
0.61348474 0.054650076 0.02140668
0.61350751 0.055398624 0.021402119
0.61353022 0.056147169 0.021397557
0.61355299 0.056895718 0.021392995
0.61357576 0.057644267 0.021388434
0.61359853 0.058392812 0.021383872
0.61362123 0.05914136 0.021379311
0.613644 0.059889909 0.021374751
0.61366677 0.060638454 0.021370189
0.61368948 0.061387002 0.021365628
0.61371225 0.062135547 0.021361066
0.61373502 0.062884092 0.021356504
0.61375779 0.063632645 0.021351943
0.6137805 0.06438119 0.021347381
0.61380327 0.065129742 0.02134282
0.61308163 0.065973267 0.020671623
0.6131044 0.066723406 0.020667052
0.61312723 0.067473546 0.020662479
0.61315 0.068223685 0.020657908
0.61317283 0.068973824 0.020653337
0.6131956 0.069723971 0.020648766
0.61321843 0.070474111 0.020644195
0.6132412 0.07122425 0.020639624
0.61326402 0.071974389 0.020635054
0.61328685 0.072724529 0.020630483
0.61330962 0.073474668 0.020625912
0.61333245 0.074224807 0.020621339
0.61335522 0.074974947 0.020616768
0.61337805 0.075725093 0.020612197
0.61340082 0.076475225 0.020607626
0.6126799 0.077344239 0.019936252
0.61270279 0.078095973 0.01993167
0.61272562 0.078847706 0.01992709
0.6127485 0.07959944 0.01992251
0.61277133 0.080351166 0.019917928
0.61279416 0.0811029 0.019913347
0.61281705 0.081854634 0.019908767
0.61283988 0.082606368 0.019904185
0.61286271 0.083358102 0.019899605
0.61288559 0.084109835 0.019895025
0.61290842 0.084861569 0.019890442
0.61293125 0.085613295 0.019885862
0.61221099 0.086503007 0.019214382
0.61223394 0.087256335 0.019209793
0.61225682 0.088009663 0.019205201
0.61227971 0.088762984 0.019200612
0.6123026 0.089516312 0.01919602
0.61232549 0.09026964 0.019191431
0.61160558 0.091170505 0.018519863
0.61162853 0.09192542 0.018515263
0.61165148 0.092680342 0.018510662
0.61167443 0.09343525 0.018506063
0.61169738 0.09419018 0.018501462
0.61172032 0.094945088 0.018496862
0.61174327 0.095700011 0.018492261
0.61102372 0.096613608 0.017820636
0.61104673 0.097370118 0.017816026
0.61106974 0.098126635 0.017811416
0.61109269 0.098883145 0.017806806
0.61111569 0.099639654 0.017802196
0.6111387 0.10039616 0.017797586
0.61116171 0.10115268 0.017792976
0.61118466 0.10190918 0.017788365
0.61120766 0.1026657 0.017783755
0.61048865 0.10359523 0.017112033
0.61051166 0.10435333 0.017107414
0.61053473 0.10511144 0.017102795
0.61055779 0.10586953 0.017098175
0.6105808 0.10662764 0.017093556
0.61060387 0.10738574 0.017088935
0.60988516 0.10832642 0.016417125
0.60990822 0.10908612 0.016412495
0.60993129 0.10984582 0.016407866
0.60995442 0.11060552 0.016403235
0.60997748 0.11136521 0.016398607
0.61000061 0.1121249 0.016393978
0.60928226 0.11307672 0.01572212
0.60930538 0.11383802 0.01571748
0.60932851 0.1145993 0.015712842
0.60935163 0.1153606 0.015708202
0.60937476 0.11612189 0.015703563
0.6086567 0.11708327 0.015031627
0.60867989 0.11784615 0.015026979
0.60943359 0.0285095 0.017650079
0.61020231 0.029249111 0.018312862
0.61022526 0.03000403 0.018308261
0.60950255 0.030779032 0.017636249
0.61027116 0.031513866 0.018299062
0.60954857 0.032292053 0.017627029
0.61031705 0.033023704 0.01828986
0.60959452 0.033805076 0.017617809
0.61036295 0.034533538 0.018280661
0.61038589 0.035288457 0.01827606
0.61040884 0.036043376 0.018271459
0.61117709 0.036765467 0.018934369
0.61119998 0.037518792 0.01892978
0.6119681 0.038236108 0.019592699
0.61199093 0.038987838 0.019588118
0.61275887 0.039700374 0.020251088
0.6127817 0.040450513 0.020246515
0.61354947 0.041158274 0.020909494
0.61357224 0.041906819 0.020904932
0.61359501 0.042655367 0.020900371
0.61361778 0.043403916 0.020895809
0.61364049 0.044152465 0.020891247
0.61366326 0.04490101 0.020886686
0.61368603 0.045649558 0.020882126
0.61370873 0.046398103 0.020877564
0.6137315 0.047146652 0.020873003
