# .PCD v0.7 - Point Cloud Data file format
VERSION 0.7
FIELDS x y z
SIZE 4 4 4
TYPE F F F
COUNT 1 1 1
WIDTH 1354
HEIGHT 1
VIEWPOINT 0 0 0 1 0 0 0
POINTS 1354
DATA ascii
0.41067168 0.15798618 -0.015083073
0.41152489 0.15883997 -0.01457033
0.41151726 0.15989944 -0.014586235
0.41150963 0.16095892 -0.014602141
0.41150203 0.1620184 -0.014618046
0.4114944 0.16307788 -0.01463395
0.41148677 0.16413736 -0.014649856
0.41147915 0.16519684 -0.01466576
0.41233248 0.16603787 -0.014152827
0.41232485 0.16709577 -0.014168709
0.41231725 0.16815366 -0.014184589
0.41144866 0.16943474 -0.014729381
0.41144103 0.17049423 -0.014745286
0.4114334 0.1715537 -0.014761191
0.4114258 0.17261317 -0.014777095
0.41141817 0.17367265 -0.014793
0.41141054 0.17473213 -0.014808905
0.41140291 0.17579159 -0.01482481
0.41053426 0.17708544 -0.015369793
0.4105266 0.17814651 -0.015385722
0.41051897 0.17920758 -0.015401651
0.41051134 0.18026865 -0.01541758
0.41050372 0.18132974 -0.015433509
0.41049609 0.18239081 -0.015449437
0.41048843 0.18345186 -0.015465367
0.4104808 0.18451293 -0.015481295
0.41047317 0.18557401 -0.015497224
0.41132668 0.18638638 -0.014983861
0.41131908 0.18744585 -0.014999766
0.41131145 0.18850532 -0.01501567
0.41130382 0.18956481 -0.015031576
0.41129619 0.19062428 -0.01504748
0.41128856 0.19168375 -0.015063385
0.41214216 0.19248499 -0.014549855
0.41213456 0.19354287 -0.014565735
0.41212696 0.19460075 -0.014581617
0.41211933 0.19565862 -0.014597498
0.41211173 0.19671652 -0.014613379
0.4121041 0.1977744 -0.01462926
0.4120965 0.19883227 -0.014645141
0.4120889 0.19989018 -0.014661022
0.41294259 0.20067707 -0.014147276
0.41293499 0.20173334 -0.014163133
0.41292739 0.20278962 -0.014178989
0.41291979 0.20384593 -0.014194847
0.41291219 0.20490222 -0.014210705
0.41376597 0.20567952 -0.013696814
0.41375837 0.20673425 -0.013712648
0.41375077 0.20778894 -0.013728481
0.4137432 0.20884363 -0.013744314
0.4137356 0.20989832 -0.013760148
0.413728 0.21095303 -0.013775981
0.41372043 0.21200772 -0.013791814
0.41371283 0.21306242 -0.013807647
0.41370526 0.21411712 -0.01382348
0.41369766 0.21517181 -0.013839314
0.41369006 0.2162265 -0.013855147
0.41368249 0.21728119 -0.013870981
0.41367489 0.21833591 -0.013886814
0.41366729 0.2193906 -0.013902646
0.41365972 0.22044529 -0.01391848
0.41365212 0.22150001 -0.013934313
0.41364452 0.2225547 -0.013950147
0.41363695 0.2236094 -0.01396598
0.41362935 0.22466409 -0.013981813
0.41362178 0.2257188 -0.013997646
0.41361418 0.22677349 -0.014013479
0.41360658 0.22782817 -0.014029313
0.41359901 0.22888288 -0.014045146
0.41359141 0.22993758 -0.01406098
0.41358382 0.23099227 -0.014076812
0.41357625 0.23204696 -0.014092646
0.41356865 0.23310168 -0.014108479
0.41356105 0.23415639 -0.014124312
0.41355348 0.23521107 -0.014140146
0.41354588 0.23626576 -0.014155979
0.41353828 0.23732047 -0.014171813
0.41353071 0.23837516 -0.014187645
0.41352311 0.23942985 -0.014203479
0.41351554 0.24048457 -0.014219312
0.41350794 0.24153925 -0.014235145
0.41350034 0.24259394 -0.014250979
0.41349277 0.24364863 -0.014266811
0.41348517 0.24470335 -0.014282646
0.41347757 0.24575806 -0.014298478
0.41347 0.24681273 -0.014314312
0.4134624 0.24786745 -0.014330145
0.4134548 0.24892214 -0.014345978
0.41344723 0.24997683 -0.014361811
0.41343963 0.25103152 -0.014377644
0.41343206 0.25208622 -0.014393478
0.41342446 0.25314093 -0.014409311
0.41341686 0.25419563 -0.014425145
0.41427124 0.25489646 -0.013910075
0.41426367 0.25594956 -0.013925884
0.4142561 0.25700265 -0.013941694
0.4142485 0.25805575 -0.013957503
0.41424093 0.25910887 -0.013973312
0.41423336 0.260162 -0.013989122
0.41422579 0.26121509 -0.014004931
0.41421819 0.26226816 -0.01402074
0.41421062 0.26332128 -0.014036549
0.41420305 0.26437438 -0.014052359
0.41419548 0.2654275 -0.014068169
0.41418788 0.26648062 -0.014083978
0.41418031 0.26753372 -0.014099787
0.41417274 0.26858681 -0.014115596
0.41416517 0.26963991 -0.014131405
0.41415757 0.27069303 -0.014147216
0.41415 0.27174613 -0.014163025
0.41414243 0.27279922 -0.014178834
0.41413486 0.27385232 -0.014194643
0.41412726 0.27490541 -0.014210452
0.41411969 0.27595854 -0.014226262
0.41324991 0.27739897 -0.014773476
0.41324234 0.27845368 -0.014789309
0.41323474 0.27950838 -0.014805143
0.41322714 0.28056306 -0.014820975
0.41321957 0.28161776 -0.014836809
0.41321197 0.28267246 -0.014852642
0.41320437 0.28372714 -0.014868475
0.4131968 0.28478184 -0.014884309
0.4131892 0.28583655 -0.014900142
0.41318163 0.28689125 -0.014915975
0.41317403 0.28794596 -0.014931808
0.41316643 0.28900066 -0.014947642
0.41315886 0.29005533 -0.014963475
0.41315126 0.29111004 -0.014979308
0.41314366 0.29216471 -0.014995141
0.41313609 0.29321945 -0.015010975
0.4131285 0.29427412 -0.015026808
0.4131209 0.29532883 -0.015042641
0.41311333 0.29638353 -0.015058475
0.41310573 0.29743823 -0.015074308
0.41309816 0.29849294 -0.015090141
0.41395301 0.29912683 -0.014574067
0.41394541 0.30017996 -0.014589877
0.41393784 0.30123305 -0.014605686
0.41393027 0.30228615 -0.014621495
0.4139227 0.30333924 -0.014637304
0.4139151 0.30439234 -0.014653114
0.41390753 0.30544543 -0.014668923
0.41389996 0.30649856 -0.014684732
0.41389239 0.30755168 -0.014700542
0.41388479 0.30860478 -0.014716351
0.41387722 0.30965787 -0.014732161
0.41386965 0.31071097 -0.01474797
0.41386208 0.31176409 -0.014763779
0.41385448 0.31281719 -0.014779588
0.41384691 0.31387028 -0.014795397
0.41383934 0.31492341 -0.014811208
0.41383177 0.31597653 -0.014827017
0.41382417 0.31702963 -0.014842826
0.4138166 0.31808272 -0.014858635
0.41380903 0.31913581 -0.014874444
0.41380146 0.32018891 -0.014890254
0.41465649 0.32078779 -0.014373685
0.41464892 0.3218393 -0.014389471
0.41464138 0.32289085 -0.014405256
0.41463381 0.32394233 -0.014421041
0.4154889 0.32453325 -0.013904354
0.41548136 0.32558319 -0.013920115
0.41633651 0.32616934 -0.013403355
0.41719171 0.32675225 -0.012886516
0.41804692 0.32733205 -0.012369661
0.41803938 0.32837716 -0.01238535
0.41889462 0.32895213 -0.011868428
0.4123202 -0.098980486 -0.012584925
0.41231254 -0.097917818 -0.012600878
0.41230488 -0.096855164 -0.012616831
0.41229725 -0.095792495 -0.012632784
0.41228959 -0.094729826 -0.012648737
0.41228196 -0.093667172 -0.01266469
0.41313151 -0.092434175 -0.012156358
0.41312388 -0.091373101 -0.012172287
0.41311625 -0.090312034 -0.012188216
0.41310862 -0.089250967 -0.012204145
0.41310096 -0.088189892 -0.012220073
0.41309333 -0.087128825 -0.012236003
0.4130857 -0.086067751 -0.012251931
0.41307807 -0.085006677 -0.012267861
0.41307044 -0.083945617 -0.012283789
0.41306281 -0.082884535 -0.012299718
0.41305515 -0.081823476 -0.012315647
0.41304752 -0.080762401 -0.012331576
0.41303989 -0.079701342 -0.012347505
0.41303226 -0.07864026 -0.012363434
0.41302463 -0.077579185 -0.012379363
0.41301697 -0.076518126 -0.012395292
0.41215196 -0.075601883 -0.012935888
0.41214433 -0.074539229 -0.012951841
0.41213667 -0.07347656 -0.012967793
0.41212904 -0.072413899 -0.012983746
0.41212139 -0.07135123 -0.012999699
0.41211373 -0.070288569 -0.013015652
0.41124868 -0.069361173 -0.013556379
0.41124102 -0.068296917 -0.013572355
0.41123337 -0.067232668 -0.013588332
0.41122571 -0.066168405 -0.013604308
0.41121805 -0.065104142 -0.013620285
0.41121039 -0.064039886 -0.013636262
0.41120276 -0.062975638 -0.013652239
0.4111951 -0.061911382 -0.013668216
0.41118744 -0.060847122 -0.013684193
0.41117978 -0.059782866 -0.01370017
0.41117212 -0.058718607 -0.013716146
0.41116446 -0.057654351 -0.013732123
0.4111568 -0.056590095 -0.0137481
0.41114914 -0.055525836 -0.013764076
0.41114148 -0.05446158 -0.013780053
0.41113383 -0.05339732 -0.01379603
0.41112617 -0.052333072 -0.013812006
0.4119761 -0.05116063 -0.013302803
0.41196847 -0.050097965 -0.013318756
0.41196081 -0.049035296 -0.013334709
0.41195318 -0.047972634 -0.013350662
0.41194552 -0.046909969 -0.013366614
0.41193789 -0.045847308 -0.013382567
0.41193023 -0.044784643 -0.013398521
0.41192257 -0.043721981 -0.013414473
0.41191494 -0.042659316 -0.013430426
0.41190729 -0.041596655 -0.013446379
0.41189966 -0.040533986 -0.013462332
0.411892 -0.039471325 -0.013478285
0.41188437 -0.038408659 -0.013494237
0.41187671 -0.037345998 -0.01351019
0.41186908 -0.036283337 -0.013526143
0.41186142 -0.035220671 -0.013542096
0.41271159 -0.034075309 -0.013032448
0.41270396 -0.033014242 -0.013048378
0.41269633 -0.031953167 -0.013064307
0.4126887 -0.030892098 -0.013080236
0.41268107 -0.029831026 -0.013096165
0.41267344 -0.028769957 -0.013112093
0.41266578 -0.027708888 -0.013128023
0.41265815 -0.026647819 -0.013143951
0.41265053 -0.025586747 -0.01315988
0.4126429 -0.024525678 -0.013175809
0.41263527 -0.023464609 -0.013191738
0.41262761 -0.022403536 -0.013207667
0.41176203 -0.021406047 -0.013749483
0.41175437 -0.020343384 -0.013765436
0.41088879 -0.019341109 -0.014307287
0.41088113 -0.018276853 -0.014323262
0.41087347 -0.017212594 -0.014339239
0.41000783 -0.016203949 -0.014881192
0.41000018 -0.0151381 -0.014897193
0.40999249 -0.014072248 -0.014913193
0.40998483 -0.013006398 -0.014929194
0.40997717 -0.011940548 -0.014945194
0.40996948 -0.010874701 -0.014961195
0.40996182 -0.0098088486 -0.014977196
0.40995416 -0.0087429993 -0.014993196
0.40994647 -0.0076771495 -0.015009197
0.40993881 -0.0066112997 -0.015025198
0.40993115 -0.0055454504 -0.015041199
0.41078159 -0.0044415132 -0.01453096
0.4099158 -0.0034137499 -0.0150732
0.40990815 -0.0023478991 -0.015089201
0.40990049 -0.0012820504 -0.015105201
0.4098928 -0.0002161997 -0.015121202
0.40988514 0.00084965001 -0.015137203
0.40987748 0.0019154998 -0.015153203
0.40986979 0.0029813496 -0.015169204
0.40986213 0.0040471992 -0.015185204
0.40985447 0.0051130494 -0.015201205
0.40984678 0.0061788992 -0.015217206
0.40983912 0.0072447495 -0.015233207
0.40983146 0.0083105993 -0.015249208
0.40982378 0.0093764486 -0.015265208
0.40981612 0.010442299 -0.015281209
0.40980846 0.011508149 -0.01529721
0.40894249 0.012561404 -0.015839832
0.4089348 0.013628847 -0.015855856
0.40892714 0.014696291 -0.015871881
0.40891945 0.015763734 -0.015887905
0.40891176 0.016831176 -0.015903929
0.40804574 0.017893991 -0.016446695
0.40803805 0.018963028 -0.016462743
0.40803036 0.020032063 -0.016478792
0.40716425 0.021101251 -0.017021684
0.40715656 0.022171879 -0.017037757
0.40714884 0.023242509 -0.01705383
0.40714115 0.024313139 -0.0170699
0.406275 0.025390292 -0.017612876
0.40626729 0.026462514 -0.017628971
0.40625957 0.027534736 -0.017645068
0.40625188 0.028606961 -0.017661165
0.40624416 0.029679183 -0.017677261
0.40709493 0.030736916 -0.017166335
0.40708721 0.031807546 -0.017182408
0.40707952 0.032878175 -0.017198481
0.40793037 0.033929534 -0.016687423
0.40792269 0.03499857 -0.016703472
0.40877351 0.036045153 -0.016192373
0.40876585 0.037112597 -0.016208397
0.40875816 0.038180038 -0.016224422
0.40960905 0.039220247 -0.015713228
0.40960139 0.040286094 -0.015729228
0.41045231 0.041321527 -0.015217962
0.41044465 0.042385783 -0.015233939
0.41129559 0.043416429 -0.014722606
0.41128796 0.044479094 -0.014738559
0.4112803 0.04554176 -0.014754512
0.41127267 0.046604425 -0.014770465
0.41126502 0.047667086 -0.014786418
0.41125739 0.048729748 -0.01480237
0.41124973 0.049792413 -0.014818323
0.41038337 0.050899833 -0.015361752
0.41037571 0.051964093 -0.015377729
0.41036806 0.053028349 -0.015393706
0.41036043 0.054092608 -0.015409683
0.41035277 0.055156864 -0.01542566
0.41034511 0.05622112 -0.015441637
0.41033745 0.057285376 -0.015457612
0.41032979 0.058349632 -0.015473589
0.41032213 0.059413895 -0.015489566
0.41031447 0.060478147 -0.015505543
0.41030681 0.061542407 -0.01552152
0.41029915 0.062606663 -0.015537497
0.41029149 0.063670918 -0.015553473
0.41028383 0.064735174 -0.01556945
0.41027617 0.06579943 -0.015585427
0.41026852 0.066863686 -0.015601404
0.41026086 0.067927949 -0.015617381
0.4102532 0.068992205 -0.015633358
0.41024554 0.070056461 -0.015649334
0.40937898 0.071195744 -0.016193246
0.40937132 0.072261594 -0.016209248
0.40936363 0.073327444 -0.016225249
0.40935597 0.074393295 -0.016241249
0.40934831 0.075459138 -0.016257251
0.40934062 0.076525003 -0.016273251
0.41019195 0.077506252 -0.015761171
0.41018429 0.078570515 -0.015777148
0.40931761 0.079722546 -0.016321253
0.41016898 0.080699027 -0.015809102
0.40930229 0.081854239 -0.016353253
0.40929461 0.082920097 -0.016369255
0.40928695 0.08398594 -0.016385255
0.40842021 0.085147537 -0.016929504
0.40841255 0.086214982 -0.016945528
0.40754578 0.087381348 -0.017489849
0.40753809 0.08845038 -0.017505897
0.4075304 0.089519426 -0.017521946
0.40666354 0.09069217 -0.018066391
0.40665582 0.091762803 -0.018082464
0.40664813 0.09283343 -0.018098537
0.40664041 0.093904063 -0.01811461
0.40663272 0.094974689 -0.018130682
0.406625 0.096045315 -0.018146753
0.40661731 0.097115949 -0.018162826
0.40660959 0.098186582 -0.018178899
0.40746117 0.099140748 -0.017666381
0.40831268 0.10009174 -0.017153848
0.40830502 0.10115918 -0.017169872
0.40915656 0.10210539 -0.016657267
0.4091489 0.10317124 -0.016673267
0.4100005 0.10411268 -0.016160591
0.40999284 0.10517693 -0.016176566
0.40998518 0.10624119 -0.016192544
0.41083685 0.10717625 -0.015679777
0.41082919 0.10823891 -0.01569573
0.40996221 0.10943396 -0.016240474
0.40995455 0.11049821 -0.016256452
0.40994689 0.11156247 -0.016272428
0.40993926 0.11262672 -0.016288405
0.4099316 0.11369098 -0.016304381
0.40992394 0.11475525 -0.016320359
0.40991628 0.1158195 -0.016336335
0.40990862 0.11688375 -0.016352311
0.40990096 0.117948 -0.016368289
0.4098933 0.11901227 -0.016384264
0.40902621 0.12022484 -0.016929278
0.40901855 0.12129069 -0.016945278
0.40901086 0.12235653 -0.01696128
0.4090032 0.12342238 -0.01697728
0.40813604 0.12464293 -0.017522413
0.40812835 0.12571037 -0.017538438
0.40812069 0.12677781 -0.017554462
0.408113 0.12784526 -0.017570488
0.40810531 0.1289127 -0.017586512
0.40809762 0.12998015 -0.017602537
0.40723041 0.13121183 -0.018147837
0.40722272 0.13228087 -0.018163886
0.40721503 0.13334991 -0.018179934
0.40720734 0.13441895 -0.018195983
0.40719962 0.13548797 -0.018212032
0.40719193 0.13655701 -0.01822808
0.40718424 0.13762604 -0.018244129
0.40717655 0.13869509 -0.018260177
0.40802851 0.13958713 -0.017746758
0.40802082 0.14065456 -0.017762782
0.40887281 0.14154184 -0.017249292
0.40886515 0.14260769 -0.017265292
0.40971717 0.14349017 -0.016751731
0.41056922 0.14436947 -0.016238127
0.41142136 0.14524557 -0.015724437
0.4114137 0.14630663 -0.015740367
0.41140607 0.1473677 -0.015756294
0.41139844 0.14842878 -0.015772223
0.41139081 0.14948985 -0.015788153
0.41224295 0.15035641 -0.015274351
0.41223532 0.15141588 -0.015290257
0.41222769 0.15247536 -0.015306162
0.41222009 0.15353483 -0.015322067
0.41221246 0.1545943 -0.015337971
0.41306466 0.1554513 -0.014824026
0.41305706 0.15650918 -0.014839908
0.41304943 0.15756708 -0.014855789
0.41304183 0.15862496 -0.01487167
0.4130342 0.15968284 -0.014887551
0.4130266 0.16074072 -0.014903432
0.41387889 0.16158657 -0.01438932
0.41387129 0.16264285 -0.014405177
0.41386369 0.16369915 -0.014421035
0.41385609 0.16475545 -0.014436891
0.41384849 0.16581173 -0.014452749
0.41384089 0.16686802 -0.014468606
0.41383329 0.1679243 -0.014484463
0.41382569 0.16898061 -0.01450032
0.41381809 0.1700369 -0.014516178
0.41381049 0.17109318 -0.014532034
0.41380289 0.17214948 -0.014547892
0.41293526 0.17343533 -0.015094006
0.41292766 0.17449321 -0.015109886
0.41292003 0.17555109 -0.015125767
0.41291243 0.17660899 -0.015141648
0.41290483 0.17766687 -0.015157529
0.4128972 0.17872475 -0.015173411
0.4128896 0.17978263 -0.015189292
0.41288197 0.18084052 -0.015205173
0.41287437 0.1818984 -0.015221054
0.41286677 0.18295629 -0.015236935
0.41285914 0.18401417 -0.015252816
0.41285154 0.18507206 -0.015268697
0.41284391 0.18612994 -0.015284578
0.41283631 0.18718782 -0.015300459
0.41282871 0.18824568 -0.01531634
0.41282108 0.18930361 -0.015332222
0.4136737 0.19010641 -0.014817463
0.41366607 0.19116269 -0.014833321
0.41365847 0.192219 -0.014849178
0.41365087 0.19327529 -0.014865035
0.41364327 0.19433157 -0.014880892
0.41363567 0.19538786 -0.01489675
0.41448838 0.19617955 -0.01438183
0.41448078 0.19723424 -0.014397663
0.41447318 0.19828893 -0.014413496
0.41446561 0.19934364 -0.01442933
0.41445801 0.20039834 -0.014445162
0.41445041 0.20145303 -0.014460996
0.41444284 0.20250772 -0.014476829
0.41529566 0.20328665 -0.013961681
0.41528806 0.20433974 -0.01397749
0.41528049 0.20539284 -0.0139933
0.41527292 0.20644595 -0.014009109
0.41526535 0.20749906 -0.014024919
0.41611817 0.20826843 -0.013509658
0.41611061 0.20931993 -0.013525443
0.41610304 0.21037145 -0.013541229
0.4160955 0.21142295 -0.013557014
0.41608793 0.21247445 -0.0135728
0.41608036 0.213526 -0.013588586
0.41607279 0.2145775 -0.013604371
0.41606522 0.215629 -0.013620156
0.41605765 0.2166805 -0.013635942
0.41605008 0.21773204 -0.013651727
0.41604254 0.21878354 -0.013667513
0.41603497 0.21983504 -0.013683298
0.4160274 0.22088656 -0.013699084
0.41601983 0.22193806 -0.013714869
0.41601226 0.22298959 -0.013730654
0.41600469 0.22404109 -0.013746439
0.41599712 0.2250926 -0.013762225
0.41598955 0.22614411 -0.01377801
0.41598201 0.22719562 -0.013793795
0.41597444 0.22824712 -0.013809581
0.41596687 0.22929865 -0.013825366
0.4159593 0.23035015 -0.013841152
0.41595173 0.23140165 -0.013856937
0.41594416 0.2324532 -0.013872723
0.41593659 0.2335047 -0.013888508
0.41592902 0.2345562 -0.013904294
0.41592148 0.2356077 -0.013920079
0.41591391 0.23665923 -0.013935865
0.41590634 0.23771074 -0.01395165
0.41589877 0.23876224 -0.013967436
0.4158912 0.23981376 -0.013983221
0.41588363 0.24086526 -0.013999006
0.41587606 0.24191678 -0.014014792
0.41586852 0.24296828 -0.014030577
0.41586095 0.24401981 -0.014046363
0.41585338 0.24507131 -0.014062148
0.41584581 0.24612282 -0.014077934
0.41583824 0.24717435 -0.014093719
0.41583067 0.24822585 -0.014109504
0.4158231 0.24927735 -0.014125289
0.41581553 0.25032887 -0.014141075
0.41580799 0.25138038 -0.01415686
0.41580042 0.2524319 -0.014172646
0.41579285 0.25348341 -0.014188431
0.41578528 0.25453493 -0.014204217
0.41577771 0.25558642 -0.014220002
0.41577014 0.25663793 -0.014235787
0.41576257 0.25768945 -0.014251573
0.41575503 0.25874096 -0.014267359
0.41574746 0.25979248 -0.014283144
0.41573989 0.26084396 -0.014298929
0.41659331 0.26153049 -0.013782425
0.41658577 0.26258042 -0.013798187
0.4165782 0.26363033 -0.013813948
0.41657066 0.26468027 -0.01382971
0.41656309 0.2657302 -0.013845472
0.41655555 0.26678011 -0.013861233
0.41654798 0.26783001 -0.013876994
0.41654044 0.26887992 -0.013892756
0.41653287 0.26992986 -0.013908518
0.41652533 0.27097976 -0.013924279
0.41565666 0.2724106 -0.014472569
0.41564909 0.27346212 -0.014488354
0.41564152 0.27451363 -0.01450414
0.41563398 0.27556512 -0.014519925
0.41562641 0.27661666 -0.01453571
0.41561884 0.27766818 -0.014551496
0.41561127 0.27871966 -0.014567281
0.4156037 0.27977118 -0.014583067
0.41559613 0.28082269 -0.014598852
0.41558856 0.28187421 -0.014614638
0.41558102 0.2829257 -0.014630423
0.41557345 0.28397721 -0.014646209
0.41556588 0.28502873 -0.014661994
0.41555831 0.28608027 -0.01467778
0.41555074 0.28713176 -0.014693565
0.41554317 0.28818327 -0.01470935
0.4155356 0.28923479 -0.014725136
0.41552803 0.2902863 -0.014740922
0.41552049 0.29133779 -0.014756707
0.41551292 0.2923893 -0.014772492
0.41550535 0.29344082 -0.014788277
0.41635913 0.29407796 -0.014271032
0.41635159 0.2951279 -0.014286794
0.41634402 0.2961778 -0.014302555
0.41633648 0.29722771 -0.014318316
0.41632891 0.29827762 -0.014334078
0.41632137 0.29932755 -0.01434984
0.4163138 0.30037749 -0.014365601
0.41630626 0.30142739 -0.014381362
0.41629869 0.3024773 -0.014397124
0.41629115 0.30352724 -0.014412886
0.41628358 0.30457714 -0.014428647
0.41627604 0.30562705 -0.014444408
0.41626847 0.30667698 -0.014460171
0.41626093 0.30772689 -0.014475931
0.41625339 0.30877683 -0.014491693
0.41624582 0.30982673 -0.014507455
0.41623828 0.31087667 -0.014523217
0.41623071 0.31192657 -0.014538977
0.41622317 0.31297648 -0.014554739
0.4162156 0.31402642 -0.014570501
0.41534647 0.31552258 -0.015119771
0.41620049 0.31612623 -0.014602023
0.41619295 0.31717613 -0.014617785
0.41618538 0.3182261 -0.014633547
0.41617784 0.31927601 -0.014649308
0.41617027 0.32032591 -0.014665069
0.41616273 0.32137585 -0.014680832
0.41615516 0.32242575 -0.014696592
0.41614762 0.32347566 -0.014712354
0.41700175 0.324065 -0.014194391
0.41699421 0.32511333 -0.014210129
0.41784844 0.32569787 -0.013692069
0.4187026 0.32627922 -0.013173985
0.41869509 0.32732439 -0.013189676
0.41954932 0.32790098 -0.012671522
0.41954181 0.3289445 -0.012687187
0.42039606 0.32951632 -0.012168961
0.42125034 0.33008495 -0.011650693
0.41469908 -0.099687941 -0.012352031
0.41469148 -0.098628476 -0.012367936
0.41468385 -0.097568996 -0.012383841
0.41467622 -0.096509516 -0.012399746
0.41466859 -0.095450036 -0.012415651
0.41466096 -0.094390556 -0.012431556
0.41465336 -0.093331084 -0.012447461
0.41464573 -0.092271604 -0.012463366
0.4146381 -0.091212131 -0.012479271
0.41463047 -0.090152651 -0.012495176
0.41462284 -0.089093179 -0.012511081
0.41461524 -0.088033698 -0.012526986
0.41460761 -0.086974226 -0.01254289
0.41459998 -0.085914738 -0.012558796
0.41459236 -0.084855266 -0.012574701
0.41458476 -0.083795793 -0.012590606
0.41457713 -0.082736306 -0.012606511
0.4145695 -0.081676841 -0.012622416
0.41456187 -0.080617361 -0.012638321
0.41455424 -0.079557888 -0.012654226
0.41454664 -0.078498401 -0.012670131
0.41453901 -0.077438921 -0.012686036
0.41453138 -0.076379456 -0.012701941
0.41452375 -0.075319968 -0.012717846
0.41451612 -0.074260496 -0.012733751
0.41450852 -0.073201016 -0.012749656
0.41364452 -0.072281606 -0.013291519
0.41363686 -0.071220532 -0.013307448
0.41362923 -0.070159458 -0.013323378
0.4136216 -0.069098391 -0.013339306
0.41361398 -0.068037324 -0.013355236
0.41360635 -0.066976249 -0.013371164
0.41359872 -0.065915175 -0.013387093
0.41359106 -0.064854108 -0.013403022
0.41358343 -0.063793033 -0.013418951
0.4135758 -0.062731966 -0.013434879
0.41356817 -0.061670899 -0.013450809
0.41356054 -0.060609829 -0.013466737
0.41355288 -0.059548762 -0.013482667
0.41354525 -0.058487691 -0.013498596
0.41353762 -0.057426617 -0.013514524
0.41352999 -0.056365546 -0.013530454
0.41352236 -0.055304479 -0.013546382
0.41351473 -0.054243408 -0.013562311
0.41350707 -0.053182341 -0.01357824
0.41349944 -0.05212127 -0.013594169
0.41349182 -0.051060196 -0.013610098
0.41348419 -0.049999129 -0.013626027
0.41347656 -0.048938051 -0.013641956
0.41346893 -0.047876984 -0.013657885
0.41346127 -0.046815913 -0.013673814
0.41345364 -0.045754846 -0.013689742
0.41344601 -0.044693775 -0.013705672
0.41343838 -0.043632705 -0.0137216
0.41343075 -0.042571634 -0.01373753
0.41342309 -0.041510567 -0.013753458
0.41341546 -0.040449489 -0.013769387
0.41340783 -0.039388422 -0.013785317
0.4134002 -0.038327351 -0.013801245
0.41424933 -0.037178796 -0.013290427
0.4142417 -0.036119319 -0.013306331
0.41423407 -0.035059843 -0.013322236
0.41422644 -0.034000367 -0.013338141
0.41421884 -0.032940891 -0.013354046
0.41421121 -0.031881407 -0.013369951
0.41420358 -0.030821934 -0.013385857
0.41419595 -0.029762454 -0.013401762
0.4150452 -0.028628241 -0.012890733
0.41503757 -0.027570358 -0.012906614
0.41502997 -0.026512472 -0.012922496
0.41502234 -0.025454588 -0.012938377
0.41501474 -0.024396705 -0.012954257
0.41500711 -0.023338819 -0.012970138
0.41414261 -0.022346117 -0.013513097
0.41413498 -0.021286638 -0.013529002
0.41412735 -0.020227164 -0.013544906
0.41411972 -0.019167688 -0.013560811
0.41325516 -0.018167019 -0.014103895
0.4132475 -0.017105946 -0.014119823
0.41323987 -0.016044877 -0.014135753
0.41323224 -0.014983808 -0.014151681
0.41322461 -0.013922735 -0.014167611
0.41321698 -0.012861664 -0.014183539
0.41320935 -0.011800596 -0.014199468
0.41320169 -0.010739527 -0.014215397
0.41319406 -0.0096784541 -0.014231326
0.41318643 -0.0086173853 -0.014247255
0.4131788 -0.0075563141 -0.014263184
0.41317117 -0.0064952434 -0.014279113
0.41316351 -0.0054341741 -0.014295042
0.41315588 -0.0043731034 -0.014310971
0.41314825 -0.0033120336 -0.014326899
0.41314062 -0.0022509627 -0.014342829
0.41227579 -0.0012232125 -0.014886349
0.41226813 -0.00016054833 -0.014902302
0.4122605 0.00090211484 -0.014918256
0.41225284 0.0019647779 -0.014934208
0.41224521 0.0030274412 -0.014950161
0.41138035 0.0040647532 -0.015493789
0.41137269 0.0051290104 -0.015509766
0.41136503 0.0061932667 -0.015525742
0.41135737 0.0072575239 -0.015541718
0.41134971 0.0083217807 -0.015557695
0.41134205 0.0093860375 -0.015573672
0.4113344 0.010450294 -0.015589649
0.41132677 0.011514551 -0.015605626
0.41046181 0.012566201 -0.016149474
0.41045412 0.013632051 -0.016165474
0.41044647 0.014697901 -0.016181476
0.41043881 0.01576375 -0.016197477
0.41043112 0.016829601 -0.016213477
0.4095661 0.017890809 -0.01675747
0.40955842 0.018958254 -0.016773494
0.40955076 0.020025697 -0.016789518
0.40954307 0.021093139 -0.016805543
0.40953538 0.022160582 -0.016821567
0.40952769 0.023228025 -0.016837593
0.40952003 0.024295468 -0.016853618
0.4086549 0.025369424 -0.017397795
0.40864721 0.02643846 -0.017413843
0.40778202 0.027517194 -0.017958129
0.40863183 0.028576532 -0.017445941
0.40862414 0.029645568 -0.017461989
0.40947393 0.030700127 -0.016949764
0.40946627 0.031767569 -0.01696579
0.40945858 0.032835014 -0.016981814
0.40945089 0.033902455 -0.016997838
0.41030076 0.034949049 -0.016485488
0.41029307 0.0360149 -0.01650149
0.41028541 0.03708075 -0.01651749
0.41113532 0.03812097 -0.016005045
0.41112766 0.039185226 -0.016021021
0.41112 0.040249482 -0.016036998
0.41111234 0.041313741 -0.016052974
0.4119623 0.042345993 -0.015540416
0.41195464 0.043408655 -0.015556369
0.41194701 0.04447132 -0.015572322
0.41193935 0.045533985 -0.015588274
0.41193172 0.04659665 -0.015604228
0.41192406 0.047659311 -0.01562018
0.41191643 0.048721973 -0.015636133
0.41190878 0.049784638 -0.015652087
0.41190115 0.050847299 -0.015668038
0.41189349 0.051909965 -0.015683992
0.41188583 0.052972626 -0.015699945
0.4118782 0.054035295 -0.015715897
0.41187054 0.055097956 -0.015731851
0.41186291 0.056160621 -0.015747802
0.41185525 0.057223283 -0.015763756
0.41184762 0.058285944 -0.015779709
0.41183996 0.059348613 -0.015795661
0.41183233 0.060411278 -0.015811615
0.41268253 0.061413255 -0.015298564
0.4126749 0.062474325 -0.015314493
0.41266727 0.063535392 -0.015330422
0.41265965 0.064596467 -0.015346351
0.41265202 0.065657534 -0.015362279
0.41264439 0.066718601 -0.015378209
0.41263673 0.067779683 -0.015394137
0.4126291 0.06884075 -0.015410067
0.41262147 0.069901817 -0.015425996
0.41261384 0.070962884 -0.015441924
0.41260621 0.072023958 -0.015457854
0.41259855 0.073085025 -0.015473782
0.41173291 0.074225903 -0.016019002
0.41172528 0.075288564 -0.016034955
0.41257566 0.076268241 -0.015521569
0.41256803 0.077329308 -0.015537498
0.4125604 0.078390375 -0.015553427
0.41255274 0.079451449 -0.015569355
0.41254511 0.080512524 -0.015585285
0.41167939 0.081664547 -0.016130671
0.41167176 0.082727209 -0.016146624
0.41080603 0.083884008 -0.016692046
0.4099403 0.085043997 -0.01723752
0.40993264 0.086109847 -0.017253522
0.40906689 0.087274611 -0.017799068
0.4090592 0.088342056 -0.017815093
0.40819338 0.089511603 -0.018360706
0.40818569 0.090580635 -0.018376755
0.40731981 0.091754965 -0.018922476
0.4073121 0.092825592 -0.018938547
0.40730441 0.093896225 -0.01895462
0.40729669 0.094966851 -0.018970693
0.407289 0.096037485 -0.018986765
0.40728128 0.097108118 -0.019002838
0.40813184 0.098063894 -0.018489093
0.4089824 0.099016488 -0.017975338
0.40983295 0.0999659 -0.017461531
0.41068351 0.10091212 -0.016947674
0.41067585 0.10197637 -0.01696365
0.41152647 0.10291781 -0.016449729
0.41237715 0.10385607 -0.015935721
0.41236952 0.10491713 -0.01595165
0.4132202 0.10585061 -0.015437602
0.41321257 0.10691009 -0.015453507
0.41320494 0.10796957 -0.015469412
0.41319731 0.10902905 -0.015485317
0.41318971 0.11008852 -0.015501223
0.41318208 0.111148 -0.015517128
0.41317445 0.11220747 -0.015533032
0.41230845 0.1134057 -0.016079081
0.41230083 0.11446677 -0.016095011
0.41229317 0.11552784 -0.01611094
0.41228554 0.11658891 -0.016126867
0.41227791 0.11764997 -0.016142797
0.41227028 0.11871105 -0.016158726
0.41226265 0.11977212 -0.016174655
0.4113965 0.12098309 -0.016720926
0.41138884 0.12204576 -0.01673688
0.4105227 0.1232615 -0.017283186
0.41051504 0.12432577 -0.017299162
0.41050738 0.12539002 -0.01731514
0.40964121 0.12661214 -0.017861547
0.40963355 0.12767799 -0.017877547
0.40962589 0.12874384 -0.017893549
0.40875965 0.12997234 -0.018440051
0.40875196 0.13103978 -0.018456077
0.40874431 0.13210723 -0.018472102
0.40873662 0.13317466 -0.018488126
0.40787032 0.13441113 -0.019034743
0.40786263 0.13548015 -0.019050792
0.40785494 0.1365492 -0.01906684
0.40784726 0.13761823 -0.019082889
0.4086982 0.13851188 -0.018568249
0.40869054 0.13957933 -0.018584274
0.40954152 0.1404682 -0.018069556
0.41039252 0.14135388 -0.01755479
0.41038486 0.14241813 -0.017570768
0.41123593 0.14329903 -0.017055936
0.41208705 0.14417674 -0.016541021
0.41293815 0.14505127 -0.016026087
0.41293052 0.14611074 -0.016041992
0.41378164 0.14698049 -0.015526994
0.41377404 0.14803839 -0.015542875
0.41376641 0.14909627 -0.015558756
0.41375881 0.15015414 -0.015574638
0.41375118 0.15121202 -0.015590519
0.41374359 0.15226991 -0.0156064
0.41373599 0.15332779 -0.015622281
0.4145872 0.15418479 -0.015107085
0.4145796 0.1552411 -0.015122943
0.414572 0.15629739 -0.015138799
0.4145644 0.15735368 -0.015154657
0.41541567 0.15820271 -0.014639341
0.41540807 0.15925741 -0.014655175
0.41540048 0.1603121 -0.014671008
0.41539291 0.16136681 -0.014686841
0.41538531 0.16242149 -0.014702674
0.41537774 0.1634762 -0.014718507
0.41537014 0.1645309 -0.014734341
0.41536254 0.16558559 -0.014750174
0.41621399 0.16642028 -0.014234618
0.41620639 0.16747339 -0.014250427
0.41619882 0.1685265 -0.014266237
0.41619125 0.1695796 -0.014282046
0.4153246 0.17085908 -0.01482934
0.415317 0.17191377 -0.014845174
0.41530943 0.17296848 -0.014861006
0.41530183 0.17402318 -0.01487684
0.41529426 0.17507787 -0.014892673
0.41528666 0.17613257 -0.014908507
0.41527906 0.17718726 -0.01492434
0.41441238 0.17847949 -0.0154718
0.41440478 0.17953578 -0.015487657
0.41439718 0.18059207 -0.015503515
0.41438958 0.18164836 -0.015519371
0.41438198 0.18270464 -0.015535229
0.41437438 0.18376093 -0.015551086
0.41436678 0.18481724 -0.015566943
0.41435918 0.18587352 -0.0155828
0.41521078 0.18667954 -0.015066839
0.41520318 0.18773423 -0.015082672
0.41519558 0.18878895 -0.015098506
0.41518801 0.18984364 -0.015114339
0.41518041 0.19089833 -0.015130172
0.41517282 0.19195303 -0.015146006
0.41516525 0.19300772 -0.015161838
0.41601697 0.19380099 -0.01464566
0.4160094 0.19485408 -0.014661469
0.41600183 0.19590721 -0.01467728
0.41599423 0.19696032 -0.014693089
0.41598666 0.19801341 -0.014708898
0.41683841 0.19879714 -0.014192603
0.41683084 0.19984865 -0.014208388
0.41682327 0.20090015 -0.014224174
0.4168157 0.20195165 -0.014239958
0.41680813 0.20300318 -0.014255744
0.41680059 0.20405468 -0.014271529
0.41679302 0.2051062 -0.014287314
0.41678545 0.20615771 -0.0143031
0.41763729 0.20692709 -0.013786589
0.41762975 0.20797701 -0.01380235
0.41762218 0.20902692 -0.013818112
0.41761464 0.21007684 -0.013833874
0.41760707 0.21112676 -0.013849635
0.418459 0.21188657 -0.013332986
0.41845146 0.21293493 -0.013348724
0.41844392 0.21398324 -0.013364461
0.41843638 0.21503155 -0.013380199
0.41842884 0.21607986 -0.013395936
0.4184213 0.21712822 -0.013411675
0.41841373 0.21817653 -0.013427412
0.41840619 0.21922484 -0.01344315
0.41839865 0.22027318 -0.013458887
0.41839111 0.22132151 -0.013474625
0.41838357 0.22236983 -0.013490362
0.41837603 0.22341815 -0.0135061
0.41836849 0.22446647 -0.013521837
0.41836095 0.22551481 -0.013537575
0.41835341 0.22656313 -0.013553313
0.41834587 0.22761144 -0.01356905
0.4183383 0.22865978 -0.013584788
0.41833076 0.22970811 -0.013600525
0.41832322 0.23075642 -0.013616263
0.41831568 0.23180476 -0.013632
0.41830814 0.23285307 -0.013647738
0.4183006 0.2339014 -0.013663475
0.41743332 0.23527487 -0.01421215
0.41742578 0.23632479 -0.014227911
0.41741821 0.23737471 -0.014243673
0.41741067 0.23842463 -0.014259434
0.4174031 0.23947455 -0.014275196
0.41739556 0.24052446 -0.014290958
0.41738799 0.24157438 -0.014306718
0.41738045 0.2426243 -0.01432248
0.41737288 0.24367422 -0.014338242
0.41736534 0.24472412 -0.014354004
0.41735777 0.24577405 -0.014369764
0.41735023 0.24682398 -0.014385526
0.41734266 0.24787389 -0.014401288
0.41819501 0.24857794 -0.013883802
0.41818744 0.24962626 -0.01389954
0.4181799 0.25067461 -0.013915277
0.41817236 0.2517229 -0.013931015
0.41816482 0.25277126 -0.013946752
0.41815728 0.25381958 -0.01396249
0.41814974 0.25486791 -0.013978228
0.4181422 0.25591621 -0.013993965
0.41813466 0.25696453 -0.014009703
0.41812712 0.25801289 -0.01402544
0.41811958 0.25906119 -0.014041178
0.41811201 0.26010951 -0.014056915
0.41810447 0.26115784 -0.014072653
0.41809693 0.26220617 -0.01408839
0.41808939 0.26325449 -0.014104128
0.41808185 0.26430279 -0.014119865
0.41807431 0.26535118 -0.014135604
0.41806677 0.26639947 -0.014151341
0.41805923 0.2674478 -0.014167079
0.41805169 0.2684961 -0.014182816
0.41804415 0.26954445 -0.014198554
0.41803658 0.27059275 -0.014214291
0.41802904 0.27164108 -0.014230029
0.4180215 0.2726894 -0.014245766
0.41801396 0.27373776 -0.014261504
0.41800642 0.27478608 -0.014277242
0.41799888 0.27583438 -0.014292979
0.41799134 0.27688271 -0.014308717
0.4179838 0.27793103 -0.014324455
0.41797626 0.27897936 -0.014340192
0.41796872 0.28002769 -0.01435593
0.41796115 0.28107601 -0.014371667
0.41795361 0.28212434 -0.014387405
0.41794607 0.28317267 -0.014403142
0.41793853 0.28422099 -0.01441888
0.41793099 0.28526932 -0.014434618
0.41792345 0.28631762 -0.014450355
0.41791591 0.28736597 -0.014466093
0.41790837 0.28841427 -0.01448183
0.41790083 0.2894626 -0.014497568
0.41789329 0.29051095 -0.014513305
0.41788572 0.29155928 -0.014529043
0.41787818 0.29260761 -0.014544781
0.41787064 0.2936559 -0.014560518
0.41872352 0.29428825 -0.014041918
0.41871601 0.29533499 -0.014057633
0.41870847 0.29638171 -0.014073346
0.41870093 0.29742843 -0.01408906
0.41869342 0.29847521 -0.014104773
0.41868588 0.29952192 -0.014120487
0.41867834 0.30056864 -0.014136201
0.4186708 0.30161536 -0.014151914
0.41866329 0.3026621 -0.014167628
0.41865575 0.30370882 -0.014183342
0.41864821 0.30475554 -0.014199055
0.4186407 0.30580229 -0.014214769
0.41863316 0.30684903 -0.014230482
0.41862562 0.30789578 -0.014246196
0.41861808 0.3089425 -0.01426191
0.41861057 0.30998924 -0.014277624
0.41860303 0.31103596 -0.014293337
0.41859549 0.31208268 -0.014309051
0.41772732 0.31357408 -0.014859532
0.41771978 0.3146224 -0.01487527
0.41771224 0.31567073 -0.014891007
0.4177047 0.31671906 -0.014906745
0.41769716 0.31776738 -0.014922483
0.41768962 0.31881571 -0.01493822
0.41768208 0.31986403 -0.014953958
0.41767454 0.32091236 -0.014969695
0.417667 0.32196066 -0.014985433
0.41852018 0.32255 -0.014466188
0.41851264 0.32359675 -0.014481901
0.41850513 0.32464346 -0.014497615
0.41935831 0.32522646 -0.013978306
0.42021152 0.32580623 -0.013458954
0.42020401 0.32684979 -0.013474621
0.4201965 0.32789335 -0.013490286
0.42104977 0.32846674 -0.012970833
0.42190304 0.32903695 -0.012451332
0.42189556 0.33007732 -0.01246695
0.42360973 0.33016786 -0.011412161
0.41621125 -0.099514201 -0.01265671
0.41620365 -0.098456316 -0.012672591
0.41619602 -0.09739843 -0.012688473
0.41618842 -0.096340559 -0.012704354
0.41618082 -0.095282666 -0.012720235
0.41617319 -0.094224781 -0.012736116
0.41616559 -0.093166903 -0.012751997
0.41615796 -0.09210901 -0.012767878
0.41615036 -0.091051131 -0.012783759
0.41699794 -0.089826092 -0.012272838
0.41699034 -0.088769801 -0.012288694
0.41698274 -0.08771351 -0.012304552
0.41697514 -0.086657219 -0.012320409
0.41696754 -0.085600927 -0.012336266
0.41695994 -0.084544636 -0.012352123
0.41695234 -0.083488345 -0.012367981
0.41694474 -0.082432054 -0.012383837
0.41693714 -0.08137577 -0.012399695
0.41692954 -0.080319472 -0.012415552
0.41692194 -0.079263188 -0.012431409
0.41605902 -0.078356527 -0.012974332
0.41605142 -0.077298634 -0.012990213
0.41604379 -0.076240756 -0.013006094
0.41603619 -0.07518287 -0.013021976
0.41602859 -0.074124992 -0.013037857
0.41602096 -0.073067099 -0.013053738
0.41601336 -0.072009221 -0.013069618
0.41600573 -0.070951335 -0.013085499
0.41599813 -0.069893457 -0.013101381
0.4159905 -0.068835571 -0.013117262
0.4159829 -0.067777686 -0.013133143
0.4159753 -0.066719808 -0.013149024
0.41596767 -0.065661915 -0.013164905
0.4151046 -0.064732954 -0.013708157
0.41509697 -0.063673474 -0.013724063
0.41508934 -0.062613994 -0.013739967
0.41508174 -0.061554521 -0.013755872
0.41507411 -0.060495045 -0.013771777
0.41506648 -0.059435572 -0.013787682
0.41591439 -0.05825673 -0.013276073
0.41590679 -0.057198841 -0.013291954
0.41589919 -0.056140963 -0.013307835
0.41589156 -0.055083074 -0.013323716
0.41588396 -0.054025192 -0.013339597
0.41587633 -0.052967314 -0.013355479
0.41586873 -0.051909424 -0.01337136
0.41586113 -0.050851543 -0.01338724
0.4158535 -0.049793661 -0.013403121
0.4158459 -0.048735771 -0.013419002
0.41583827 -0.047677886 -0.013434884
0.41583067 -0.046620008 -0.013450765
0.41582307 -0.045562122 -0.013466646
0.41581544 -0.044504236 -0.013482527
0.41580784 -0.043446355 -0.013498408
0.41580021 -0.042388473 -0.013514289
0.41579261 -0.041330587 -0.013530171
0.41578498 -0.040272702 -0.013546051
0.41577739 -0.039214816 -0.013561932
0.41576979 -0.03815693 -0.013577813
0.41576216 -0.037099052 -0.013593694
0.41575456 -0.036041167 -0.013609576
0.41574693 -0.034983281 -0.013625457
0.41573933 -0.033925403 -0.013641338
0.41573173 -0.032867517 -0.013657219
0.41657993 -0.031730097 -0.013144982
0.41657233 -0.030673806 -0.013160839
0.41656473 -0.029617516 -0.013176696
0.41655713 -0.028561225 -0.013192553
0.41654953 -0.027504936 -0.013208411
0.41654193 -0.026448647 -0.013224267
0.41653433 -0.025392355 -0.013240125
0.41738263 -0.024267685 -0.012727702
0.41651914 -0.023279775 -0.013271839
0.41651154 -0.022223486 -0.013287696
0.41650394 -0.021167193 -0.013303554
0.41649634 -0.020110901 -0.01331941
0.41648874 -0.019054612 -0.013335268
0.41648114 -0.017998321 -0.013351125
0.41561756 -0.016999256 -0.013895435
0.41560993 -0.01594137 -0.013911316
0.41560233 -0.014883488 -0.013927197
0.4155947 -0.013825603 -0.013943079
0.4155871 -0.01276772 -0.01395896
0.4155795 -0.011709835 -0.013974841
0.41642791 -0.010604286 -0.013462125
0.41642031 -0.0095479917 -0.013477983
0.41641271 -0.0084917014 -0.01349384
0.41554904 -0.0074783005 -0.014038365
0.41639751 -0.006379121 -0.013525554
0.41638991 -0.0053228312 -0.013541412
0.41638231 -0.0042665391 -0.013557268
0.41551858 -0.0032467651 -0.01410189
0.41551098 -0.00218888 -0.014117771
0.41550335 -0.0011309974 -0.014133652
0.41463959 -0.00010484848 -0.014678363
0.41463196 0.00095462817 -0.014694268
0.41376814 0.001985555 -0.015239056
0.41376051 0.0030466248 -0.015254986
0.41375288 0.0041076955 -0.015270914
0.41374525 0.0051687662 -0.015286843
0.4137376 0.006229836 -0.015302772
0.41372997 0.0072909067 -0.015318701
0.41372234 0.008351977 -0.015334629
0.41285837 0.0093956487 -0.01587964
0.41285074 0.010458312 -0.015895594
0.41284308 0.011520976 -0.015911546
0.41197914 0.012571021 -0.016456615
0.41197148 0.013635278 -0.016472593
0.41196382 0.014699535 -0.016488569
0.41195616 0.015763791 -0.016504547
0.4119485 0.016828047 -0.016520523
0.41194084 0.017892305 -0.0165365
0.41193318 0.018956563 -0.016552476
0.41192552 0.020020818 -0.016568454
0.41191787 0.021085076 -0.01658443
0.41105381 0.022151053 -0.017129745
0.41104615 0.023216901 -0.017145745
0.41103846 0.024282752 -0.017161746
0.41017434 0.025355102 -0.01770715
0.41016668 0.026422545 -0.017723175
0.41015899 0.027489988 -0.017739199
0.4101513 0.028557431 -0.017755225
0.41014361 0.029624876 -0.01777125
0.41099244 0.030677851 -0.01725775
0.41098478 0.031743702 -0.01727375
0.41097713 0.032809552 -0.017289752
0.41096944 0.033875402 -0.017305752
0.41181833 0.034920413 -0.016792128
0.41181067 0.035984669 -0.016808106
0.41180301 0.037048928 -0.016824082
0.41179535 0.038113184 -0.016840057
0.4126443 0.039150227 -0.016326319
0.41263664 0.040212892 -0.016342273
0.41262901 0.041275557 -0.016358227
0.41347802 0.042306226 -0.015844356
0.41347039 0.043367296 -0.015860284
0.41346276 0.044428367 -0.015876213
0.41345513 0.045489438 -0.015892142
0.4134475 0.046550509 -0.015908072
0.41343987 0.047611576 -0.015923999
0.41257548 0.048714202 -0.016469896
0.41256782 0.049776863 -0.016485849
0.41256019 0.050839525 -0.016501801
0.41255254 0.05190219 -0.016517755
0.41254488 0.052964851 -0.016533708
0.41253725 0.05402752 -0.01654966
0.41252959 0.055090182 -0.016565613
0.41252196 0.056152847 -0.016581565
0.41337115 0.057161208 -0.01606736
0.41336352 0.058222279 -0.016083289
0.41335589 0.059283353 -0.016099218
0.41420507 0.060285348 -0.015584948
0.41419744 0.061344825 -0.015600854
0.41504666 0.06234204 -0.015086517
0.41503906 0.063399926 -0.015102399
0.41503143 0.064457804 -0.015118279
0.41502383 0.06551569 -0.01513416
0.4150162 0.066573575 -0.015150041
0.41586551 0.067561239 -0.014635556
0.41585791 0.068617523 -0.014651413
0.41585031 0.069673814 -0.014667271
0.41498578 0.07080511 -0.015213566
0.41497815 0.071862996 -0.015229447
0.41497055 0.072920881 -0.015245328
0.41496295 0.073978759 -0.01526121
0.41495532 0.075036645 -0.01527709
0.41494772 0.076094538 -0.015292971
0.41494009 0.077152416 -0.015308852
0.41493249 0.078210294 -0.015324733
0.41492489 0.079268187 -0.015340615
0.41406024 0.080415413 -0.015887143
0.41319555 0.081565827 -0.016433725
0.41318792 0.082626894 -0.016449654
0.41318029 0.083687969 -0.016465584
0.41231552 0.084844768 -0.017012293
0.41145077 0.086004741 -0.017559012
0.410586 0.087167896 -0.018105786
0.4097212 0.088334247 -0.018652601
0.40971351 0.089401685 -0.018668626
0.4088487 0.090572812 -0.01921552
0.40884101 0.091641851 -0.019231569
0.40797609 0.092817761 -0.019778559
0.4079684 0.093888395 -0.019794632
0.40796068 0.094959021 -0.019810703
0.40795299 0.096029647 -0.019826775
0.40880254 0.096987031 -0.01931181
0.40879485 0.098056071 -0.019327858
0.41050163 0.098892242 -0.018281793
0.4113512 0.099840082 -0.01776671
0.41220081 0.10078471 -0.017251585
0.4130505 0.10172616 -0.016736375
0.41390014 0.10266443 -0.016221149
0.4147498 0.10359951 -0.01570588
0.4147422 0.10465739 -0.015721761
0.4155919 0.1055877 -0.015206414
0.4155843 0.106644 -0.015222272
0.4155767 0.10770028 -0.015238129
0.4155691 0.10875657 -0.015253986
0.4155615 0.10981286 -0.015269843
0.4155539 0.11086915 -0.015285701
0.4155463 0.11192544 -0.015301557
0.4155387 0.11298174 -0.015317415
0.4155311 0.11403803 -0.015333272
0.4155235 0.11509432 -0.015349129
0.4155159 0.11615061 -0.015364986
0.41465086 0.117352 -0.015912334
0.41464323 0.11840989 -0.015928214
0.41463563 0.11946777 -0.015944095
0.41377053 0.12067554 -0.016491534
0.41290542 0.12188649 -0.017039025
0.4128978 0.12294757 -0.017054955
0.4120326 0.12416332 -0.017602548
0.41202495 0.12522598 -0.0176185
0.41115978 0.12644649 -0.018166129
0.41115212 0.12751076 -0.018182106
0.4102869 0.12873605 -0.018729813
0.41027924 0.1298019 -0.018745814
0.40941399 0.13103198 -0.019293586
0.4094063 0.13209942 -0.01930961
0.40939862 0.13316685 -0.019325634
0.40939093 0.13423429 -0.019341659
0.40852565 0.13547234 -0.019889558
0.40937558 0.13636918 -0.019373709
0.40936789 0.13743663 -0.019389734
0.40936023 0.13850407 -0.019405758
0.40935254 0.13957152 -0.019421782
0.41020253 0.14046039 -0.01890582
0.41105255 0.1413461 -0.018389804
0.41190261 0.14222859 -0.017873745
0.41275275 0.14310791 -0.017357603
0.41360283 0.14398403 -0.016841443
0.41445294 0.14485699 -0.016325243
0.41444534 0.14591487 -0.016341124
0.41529548 0.14678304 -0.015824845
0.41528788 0.14783934 -0.015840702
0.41613808 0.14870271 -0.015324356
0.41613048 0.14975743 -0.015340189
0.41612288 0.15081212 -0.015356023
0.41611531 0.15186681 -0.015371856
0.41610771 0.1529215 -0.01538769
0.41610014 0.1539762 -0.015403523
0.41609254 0.15503092 -0.015419357
0.41694286 0.15588152 -0.014902783
0.41693529 0.15693465 -0.014918592
0.41692773 0.15798774 -0.014934401
0.41692013 0.15904085 -0.01495021
0.41777048 0.15988353 -0.014433554
0.41776291 0.16093503 -0.01444934
0.41775534 0.16198654 -0.014465125
0.41774777 0.16303805 -0.014480911
0.41774023 0.16408958 -0.014496696
0.41773266 0.16514108 -0.014512482
0.41772509 0.16619259 -0.014528267
0.41771752 0.16724409 -0.014544052
0.41770995 0.16829562 -0.014559838
0.41770238 0.16934712 -0.014575623
0.41769481 0.17039864 -0.014591409
0.41768724 0.17145015 -0.014607195
0.4176797 0.17250165 -0.01462298
0.41767213 0.17355318 -0.014638766
0.41680649 0.17483741 -0.015187351
0.41679889 0.17589052 -0.01520316
0.41679132 0.17694363 -0.015218969
0.41678375 0.17799672 -0.015234779
0.41591799 0.17928894 -0.01578352
0.41591042 0.18034366 -0.015799355
0.41590282 0.18139835 -0.015815187
0.41589522 0.18245305 -0.015831022
0.41588765 0.18350774 -0.015846854
0.41588005 0.18456244 -0.015862687
0.41587245 0.18561713 -0.015878521
0.41672313 0.18642154 -0.015361253
0.41671556 0.18747465 -0.015377062
0.41670796 0.18852778 -0.015392873
0.41670039 0.18958087 -0.015408682
0.41755107 0.19037734 -0.014891332
0.4175435 0.19142886 -0.014907117
0.41753593 0.19248037 -0.014922903
0.41752836 0.19353189 -0.014938688
0.41752079 0.19458339 -0.014954474
0.41751322 0.1956349 -0.014970259
0.41750568 0.19668642 -0.014986045
0.41835642 0.19747014 -0.014468498
0.41834888 0.19852006 -0.014484259
0.41834131 0.19956997 -0.014500021
0.41919214 0.20034733 -0.013982384
0.4191846 0.20139565 -0.013998122
0.41917703 0.20244399 -0.014013859
0.41916949 0.20349231 -0.014029597
0.41916195 0.20454064 -0.014045334
0.41915441 0.20558897 -0.014061072
0.41914687 0.20663728 -0.014076809
0.41913933 0.20768562 -0.014092548
0.41999027 0.2084486 -0.013574658
0.41998276 0.20949534 -0.013590372
0.41997522 0.21054208 -0.013606085
0.41996768 0.2115888 -0.0136218
0.41996017 0.21263555 -0.013637513
0.42081115 0.21338901 -0.013119518
0.42080361 0.21443413 -0.013135208
0.4207961 0.21547925 -0.013150897
0.42078859 0.21652442 -0.013166587
0.42078105 0.21756954 -0.013182277
0.42077354 0.21861468 -0.013197967
0.42076603 0.21965985 -0.013213657
0.42075849 0.22070497 -0.013229346
0.42075098 0.2217501 -0.013245036
0.42074347 0.22279523 -0.013260726
0.42073593 0.22384039 -0.013276415
0.42072842 0.22488552 -0.013292105
0.42072091 0.22593065 -0.013307795
0.42071337 0.2269758 -0.013323485
0.42070585 0.22802094 -0.013339174
0.42069834 0.22906607 -0.013354864
0.4206908 0.2301112 -0.013370554
0.42068329 0.23115636 -0.013386244
0.41981706 0.23252343 -0.013936073
0.41980952 0.23357017 -0.013951787
0.41980201 0.23461689 -0.0139675
0.41979447 0.23566364 -0.013983214
0.41978693 0.23671035 -0.013998928
0.41977939 0.23775709 -0.014014641
0.41977188 0.23880383 -0.014030355
0.41976434 0.23985055 -0.014046068
0.4197568 0.24089728 -0.014061783
0.41974929 0.24194402 -0.014077496
0.41974175 0.24299076 -0.01409321
0.41973421 0.24403748 -0.014108923
0.41972667 0.24508421 -0.014124637
0.41971916 0.24613096 -0.014140351
0.41971162 0.24717768 -0.014156064
0.41970408 0.24822441 -0.014171778
0.41969657 0.24927114 -0.014187491
0.41968903 0.25031787 -0.014203206
0.41968149 0.25136462 -0.014218919
0.41967395 0.25241134 -0.014234632
0.41966644 0.25345808 -0.014250346
0.4196589 0.2545048 -0.01426606
0.41965136 0.25555155 -0.014281774
0.42050281 0.25623965 -0.013762797
0.4204953 0.25728482 -0.013778487
0.42048776 0.25832996 -0.013794177
0.42048025 0.2593751 -0.013809867
0.42047274 0.2604202 -0.013825556
0.4204652 0.26146537 -0.013841246
0.42045769 0.26251051 -0.013856936
0.42045018 0.26355562 -0.013872625
0.42044264 0.26460078 -0.013888316
0.42043513 0.26564589 -0.013904005
0.42042762 0.26669106 -0.013919695
0.42042011 0.2677362 -0.013935385
0.42041257 0.26878133 -0.013951074
0.42040506 0.26982647 -0.013966764
0.42039755 0.27087158 -0.013982454
0.42039001 0.27191675 -0.013998144
0.4203825 0.27296185 -0.014013833
0.42037499 0.27400702 -0.014029523
0.42036745 0.27505216 -0.014045213
0.42035994 0.2760973 -0.014060903
0.42035243 0.27714244 -0.014076592
0.41948569 0.27857962 -0.014627474
0.42033738 0.27923271 -0.014107972
0.42032987 0.28027785 -0.014123662
