# .PCD v0.7 - Point Cloud Data file format
VERSION 0.7
FIELDS x y z
SIZE 4 4 4
TYPE F F F
COUNT 1 1 1
WIDTH 1348
HEIGHT 1
VIEWPOINT 0 0 0 1 0 0 0
POINTS 1348
DATA ascii
0.53343213 -0.068525411 -0.011724221
0.53342557 -0.067615703 -0.011737877
0.53341901 -0.066705979 -0.011751533
0.53341246 -0.065796271 -0.01176519
0.5334059 -0.064886555 -0.011778847
0.53339934 -0.063976832 -0.011792504
0.53339285 -0.063067123 -0.011806161
0.53338629 -0.062157396 -0.011819818
0.53337973 -0.061247688 -0.011833474
0.53337318 -0.060337964 -0.011847131
0.53336662 -0.059428256 -0.011860788
0.53336012 -0.058518536 -0.011874445
0.53335357 -0.05760882 -0.011888102
0.53334701 -0.056699105 -0.011901759
0.53334045 -0.055789389 -0.011915416
0.5333339 -0.054879673 -0.011929072
0.53332734 -0.053969949 -0.011942728
0.53332084 -0.05306023 -0.011956385
0.53331429 -0.052150521 -0.011970042
0.53330773 -0.051240806 -0.011983699
0.53330117 -0.05033109 -0.011997356
0.53329462 -0.049421374 -0.012011013
0.53328812 -0.048511658 -0.012024669
0.53328156 -0.047601938 -0.012038326
0.53327501 -0.046692219 -0.012051983
0.53326845 -0.045782503 -0.01206564
0.5332619 -0.044872787 -0.012079297
0.53325534 -0.043963071 -0.012092954
0.53324884 -0.043053355 -0.01210661
0.53324229 -0.042143643 -0.012120266
0.53323573 -0.041233923 -0.012133923
0.53322917 -0.040324207 -0.01214758
0.53322262 -0.039414488 -0.012161237
0.53321612 -0.038504772 -0.012174894
0.53399903 -0.037492439 -0.01157702
0.53399247 -0.036584318 -0.011590653
0.53398597 -0.035676192 -0.011604286
0.53397942 -0.034768071 -0.011617918
0.53397286 -0.033859946 -0.011631551
0.53396636 -0.032951824 -0.011645184
0.53395981 -0.032043699 -0.011658818
0.53395325 -0.031135576 -0.01167245
0.53394675 -0.030227454 -0.011686083
0.5339402 -0.029319329 -0.011699716
0.5339337 -0.028411206 -0.011713348
0.53471678 -0.027417986 -0.011115151
0.53471023 -0.026511457 -0.01112876
0.53470373 -0.02560493 -0.011142369
0.53469723 -0.024698393 -0.011155978
0.53469068 -0.023791866 -0.011169587
0.53468418 -0.022885334 -0.011183196
0.53467762 -0.021978807 -0.011196805
0.53467113 -0.021072278 -0.011210414
0.53466457 -0.020165745 -0.011224023
0.53465807 -0.019259214 -0.011237632
0.53386182 -0.018421849 -0.01186331
0.53385526 -0.017513728 -0.011876943
0.533059 -0.016671579 -0.012502657
0.53305244 -0.015761862 -0.012516313
0.53304589 -0.014852144 -0.01252997
0.53303939 -0.01394243 -0.012543627
0.53303283 -0.013032713 -0.012557284
0.53302628 -0.012122994 -0.012570941
0.53301972 -0.011213278 -0.012584598
0.53301316 -0.010303563 -0.012598255
0.53300661 -0.0093938448 -0.012611911
0.53378993 -0.0084324935 -0.012013271
0.53378338 -0.0075243707 -0.012026904
0.532987 -0.0066646975 -0.012652881
0.53298044 -0.0057549793 -0.012666538
0.53297389 -0.0048452625 -0.012680195
0.53296739 -0.003935548 -0.012693852
0.53296083 -0.0030258305 -0.012707508
0.53295428 -0.0021161141 -0.012721165
0.53294772 -0.0012063975 -0.012734822
0.5337311 -0.00025938498 -0.012135968
0.53293461 0.0006130354 -0.012762136
0.53292811 0.0015227519 -0.012775793
0.53292155 0.0024324683 -0.01278945
0.532915 0.0033421849 -0.012803106
0.53290844 0.0042519015 -0.012816763
0.53211188 0.0051338798 -0.013443074
0.53210533 0.0060451892 -0.013456755
0.53209877 0.0069564991 -0.013470436
0.53209221 0.0078678085 -0.013484117
0.5312956 0.0087577533 -0.014110547
0.53128904 0.0096706562 -0.014124252
0.53128248 0.010583559 -0.014137957
0.53206599 0.011513048 -0.013538839
0.53205943 0.012424357 -0.01355252
0.53205287 0.013335667 -0.013566201
0.53204632 0.014246977 -0.013579882
0.53203976 0.015158286 -0.013593562
0.53203321 0.016069595 -0.013607243
0.53202665 0.016980905 -0.013620923
0.53202009 0.017892215 -0.013634604
0.53201354 0.018803524 -0.013648285
0.53200698 0.019714834 -0.013661966
0.53200042 0.020626144 -0.013675647
0.53199387 0.021537453 -0.013689327
0.53277755 0.02244623 -0.013089898
0.53277099 0.023355948 -0.013103555
0.53355467 0.024259945 -0.012504055
0.53354818 0.025168067 -0.012517688
0.53433192 0.026067285 -0.011918079
0.53432542 0.026973814 -0.011931689
0.53510916 0.027868254 -0.011332044
0.53589296 0.028759504 -0.010732353
0.53667676 0.02964757 -0.010132614
0.53667033 0.030549321 -0.01014615
0.53745419 0.031432606 -0.0095463032
0.53744769 0.032332763 -0.0095598157
0.53823161 0.033211268 -0.0089599332
0.53822511 0.034109835 -0.0089734225
0.53900903 0.03498356 -0.0083734682
0.53979301 0.035854101 -0.007773465
0.53978658 0.036749478 -0.0077869068
0.5405705 0.03761524 -0.0071868324
0.54056412 0.038509026 -0.0072002499
0.54055768 0.039402809 -0.0072136675
0.54055125 0.040296592 -0.0072270851
0.53975433 0.041226368 -0.0078541143
0.53974789 0.042121742 -0.0078675561
0.53895098 0.043056298 -0.0084946565
0.53815401 0.043994036 -0.0091218054
0.62344515 0.0512149 0.056982324
0.62343991 0.051941399 0.05697142
0.62343466 0.052667901 0.056960512
0.62342942 0.0533944 0.056949604
0.62342423 0.054120898 0.0569387
0.62262827 0.05492162 0.056313608
0.62262303 0.055649713 0.056302678
0.62261778 0.056377806 0.056291748
0.62261254 0.057105895 0.056280818
0.62260729 0.057833988 0.056269888
0.62260205 0.058562081 0.056258958
0.6225968 0.059290174 0.056248024
0.62259156 0.060018267 0.056237094
0.62179548 0.060833331 0.055611771
0.62179023 0.061563015 0.055600815
0.62178499 0.062292699 0.055589862
0.62177974 0.063022383 0.05557891
0.6209836 0.063845411 0.054953482
0.62097836 0.064576693 0.054942504
0.62097311 0.065307975 0.054931525
0.62096781 0.066039249 0.054920547
0.62017167 0.066870242 0.054295
0.62016636 0.067603111 0.054283999
0.62016112 0.068335988 0.054272998
0.62015581 0.069068857 0.054261994
0.62015057 0.069801725 0.054250993
0.62014526 0.070534602 0.054239992
0.62014002 0.071267471 0.054228988
0.62013471 0.07200034 0.054217987
0.62012947 0.072733216 0.054206986
0.62012416 0.073466085 0.054195985
0.62011892 0.074198954 0.054184981
0.62090468 0.074814588 0.054788809
0.62089944 0.075545862 0.054777835
0.62089413 0.076277144 0.054766856
0.62088889 0.077008419 0.054755878
0.62088364 0.077739701 0.054744899
0.6208784 0.078470975 0.054733921
0.62087309 0.079202257 0.054722942
0.62086785 0.079933539 0.054711964
0.6208626 0.080664814 0.054700986
0.62085736 0.081396095 0.054690007
0.62085205 0.082127362 0.054679032
0.62084681 0.082858652 0.054668054
0.62084156 0.083589919 0.054657076
0.62083626 0.084321208 0.054646097
0.62083101 0.085052483 0.054635119
0.62082577 0.085783757 0.05462414
0.53296661 0.10599104 -0.013731013
0.53375143 0.10674845 -0.013129275
0.53374487 0.10765499 -0.013142885
0.53373837 0.10856152 -0.013156493
0.53452319 0.10931256 -0.012554697
0.53451663 0.1102175 -0.012568282
0.53451014 0.11112244 -0.012581867
0.53450364 0.11202738 -0.012595452
0.53449714 0.11293232 -0.012609037
0.53449064 0.11383726 -0.012622622
0.53448409 0.11474219 -0.012636207
0.53447759 0.11564712 -0.012649792
0.53447109 0.11655206 -0.012663377
0.5344646 0.117457 -0.012676962
0.53445804 0.11836194 -0.012690547
0.53445154 0.11926687 -0.012704132
0.53444505 0.12017181 -0.012717717
0.53443855 0.12107675 -0.012731303
0.53443199 0.12198168 -0.012744888
0.5344255 0.12288663 -0.012758472
0.534419 0.12379156 -0.012772057
0.5344125 0.1246965 -0.012785642
0.53361446 0.12578559 -0.013415064
0.5336079 0.12669212 -0.013428672
0.53280979 0.127786 -0.014058202
0.53280324 0.12869412 -0.014071834
0.53279674 0.12960225 -0.014085467
0.53199863 0.13070248 -0.014715055
0.53199208 0.13161221 -0.014728712
0.53198552 0.13252191 -0.014742369
0.53118736 0.13362855 -0.015372053
0.53197241 0.13434136 -0.014769683
0.53196585 0.13525108 -0.01478334
0.53195935 0.13616079 -0.014796996
0.5319528 0.13707051 -0.014810652
0.53194624 0.13798022 -0.014824309
0.53193969 0.13888994 -0.014837966
0.53193313 0.13979965 -0.014851623
0.53192663 0.14070937 -0.01486528
0.53192008 0.14161909 -0.014878937
0.53191352 0.1425288 -0.014892594
0.53190696 0.14343852 -0.014906251
0.53190041 0.14434823 -0.014919907
0.53189391 0.14525796 -0.014933564
0.53188735 0.14616767 -0.014947221
0.53267258 0.14685659 -0.014344491
0.53266603 0.14776471 -0.014358125
0.53345138 0.14844884 -0.013755287
0.53344488 0.14935537 -0.013768896
0.53343832 0.15026189 -0.013782505
0.53343183 0.15116844 -0.013796113
0.53342527 0.15207495 -0.013809723
0.53341877 0.15298149 -0.013823331
0.53341222 0.15388802 -0.013836941
0.53340572 0.15479456 -0.01385055
0.53419107 0.15546435 -0.013247534
0.53418458 0.15636927 -0.013261118
0.53417808 0.15727423 -0.013274703
0.53417158 0.15817916 -0.013288288
0.53416508 0.1590841 -0.013301874
0.53495049 0.15974432 -0.012698714
0.534944 0.16064769 -0.012712276
0.5349375 0.16155101 -0.012725837
0.534931 0.16245437 -0.012739398
0.53492451 0.1633577 -0.012752959
0.53491801 0.16426106 -0.01276652
0.53491151 0.1651644 -0.012780081
0.53569704 0.1658119 -0.01217673
0.53569055 0.16671364 -0.012190267
0.53568405 0.1676154 -0.012203804
0.53567761 0.16851714 -0.012217341
0.53567111 0.16941889 -0.012230879
0.53566462 0.17032064 -0.012244415
0.53565812 0.17122239 -0.012257953
0.53565162 0.17212415 -0.01227149
0.53564513 0.17302591 -0.012285028
0.53563863 0.17392765 -0.012298564
0.53563219 0.17482939 -0.012312101
0.5356257 0.17573115 -0.012325639
0.5356192 0.1766329 -0.012339176
0.5356127 0.17753465 -0.012352713
0.53560621 0.17843638 -0.01236625
0.53559971 0.17933816 -0.012379788
0.53559321 0.18023992 -0.012393325
0.53558677 0.18114164 -0.012406862
0.53558028 0.1820434 -0.012420399
0.53557378 0.18294515 -0.012433937
0.53556728 0.18384691 -0.012447474
0.53556079 0.18474865 -0.01246101
0.53555429 0.18565041 -0.012474548
0.53554785 0.18655215 -0.012488085
0.53554136 0.18745391 -0.012501623
0.53553486 0.18835564 -0.012515159
0.53552836 0.18925741 -0.012528697
0.53552186 0.19015916 -0.012542234
0.53551537 0.1910609 -0.012555772
0.53550887 0.19196267 -0.012569308
0.53470999 0.19316804 -0.013200475
0.53549594 0.19376616 -0.012596383
0.53548944 0.19466789 -0.01260992
0.53548294 0.19556966 -0.012623457
0.53547645 0.19647142 -0.012636995
0.53546995 0.19737315 -0.012650532
0.53546345 0.19827491 -0.012664068
0.53545702 0.19917667 -0.012677606
0.53545052 0.20007841 -0.012691143
0.53623652 0.20066215 -0.012086798
0.53623009 0.20156232 -0.012100312
0.53622359 0.20246248 -0.012113825
0.53621709 0.20336263 -0.012127339
0.53621066 0.20426278 -0.012140851
0.53620416 0.20516296 -0.012154366
0.53619766 0.20606311 -0.012167878
0.53698379 0.20663412 -0.011563379
0.53697729 0.2075327 -0.011576869
0.53697085 0.20843126 -0.011590358
0.53696436 0.20932981 -0.011603847
0.53695792 0.21022838 -0.011617337
0.53695148 0.21112695 -0.011630827
0.53694499 0.21202551 -0.011644316
0.53693855 0.21292408 -0.011657805
0.53693205 0.21382265 -0.011671294
0.53692561 0.2147212 -0.011684784
0.53691912 0.21561977 -0.011698273
0.53691268 0.21651831 -0.011711762
0.53690618 0.2174169 -0.011725252
0.53689975 0.21831547 -0.011738741
0.53689325 0.21921401 -0.01175223
0.53688681 0.22011259 -0.01176572
0.53688031 0.22101116 -0.01177921
0.53608108 0.22226593 -0.012411118
0.53607464 0.22316609 -0.012424631
0.53606814 0.22406626 -0.012438145
0.53685445 0.22460541 -0.011833167
0.53684801 0.22550397 -0.011846656
0.53684157 0.22640254 -0.011860145
0.53683507 0.22730111 -0.011873635
0.53682864 0.22819966 -0.011887124
0.53682214 0.22909822 -0.011900613
0.5368157 0.2299968 -0.011914103
0.53680921 0.23089536 -0.011927593
0.53759563 0.23142017 -0.0113224
0.53758919 0.23231715 -0.011335866
0.53758276 0.23321413 -0.011349331
0.53757626 0.23411109 -0.011362796
0.53756982 0.23500806 -0.011376262
0.53756338 0.23590504 -0.011389728
0.53755695 0.23680201 -0.011403193
0.53755045 0.23769897 -0.011416658
0.53754401 0.23859593 -0.011430123
0.53753757 0.23949292 -0.011443589
0.53753108 0.2403899 -0.011457055
0.53752464 0.24128684 -0.01147052
0.5375182 0.24218383 -0.011483985
0.53751177 0.24308081 -0.011497451
0.53750527 0.24397777 -0.011510916
0.53749883 0.24487473 -0.011524381
0.53749239 0.24577172 -0.011537847
0.53748596 0.24666868 -0.011551312
0.53747946 0.24756566 -0.011564778
0.53747302 0.24846262 -0.011578243
0.53746659 0.24935959 -0.011591709
0.53746009 0.25025657 -0.011605174
0.53745365 0.25115353 -0.011618639
0.53744721 0.25205052 -0.011632105
0.53744078 0.25294748 -0.01164557
0.53743428 0.25384444 -0.011659036
0.53742784 0.25474143 -0.011672501
0.53662819 0.25605515 -0.012305294
0.53662175 0.25695372 -0.012318783
0.53661525 0.25785229 -0.012332273
0.53660882 0.25875086 -0.012345763
0.53660232 0.2596494 -0.012359251
0.53659588 0.26054797 -0.012372741
0.53658938 0.26144654 -0.012386231
0.53658295 0.26234511 -0.01239972
0.53657645 0.26324365 -0.012413209
0.53657001 0.26414222 -0.012426699
0.53656352 0.26504079 -0.012440188
0.53655708 0.26593935 -0.012453677
0.53655058 0.26683792 -0.012467166
0.53654414 0.26773649 -0.012480656
0.53653765 0.26863503 -0.012494145
0.53653121 0.2695336 -0.012507635
0.53652471 0.27043217 -0.012521124
0.53651828 0.27133074 -0.012534614
0.53571838 0.27267474 -0.013167861
0.53571194 0.27357489 -0.013181374
0.53570545 0.27447507 -0.013194888
0.53569895 0.27537522 -0.0132084
0.53569251 0.27627537 -0.013221914
0.53568602 0.27717552 -0.013235427
0.53567952 0.2780757 -0.013248941
0.53567308 0.27897584 -0.013262454
0.53487307 0.2803342 -0.013895953
0.53486657 0.28123596 -0.013909491
0.53486007 0.28213772 -0.013923028
0.53485358 0.28303945 -0.013936565
0.53484708 0.28394121 -0.013950102
0.53484058 0.28484297 -0.01396364
0.53483409 0.28574473 -0.013977177
0.53482765 0.28664646 -0.013990713
0.53482115 0.28754818 -0.014004251
0.53481466 0.28844997 -0.014017789
0.53480816 0.2893517 -0.014031325
0.53480166 0.29025346 -0.014044862
0.53479517 0.29115522 -0.0140584
0.53478867 0.29205695 -0.014071937
0.53557593 0.2924782 -0.013465153
0.53556943 0.29337835 -0.013478667
0.53556293 0.29427853 -0.01349218
0.5355565 0.29517865 -0.013505693
0.53555 0.2960788 -0.013519206
0.53633726 0.29649052 -0.012912315
0.53633076 0.29738909 -0.012925805
0.53632432 0.29828769 -0.012939295
0.53631783 0.29918623 -0.012952784
0.53710514 0.29958996 -0.012345773
0.53658849 -0.099734463 -0.010126567
0.53658199 -0.098829523 -0.010140152
0.5365755 -0.09792459 -0.010153737
0.53656894 -0.097019643 -0.010167321
0.53577471 -0.096320905 -0.010792132
0.53576821 -0.09541437 -0.010805742
0.53576165 -0.094507843 -0.01081935
0.53575516 -0.093601309 -0.01083296
0.5357486 -0.092694782 -0.010846568
0.5357421 -0.091788247 -0.010860178
0.53573561 -0.090881713 -0.010873786
0.53572905 -0.089975193 -0.010887396
0.53572255 -0.089068659 -0.010901004
0.535716 -0.088162132 -0.010914613
0.5357095 -0.087255605 -0.010928222
0.53570294 -0.086349078 -0.010941831
0.53569645 -0.085442536 -0.01095544
0.53568995 -0.084536001 -0.010969049
0.53568339 -0.083629481 -0.010982658
0.5356769 -0.082722947 -0.010996267
0.53567034 -0.08181642 -0.011009876
0.53487587 -0.081088997 -0.011635154
0.53486931 -0.080180883 -0.011648787
0.53486282 -0.079272754 -0.01166242
0.53485626 -0.078364626 -0.011676053
0.5348497 -0.077456512 -0.011689685
0.53484321 -0.076548383 -0.011703318
0.53483665 -0.075640269 -0.011716951
0.53483009 -0.074732132 -0.011730584
0.5348236 -0.073824018 -0.011744217
0.53481704 -0.072915889 -0.01175785
0.53481054 -0.072007775 -0.011771482
0.53480399 -0.071099646 -0.011785115
0.53479743 -0.070191517 -0.011798749
0.53479093 -0.069283403 -0.011812381
0.53478438 -0.068375275 -0.011826014
0.53477782 -0.067467161 -0.011839647
0.53477132 -0.066559024 -0.01185328
0.53476477 -0.06565091 -0.011866912
0.53475827 -0.064742781 -0.011880546
0.53475171 -0.063834652 -0.011894179
0.53474516 -0.062926538 -0.011907811
0.53473866 -0.062018409 -0.011921444
0.5347321 -0.061110295 -0.011935077
0.53472555 -0.060202163 -0.01194871
0.53550726 -0.059153173 -0.0113501
0.53550076 -0.058246635 -0.011363708
0.53549427 -0.057340108 -0.011377318
0.53548771 -0.056433581 -0.011390926
0.53548121 -0.055527054 -0.011404536
0.53547466 -0.054620523 -0.011418144
0.53546816 -0.053713989 -0.011431754
0.5354616 -0.052807461 -0.011445362
0.53545511 -0.051900923 -0.011458972
0.53544861 -0.050994396 -0.01147258
0.53544205 -0.050087869 -0.011486189
0.53543556 -0.049181342 -0.011499798
0.535429 -0.048274808 -0.011513407
0.5354225 -0.047368281 -0.011527016
0.53541595 -0.046461746 -0.011540625
0.53540945 -0.045555215 -0.011554234
0.53540295 -0.044648688 -0.011567843
0.5353964 -0.043742158 -0.011581452
0.5353899 -0.04283563 -0.011595061
0.53538334 -0.0419291 -0.01160867
0.53537685 -0.041022569 -0.011622279
0.53537029 -0.040116042 -0.011635887
0.53536379 -0.039209507 -0.011649497
0.53535724 -0.038302977 -0.011663105
0.53535074 -0.03739645 -0.011676715
0.53534424 -0.036489919 -0.011690323
0.53533769 -0.035583388 -0.011703933
0.53533119 -0.034676857 -0.011717541
0.53532463 -0.03377033 -0.011731151
0.53531814 -0.032863803 -0.011744759
0.53531158 -0.031957265 -0.011758368
0.53530508 -0.031050738 -0.011771977
0.53529859 -0.030144205 -0.011785586
0.53529203 -0.029237678 -0.011799195
0.53528553 -0.028331149 -0.011812804
0.53606761 -0.027339516 -0.011213369
0.53606111 -0.02643458 -0.011226954
0.53605455 -0.025529642 -0.011240539
0.53604805 -0.024624703 -0.011254124
0.53604156 -0.023719767 -0.011267709
0.53603506 -0.022814829 -0.011281294
0.5360285 -0.021909894 -0.011294879
0.53602201 -0.021004958 -0.011308464
0.53601551 -0.02010002 -0.011322049
0.53600901 -0.019195082 -0.011335634
0.53600246 -0.018290145 -0.011349219
0.53599596 -0.017385211 -0.011362804
0.53520072 -0.016546259 -0.01198972
0.53519422 -0.015639728 -0.012003329
0.53518766 -0.014733199 -0.012016938
0.53518116 -0.013826668 -0.012030547
0.53517461 -0.012920138 -0.012044156
0.53516811 -0.012013607 -0.012057764
0.53516161 -0.011107079 -0.012071374
0.53515506 -0.010200549 -0.012084982
0.53593737 -0.0092407772 -0.011485069
0.53593087 -0.00833584 -0.011498654
0.53592438 -0.0074309041 -0.011512239
0.53591782 -0.0065259682 -0.011525825
0.53591132 -0.0056210291 -0.01153941
0.53590482 -0.0047160932 -0.011552994
0.53589833 -0.0038111573 -0.011566579
0.53589177 -0.0029062198 -0.011580165
0.53588527 -0.002001283 -0.01159375
0.53587878 -0.0010963464 -0.011607335
0.53587228 -0.00019140968 -0.011620919
0.53586572 0.00071352796 -0.011634504
0.53585923 0.0016184637 -0.01164809
0.53506374 0.0024908725 -0.012275508
0.53505725 0.0033974024 -0.012289117
0.53505069 0.0043039322 -0.012302726
0.53425509 0.0051827109 -0.012930276
0.53424859 0.0060908347 -0.012943909
0.53345299 0.0069743949 -0.013571494
0.53344649 0.0078841113 -0.013585151
0.53265083 0.0087724514 -0.014212809
0.53343338 0.009703544 -0.013612465
0.53342682 0.010613261 -0.013626122
0.53342026 0.011522978 -0.013639779
0.53341371 0.012432694 -0.013653436
0.53261805 0.013328999 -0.014281212
0.53261149 0.01424031 -0.014294893
0.53260493 0.015151619 -0.014308574
0.53259838 0.016062928 -0.014322254
0.53338099 0.016981276 -0.013721719
0.53337449 0.017890992 -0.013735376
0.53336793 0.018800709 -0.013749033
0.53336138 0.019710425 -0.013762689
0.53335482 0.020620141 -0.013776346
0.53334826 0.021529859 -0.013790003
0.53413099 0.022437053 -0.013189301
0.53412443 0.023345176 -0.013202934
0.53490722 0.024247594 -0.012602123
0.53568995 0.025146822 -0.0120013
0.53568345 0.02605176 -0.012014885
0.53646624 0.026946208 -0.011413991
0.53724903 0.027837472 -0.01081305
0.53724253 0.028739223 -0.010826588
0.53802544 0.029625706 -0.010225537
0.53880829 0.030509004 -0.0096244765
0.53880179 0.031407569 -0.0096379658
0.5395847 0.032286085 -0.0090368325
0.53957826 0.033183053 -0.0090502976
0.54036117 0.034056794 -0.0084490934
0.54035473 0.034952171 -0.0084625352
0.5411377 0.035821129 -0.0078612585
0.54113126 0.036714915 -0.007874676
0.54191428 0.037579093 -0.0072732912
0.54190791 0.038471285 -0.0072866851
0.54269093 0.039330684 -0.0066852649
0.54189503 0.040255666 -0.0073134722
0.54188865 0.041147858 -0.007326866
0.54188222 0.04204005 -0.0073402599
0.54187578 0.042932242 -0.0073536532
0.62390089 0.050483089 0.056423221
0.6238957 0.051209584 0.056412317
0.62389046 0.051936083 0.056401409
0.62388521 0.052662585 0.056390502
0.62388003 0.053389084 0.056379598
0.62387478 0.054115582 0.05636869
0.62386954 0.054842081 0.056357782
0.62386435 0.05556858 0.056346878
0.62385911 0.056295075 0.056335971
0.62385386 0.057021573 0.056325063
0.62305886 0.057828661 0.055698626
0.62384343 0.058474574 0.056303252
0.62304837 0.059284847 0.055676766
0.62304312 0.06001294 0.055665836
0.62303787 0.06074103 0.055654906
0.62303263 0.061469123 0.055643976
0.6222375 0.06228736 0.055017352
0.62223226 0.063017048 0.0550064
0.62222701 0.063746728 0.054995444
0.62222177 0.064476416 0.054984491
0.62221652 0.065206103 0.054973535
0.62142134 0.0660339 0.054346789
0.62141609 0.066765174 0.05433581
0.62141085 0.067496456 0.054324832
0.62140554 0.068227731 0.054313853
0.6214003 0.068959013 0.054302875
0.62139505 0.069690287 0.054291897
0.62138981 0.070421569 0.054280922
0.6213845 0.071152844 0.054269943
0.62137926 0.071884125 0.054258965
0.62137401 0.072615407 0.054247987
0.62136877 0.073346682 0.054237008
0.62136346 0.074077956 0.05422603
0.62135822 0.074809238 0.054215051
0.62135297 0.075540513 0.054204073
0.62134767 0.076271795 0.054193094
0.62134242 0.077003062 0.054182116
0.62133718 0.077734351 0.054171141
0.62133193 0.078465626 0.054160163
0.62132663 0.079196908 0.054149184
0.62132138 0.07992819 0.054138206
0.62131613 0.080659457 0.054127228
0.62131083 0.081390746 0.054116249
0.62130558 0.082122013 0.054105271
0.62130034 0.082853302 0.054094292
0.62129509 0.083584569 0.054083314
0.62128979 0.084315851 0.054072339
0.62207478 0.084907599 0.054677777
0.6212793 0.085778408 0.054050382
0.62127405 0.08650969 0.054039404
0.53432667 0.10492876 -0.013813319
0.53432018 0.10583529 -0.013826928
0.53510392 0.10659114 -0.013223954
0.53588772 0.1073438 -0.012620931
0.53588122 0.10824715 -0.012634492
0.53587472 0.10915048 -0.012648053
0.53586823 0.11005382 -0.012661614
0.53665209 0.11079852 -0.012058472
0.53664559 0.11170027 -0.01207201
0.53663909 0.11260202 -0.012085547
0.53663266 0.11350377 -0.012099084
0.53662616 0.11440552 -0.012112621
0.53661966 0.11530726 -0.012126158
0.53661317 0.11620902 -0.012139696
0.53739715 0.11694095 -0.011536325
0.53660017 0.11801253 -0.01216677
0.53659368 0.11891427 -0.012180307
0.53658724 0.11981602 -0.012193845
0.53658074 0.12071778 -0.012207381
0.53657424 0.12161952 -0.012220919
0.53656775 0.12252127 -0.012234456
0.53656125 0.12342302 -0.012247993
0.53576422 0.12450732 -0.012878592
0.53575772 0.12541066 -0.012892153
0.53496069 0.12649974 -0.013522823
0.53495419 0.12740467 -0.013536409
0.5341571 0.12849854 -0.014167151
0.53415054 0.12940508 -0.014180761
0.53414404 0.13031161 -0.014194369
0.53334689 0.13141185 -0.014825244
0.53254974 0.13251527 -0.015456131
0.53254318 0.13342498 -0.015469788
0.53332728 0.13413621 -0.014866143
0.53332072 0.13504434 -0.014879776
0.53331417 0.13595247 -0.014893409
0.53330767 0.13686059 -0.014907042
0.53330112 0.13776872 -0.014920674
0.5325039 0.13888328 -0.015551728
0.53249735 0.13979301 -0.015565385
0.53249079 0.14070271 -0.015579041
0.53248423 0.14161244 -0.015592698
0.53247774 0.14252214 -0.015606355
0.53247118 0.14343187 -0.015620012
0.5332554 0.14412558 -0.015016104
0.53324884 0.1450337 -0.015029738
0.53324234 0.14594182 -0.01504337
0.53323579 0.14684995 -0.015057003
0.53402013 0.14753567 -0.01445294
0.53401357 0.14844221 -0.014466548
0.53400707 0.14934874 -0.014480157
0.53479141 0.15002811 -0.013876035
0.53478491 0.15093304 -0.013889619
0.53477836 0.15183797 -0.013903204
0.53477186 0.15274292 -0.01391679
0.53555626 0.15341432 -0.013312547
0.53554976 0.15431768 -0.013326108
0.53554326 0.15522102 -0.013339669
0.53553677 0.15612434 -0.01335323
0.53553027 0.15702771 -0.013366792
0.53552377 0.15793103 -0.013380353
0.53551728 0.15883438 -0.013393914
0.53630173 0.15949304 -0.012789481
0.53629524 0.16039479 -0.012803018
0.53628874 0.16129655 -0.012816556
0.53628224 0.16219829 -0.012830093
0.53627574 0.16310003 -0.012843629
0.53706038 0.16374913 -0.012239016
0.53705388 0.16464929 -0.012252529
0.53704739 0.16554943 -0.012266042
0.53704095 0.16644961 -0.012279555
0.53703445 0.16734977 -0.012293069
0.53702796 0.16824991 -0.012306582
0.53702152 0.16915007 -0.012320096
0.53701502 0.17005023 -0.012333609
0.53700852 0.17095038 -0.012347122
0.53700209 0.17185055 -0.012360635
0.53699559 0.1727507 -0.012374149
0.53698909 0.17365086 -0.012387661
0.53698266 0.17455103 -0.012401175
0.53697616 0.17545116 -0.012414688
0.53696966 0.17635134 -0.012428202
0.53696322 0.1772515 -0.012441715
0.53695673 0.17815164 -0.012455228
0.53695023 0.17905182 -0.012468741
0.53694379 0.17995195 -0.012482255
0.5369373 0.18085212 -0.012495768
0.5369308 0.18175228 -0.012509281
0.53692436 0.18265243 -0.012522794
0.53691787 0.18355259 -0.012536308
0.53691137 0.18445274 -0.012549821
0.53690493 0.18535291 -0.012563335
0.53689843 0.18625307 -0.012576847
0.53689194 0.18715321 -0.012590361
0.5368855 0.18805337 -0.012603874
0.536879 0.18895355 -0.012617388
0.53687251 0.18985368 -0.0126309
0.53686607 0.19075385 -0.012644414
0.53685957 0.19165401 -0.012657927
0.53685313 0.19255416 -0.012671441
0.53684664 0.19345433 -0.012684954
0.53684014 0.19435446 -0.012698467
0.5368337 0.19525464 -0.01271198
0.53682721 0.19615479 -0.012725494
0.53682071 0.19705494 -0.012739006
0.53681427 0.1979551 -0.01275252
0.53680778 0.19885527 -0.012766033
0.53759277 0.19943903 -0.012160476
0.53758633 0.2003376 -0.012173966
0.53757983 0.20123617 -0.012187455
0.5375734 0.20213473 -0.012200944
0.5375669 0.2030333 -0.012214433
0.53756046 0.20393185 -0.012227923
0.53834558 0.20450449 -0.011622198
0.53833908 0.20540145 -0.011635663
0.53833264 0.20629843 -0.011649128
0.5383262 0.20719542 -0.011662594
0.53831971 0.20809236 -0.011676059
0.53831327 0.20898934 -0.011689525
0.53830683 0.20988631 -0.01170299
0.5383004 0.21078329 -0.011716456
0.5382939 0.21168025 -0.011729921
0.53828746 0.21257722 -0.011743386
0.53828102 0.2134742 -0.011756852
0.53827459 0.21437117 -0.011770317
0.53826809 0.21526814 -0.011783782
0.53826165 0.2161651 -0.011797248
0.53825521 0.21706209 -0.011810713
0.53824872 0.21795906 -0.011824179
0.53824228 0.21885601 -0.011837645
0.53823584 0.219753 -0.01185111
0.53822941 0.22064997 -0.011864576
0.53822291 0.22154693 -0.011878041
0.53821647 0.22244389 -0.011891507
0.53821003 0.22334088 -0.011904972
0.53820354 0.22423784 -0.011918438
0.5381971 0.22513482 -0.011931903
0.53819066 0.22603178 -0.011945368
0.53818423 0.22692876 -0.011958834
0.53817773 0.22782573 -0.011972299
0.53817129 0.22872271 -0.011985765
0.5389567 0.22924913 -0.011379346
0.53895026 0.2301445 -0.011392787
0.53894383 0.23103988 -0.011406229
0.53893739 0.23193526 -0.011419671
0.53893095 0.23283064 -0.011433112
0.53892452 0.23372602 -0.011446554
0.53891808 0.23462139 -0.011459995
0.53891164 0.23551677 -0.011473437
0.5389052 0.23641215 -0.011486879
0.53889877 0.23730753 -0.011500319
0.53889233 0.2382029 -0.011513761
0.53888583 0.23909828 -0.011527203
0.53887939 0.23999366 -0.011540644
0.53887296 0.24088903 -0.011554086
0.53886652 0.24178442 -0.011567527
0.53886008 0.2426798 -0.011580969
0.53885365 0.24357517 -0.011594411
0.53884721 0.24447054 -0.011607852
0.53884077 0.24536593 -0.011621294
0.53883433 0.2462613 -0.011634735
0.5388279 0.24715668 -0.011648176
0.53882146 0.24805208 -0.011661618
0.53881496 0.24894744 -0.01167506
0.53880852 0.24984281 -0.011688501
0.53880209 0.25073817 -0.011701942
0.53879565 0.25163358 -0.011715384
0.53878921 0.25252897 -0.011728826
0.53878278 0.25342432 -0.011742268
0.53877634 0.2543197 -0.011755709
0.5387699 0.25521508 -0.01176915
0.53876346 0.25611046 -0.011782592
0.53796476 0.25742576 -0.012416659
0.53795832 0.25832275 -0.012430124
0.53795189 0.25921971 -0.012443589
0.53794539 0.26011667 -0.012457055
0.53793895 0.26101366 -0.01247052
0.53793252 0.26191062 -0.012483986
0.53792602 0.26280761 -0.012497451
0.53791958 0.26370457 -0.012510916
0.53791314 0.26460153 -0.012524382
0.53790671 0.26549849 -0.012537847
0.53790021 0.26639548 -0.012551313
0.53789377 0.26729244 -0.012564778
0.53788733 0.26818943 -0.012578244
0.5378809 0.26908639 -0.012591709
0.5378744 0.26998335 -0.012605175
0.53786796 0.27088034 -0.01261864
0.53786153 0.2717773 -0.012632105
0.53706264 0.2731213 -0.013266603
0.53705615 0.27401987 -0.013280093
0.53704971 0.27491844 -0.013293582
0.53704321 0.27581698 -0.013307071
0.53703678 0.27671555 -0.013320561
0.53703028 0.27761412 -0.013334051
0.53702384 0.27851269 -0.01334754
0.53622484 0.27986941 -0.013982228
0.5362184 0.28076956 -0.013995741
0.53621191 0.28166974 -0.014009255
0.53620541 0.28256989 -0.014022768
0.53619897 0.28347003 -0.014036281
0.53619248 0.28437021 -0.014049795
0.53618598 0.28527036 -0.014063308
0.53617954 0.28617051 -0.014076822
0.53617305 0.28707066 -0.014090335
0.53616655 0.28797084 -0.014103848
0.53616011 0.28887099 -0.014117361
0.53615361 0.28977114 -0.014130875
0.53614712 0.29067129 -0.014144388
0.53614068 0.29157144 -0.014157901
0.53613418 0.29247162 -0.014171414
0.53692037 0.29288968 -0.013563369
0.53612125 0.29427195 -0.014198441
0.53690743 0.29468685 -0.013590348
0.536901 0.29558539 -0.013603837
0.5368945 0.29648393 -0.013617327
0.5376808 0.29689246 -0.013009138
0.53688157 0.2982811 -0.013644306
0.53687513 0.29917967 -0.013657795
0.53766143 0.29958341 -0.013049535
0.53793645 -0.099528514 -0.010224197
0.53792989 -0.098625168 -0.010237758
0.5379234 -0.09772183 -0.010251319
0.5379169 -0.096818484 -0.010264881
0.5379104 -0.095915139 -0.010278442
0.5379039 -0.095011793 -0.010292003
0.53789741 -0.094108455 -0.010305564
0.53789091 -0.093205109 -0.010319125
0.53788441 -0.092301764 -0.010332686
0.53787792 -0.091398418 -0.010346247
0.53787142 -0.090495072 -0.010359809
0.53786492 -0.089591734 -0.01037337
0.53785843 -0.088688388 -0.010386931
0.53785193 -0.08778505 -0.010400492
0.53784543 -0.086881697 -0.010414053
0.53705204 -0.086167037 -0.011040353
0.53704554 -0.085262097 -0.011053938
0.53703904 -0.084357157 -0.011067523
0.53703254 -0.083452225 -0.011081108
0.53702599 -0.082547277 -0.011094693
0.53701949 -0.081642345 -0.011108278
0.53622603 -0.080916524 -0.011734746
0.53621954 -0.080009997 -0.011748355
0.53621298 -0.079103462 -0.011761964
0.53620648 -0.078196928 -0.011775573
0.53619999 -0.077290401 -0.011789182
0.53619343 -0.076383866 -0.011802791
0.53618693 -0.075477347 -0.011816399
0.53618038 -0.074570812 -0.011830009
0.53617388 -0.073664285 -0.011843618
0.53616732 -0.072757751 -0.011857226
0.53616083 -0.071851231 -0.011870835
0.53615427 -0.070944689 -0.011884444
0.53614777 -0.070038155 -0.011898054
0.53614128 -0.069131635 -0.011911662
0.53613472 -0.068225101 -0.011925272
0.53612822 -0.067318574 -0.01193888
0.53612167 -0.066412047 -0.011952489
0.53611517 -0.06550552 -0.011966098
0.53610861 -0.064598978 -0.011979708
0.53610212 -0.063692443 -0.011993316
0.53609562 -0.062785923 -0.012006924
0.53608906 -0.061879389 -0.012020534
0.53686976 -0.060828798 -0.011420734
0.53686321 -0.059923857 -0.011434318
0.53685671 -0.059018932 -0.011447904
0.53685021 -0.058113988 -0.011461489
0.53684372 -0.057209048 -0.011475074
0.53683716 -0.056304116 -0.011488659
0.53683066 -0.055399179 -0.011502244
0.53682417 -0.054494239 -0.011515829
0.53681767 -0.053589299 -0.011529414
0.53681111 -0.052684363 -0.011542999
0.53680462 -0.05177943 -0.011556584
0.53679812 -0.05087449 -0.01157017
0.53679162 -0.049969554 -0.011583754
0.53678507 -0.049064621 -0.011597339
0.53677857 -0.048159685 -0.011610924
0.53677207 -0.047254745 -0.011624509
0.53676558 -0.046349809 -0.011638095
0.53675908 -0.045444872 -0.011651679
0.53675252 -0.044539932 -0.011665264
0.53674603 -0.043635 -0.011678849
0.53673953 -0.042730063 -0.011692435
0.53673303 -0.041825123 -0.01170602
0.53672647 -0.040920191 -0.011719604
0.53671998 -0.040015254 -0.011733189
0.53671348 -0.03911031 -0.011746774
0.53670698 -0.038205378 -0.01176036
0.53670043 -0.037300441 -0.011773945
0.53669393 -0.036395501 -0.01178753
0.53668743 -0.035490569 -0.011801114
0.53668094 -0.034585632 -0.0118147
0.53667438 -0.033680692 -0.011828285
0.53666788 -0.03277576 -0.01184187
0.53744894 -0.03177774 -0.01124128
0.53744245 -0.030874394 -0.011254841
0.53743595 -0.02997105 -0.011268402
0.53742945 -0.029067708 -0.011281964
0.53742296 -0.028164364 -0.011295525
0.53741646 -0.027261021 -0.011309086
0.53740996 -0.026357677 -0.011322647
0.53740346 -0.025454333 -0.011336208
0.53739697 -0.024550987 -0.011349769
0.53739047 -0.023647644 -0.01136333
0.53738391 -0.0227443 -0.011376892
0.53737742 -0.021840956 -0.011390453
0.53737092 -0.020937612 -0.011404014
0.53736442 -0.020034274 -0.011417575
0.53735793 -0.019130927 -0.011431136
0.53735143 -0.018227583 -0.011444697
0.53734493 -0.017324239 -0.011458258
0.53733844 -0.016420897 -0.011471819
0.53733194 -0.015517552 -0.011485381
0.53732544 -0.01461421 -0.011498942
0.53731894 -0.013710866 -0.011512503
0.53731245 -0.012807522 -0.011526064
0.53730595 -0.011904177 -0.011539625
0.53729945 -0.011000833 -0.011553186
0.53729296 -0.010097491 -0.011566747
0.53728646 -0.009194145 -0.011580309
0.53806782 -0.0082391445 -0.010979073
0.53806132 -0.0073373937 -0.010992611
0.53805482 -0.0064356443 -0.011006148
0.53804833 -0.0055338913 -0.011019685
0.53804183 -0.0046321424 -0.011033222
0.53803533 -0.003730393 -0.01104676
0.53881687 -0.002786539 -0.010445321
0.53881037 -0.0018863821 -0.010458834
0.53880388 -0.0009862252 -0.010472347
0.53879744 -8.6068329e-05 -0.010485861
0.53800291 0.00077836058 -0.011114446
0.53799641 0.0016801107 -0.011127982
0.53798991 0.0025818618 -0.01114152
0.53719544 0.0034526647 -0.011770164
0.53718895 0.004356008 -0.011783726
0.53639442 0.0052315909 -0.012412441
0.53638792 0.0061365273 -0.012426026
0.53559333 0.0070168898 -0.013054814
0.53558683 0.0079234196 -0.013068423
0.53558028 0.0088299504 -0.013082032
0.53478563 0.009716684 -0.013710951
0.53477913 0.010624807 -0.013724584
0.53477257 0.011532931 -0.013738218
0.53476602 0.012441054 -0.01375185
0.53397137 0.013335754 -0.014380854
0.53396481 0.014245471 -0.01439451
0.53395832 0.015155188 -0.014408167
0.53395176 0.016064905 -0.014421823
0.53473336 0.016981671 -0.013820015
0.53472686 0.017889794 -0.013833648
0.5347203 0.018797917 -0.01384728
0.53471375 0.019706041 -0.013860913
0.53470725 0.020614164 -0.013874546
0.53470069 0.021522287 -0.013888179
0.53548247 0.0224279 -0.013286166
0.53626418 0.023330327 -0.012684141
0.53625768 0.024235265 -0.012697726
0.53703946 0.025132911 -0.012095631
0.53703296 0.026036257 -0.012109192
0.53781474 0.026929123 -0.011507024
0.53859663 0.027818806 -0.010904772
0.53937846 0.028705301 -0.010302508
0.54016036 0.02958861 -0.0097001977
0.54015392 0.030485582 -0.0097136628
0.54093581 0.031364109 -0.0091112796
0.54092938 0.032259487 -0.0091247214
0.54092294 0.033154868 -0.0091381632
0.54170489 0.034027025 -0.0085356841
0.54248691 0.034895994 -0.0079331212
0.54248047 0.035788182 -0.0079465145
0.54326248 0.036652375 -0.0073439167
0.5432561 0.037542973 -0.0073572863
0.54403812 0.038402386 -0.0067546163
0.54403174 0.039291389 -0.0067679621
0.5440253 0.040180393 -0.006781308
0.54401892 0.0410694 -0.0067946538
0.54401255 0.041958403 -0.0068079997
0.54479462 0.042808253 -0.0062051862
0.62514019 0.050413128 0.056469772
0.625135 0.051138032 0.05645889
0.62512976 0.05186294 0.056448009
0.62512457 0.052587848 0.056437127
0.62511933 0.053312752 0.056426242
0.62432534 0.05411027 0.05579868
0.62432009 0.054836769 0.055787776
0.6243149 0.055563267 0.055776868
0.62430966 0.056289762 0.055765964
0.62430441 0.057016261 0.055755056
0.62429923 0.05774276 0.055744149
0.62429398 0.058469262 0.055733245
0.62428874 0.059195757 0.055722337
0.62349468 0.060007613 0.055094577
0.62348944 0.060735703 0.055083647
0.62348419 0.061463796 0.055072717
0.62347895 0.062191889 0.055061787
0.6234737 0.062919974 0.055050857
0.62346852 0.063648067 0.055039927
0.62267435 0.064471081 0.054411981
0.62266904 0.065200768 0.054401029
0.6226638 0.065930448 0.054390073
0.62265855 0.066660136 0.05437912
0.62265331 0.067389816 0.054368164
0.62264806 0.068119504 0.054357212
0.62264282 0.068849191 0.054346256
0.62263757 0.069578871 0.054335304
0.62263232 0.070308559 0.054324348
0.62262708 0.071038246 0.054313395
0.62262183 0.071767926 0.054302439
0.62261659 0.072497614 0.054291487
0.62261128 0.073227301 0.054280531
0.62260604 0.073956981 0.054269578
0.62260079 0.074686669 0.054258622
0.62259555 0.075416356 0.05424767
0.6218012 0.076266445 0.053619336
0.62179595 0.076997712 0.053608358
0.62179071 0.077729002 0.053597379
0.62178546 0.078460276 0.053586401
0.62178016 0.079191558 0.053575423
0.62177491 0.07992284 0.053564448
0.62255883 0.080524147 0.054170992
0.62255359 0.081253834 0.054160036
0.62254828 0.081983514 0.054149084
0.62254304 0.082713202 0.054138128
0.62174863 0.08357922 0.053509556
0.62253255 0.084172569 0.054116219
0.6225273 0.084902264 0.054105267
0.62252206 0.085631944 0.054094311
0.62251681 0.086361624 0.054083358
0.53567821 0.10477464 -0.013906795
0.536461 0.1055305 -0.01330257
0.5364545 0.10643383 -0.01331613
0.536448 0.10733719 -0.013329692
0.53723079 0.10808668 -0.012725372
0.53722435 0.10898842 -0.012738909
0.53800726 0.10973312 -0.01213448
0.53800076 0.11063327 -0.012147994
0.53799427 0.11153343 -0.012161506
0.53798783 0.11243358 -0.01217502
0.53798133 0.11333374 -0.012188533
0.53797483 0.1142339 -0.012202047
0.5379684 0.11513405 -0.012215559
0.5379619 0.11603421 -0.012229073
0.5379554 0.11693437 -0.012242586
0.53794897 0.11783453 -0.0122561
0.53794247 0.11873468 -0.012269613
0.53793597 0.11963484 -0.012283126
0.53792953 0.120535 -0.012296639
0.53792304 0.12143516 -0.012310153
0.53791654 0.12233531 -0.012323666
0.5379101 0.12323547 -0.012337179
0.53790361 0.12413563 -0.012350692
0.53710753 0.12521993 -0.012982578
0.53631151 0.1263074 -0.013614476
0.53630501 0.12721075 -0.013628037
0.53550887 0.12830301 -0.014260005
0.53550237 0.12920794 -0.01427359
0.53470623 0.13030496 -0.014905631
0.5339101 0.1314052 -0.015537756
0.5331139 0.13250861 -0.016169891
0.53310734 0.13341834 -0.016183548
0.53310078 0.13432804 -0.016197205
0.53309429 0.13523777 -0.016210862
0.53308773 0.13614748 -0.016224518
0.53308117 0.13705719 -0.016238175
0.53307462 0.13796692 -0.016251832
0.53306806 0.13887662 -0.016265489
0.53306156 0.13978635 -0.016279146
0.53305501 0.14069606 -0.016292803
0.53304845 0.14160578 -0.01630646
0.53304189 0.1425155 -0.016320117
0.53303534 0.14342521 -0.016333774
0.5338186 0.14411893 -0.015728615
0.53381205 0.14502706 -0.015742248
0.53380555 0.14593518 -0.015755881
0.53458887 0.14662251 -0.015150592
0.53458232 0.14752904 -0.0151642
0.53536564 0.14821161 -0.014558876
0.53535914 0.14911655 -0.01457246
0.53614247 0.14979436 -0.013967064
0.53613597 0.15069768 -0.013980625
0.53612947 0.15160103 -0.013994186
0.53612298 0.15250437 -0.014007747
0.53611648 0.15340772 -0.014021309
0.53689992 0.15407595 -0.013415769
0.53689343 0.15497769 -0.013429306
0.53688693 0.15587945 -0.013442843
0.53688043 0.1567812 -0.01345638
0.53687394 0.15768296 -0.013469918
0.5376575 0.1583416 -0.012864198
0.537651 0.15924175 -0.01287771
0.53764457 0.16014193 -0.012891224
0.53763807 0.16104206 -0.012904737
0.53763157 0.16194223 -0.01291825
0.53762513 0.16284238 -0.012931763
0.53761864 0.16374254 -0.012945277
0.5384022 0.16438848 -0.012339402
0.53839576 0.16528702 -0.012352891
0.53838927 0.1661856 -0.012366381
0.53838283 0.16708417 -0.01237987
0.53837633 0.16798271 -0.012393359
0.53836989 0.16888128 -0.012406848
0.53915352 0.16951607 -0.011800806
0.53914708 0.17041303 -0.011814272
0.53914064 0.17131001 -0.011827737
0.5391342 0.17220698 -0.011841203
0.53912771 0.17310394 -0.011854668
0.53912127 0.17400092 -0.011868133
0.53911483 0.17489789 -0.011881599
0.53831816 0.17606981 -0.012514764
0.53831172 0.17696837 -0.012528253
0.53830522 0.17786692 -0.012541742
0.53829879 0.17876551 -0.012555231
0.53829229 0.17966406 -0.012568721
0.53828585 0.18056262 -0.01258221
0.53827935 0.18146119 -0.012595699
0.53827292 0.18235976 -0.012609189
0.53826642 0.18325831 -0.012622679
0.53825998 0.18415688 -0.012636168
0.53825349 0.18505546 -0.012649657
0.53824705 0.185954 -0.012663146
0.53824055 0.18685257 -0.012676636
0.53823411 0.18775113 -0.012690125
0.53822762 0.1886497 -0.012703614
0.53822118 0.18954827 -0.012717104
0.53821468 0.19044682 -0.012730593
0.53820825 0.19134539 -0.012744083
0.53820181 0.19224396 -0.012757572
0.53819531 0.19314252 -0.012771062
0.53818887 0.19404107 -0.012784551
0.53818238 0.19493966 -0.01279804
0.53817594 0.19583821 -0.012811529
0.53816944 0.19673677 -0.012825019
0.53895348 0.19732215 -0.012218235
0.53894705 0.19821914 -0.012231701
0.53894055 0.1991161 -0.012245166
0.53893411 0.20001307 -0.012258631
0.53892767 0.20091005 -0.012272097
0.53892118 0.20180701 -0.012285562
0.53970528 0.20238125 -0.011678611
0.53969884 0.2032766 -0.011692053
0.5396924 0.204172 -0.011705494
0.53968596 0.20506738 -0.011718935
0.53967953 0.20596275 -0.011732377
0.53967309 0.20685814 -0.011745819
0.53966665 0.20775352 -0.011759261
0.53966022 0.20864888 -0.011772702
0.53965378 0.20954426 -0.011786143
0.540438 0.21010259 -0.011178954
0.54043156 0.21099634 -0.01119237
0.54042512 0.21189013 -0.011205789
0.54041868 0.21278393 -0.011219206
0.54041225 0.2136777 -0.011232624
0.54040581 0.21457149 -0.011246041
0.54039937 0.21546528 -0.011259459
0.54039294 0.21635906 -0.011272877
0.53959578 0.21760267 -0.011907117
0.53958935 0.21849804 -0.011920558
0.53958291 0.21939343 -0.011934
0.53957647 0.2202888 -0.011947442
0.53957003 0.22118418 -0.011960884
0.53956354 0.22207956 -0.011974324
0.5395571 0.22297494 -0.011987766
0.53955066 0.22387031 -0.012001208
0.53954422 0.22476569 -0.012014649
0.53953779 0.22566105 -0.012028091
0.53953135 0.22655645 -0.012041532
0.53952491 0.22745183 -0.012054974
0.54030937 0.22797824 -0.011447305
0.54030293 0.22887205 -0.011460723
0.54029649 0.22976583 -0.011474141
0.54029006 0.2306596 -0.011487558
0.54028362 0.23155339 -0.011500976
0.54027718 0.23244719 -0.011514394
0.54027075 0.23334096 -0.011527811
0.54105532 0.23385462 -0.010919914
0.54104894 0.23474683 -0.010933308
0.54104251 0.23563902 -0.010946701
0.54103607 0.2365312 -0.010960095
0.54102969 0.23742339 -0.010973489
0.54102325 0.2383156 -0.010986882
0.54101682 0.23920779 -0.011000277
0.54101038 0.24009997 -0.01101367
0.541004 0.24099217 -0.011027063
0.54099756 0.24188437 -0.011040458
0.54099113 0.24277654 -0.011053851
0.54098475 0.24366874 -0.011067244
0.54097831 0.24456094 -0.011080639
0.54097188 0.24545313 -0.011094032
0.5409655 0.24634531 -0.011107426
0.54016787 0.24764152 -0.011742493
0.54016143 0.24853531 -0.011755911
0.54015499 0.24942909 -0.011769328
0.54014856 0.25032288 -0.011782746
0.54014212 0.25121668 -0.011796163
0.54013574 0.25211042 -0.011809581
0.5401293 0.25300422 -0.011822999
0.54012287 0.25389802 -0.011836416
0.53932518 0.25520852 -0.012471661
0.53931874 0.2561039 -0.012485103
0.5393123 0.25699928 -0.012498545
0.53930587 0.25789467 -0.012511986
0.53929943 0.25879005 -0.012525427
0.53929299 0.2596854 -0.012538869
0.53928655 0.26058078 -0.01255231
0.53928012 0.26147619 -0.012565752
0.53927368 0.26237154 -0.012579193
0.53926718 0.26326692 -0.012592635
0.53926075 0.26416233 -0.012606077
0.53925431 0.26505768 -0.012619518
0.53924787 0.26595306 -0.01263296
0.53924143 0.26684842 -0.0126464
0.539235 0.26774383 -0.012659843
0.53922856 0.26863921 -0.012673284
0.53922212 0.26953459 -0.012686726
0.53921568 0.27042994 -0.012700167
0.53920925 0.27132532 -0.012713608
0.53920281 0.2722207 -0.01272705
0.53919637 0.27311608 -0.012740492
0.53839844 0.27446166 -0.013376264
0.53839201 0.27535862 -0.013389729
0.53838551 0.27625558 -0.013403194
0.53837907 0.27715257 -0.013416659
0.53837264 0.27804956 -0.013430125
0.53836614 0.27894652 -0.01344359
0.53756815 0.28030324 -0.01407953
0.53756171 0.28120181 -0.014093019
0.53755522 0.28210038 -0.014106508
0.53754878 0.28299892 -0.014119998
0.53754234 0.28389749 -0.014133487
0.53753585 0.28479606 -0.014146976
0.53752941 0.28569463 -0.014160465
0.53752291 0.28659317 -0.014173955
0.53751647 0.28749177 -0.014187444
0.53750998 0.28839031 -0.014200933
0.53750354 0.28928885 -0.014214423
0.53749704 0.29018745 -0.014227913
0.53749061 0.29108602 -0.014241402
0.53748411 0.29198456 -0.01425489
0.53747767 0.2928831 -0.01426838
0.53747118 0.2937817 -0.01428187
0.53825647 0.29419503 -0.013672503
0.53745824 0.29557881 -0.014308848
0.53824353 0.29598895 -0.013699434
0.53823709 0.29688591 -0.013712899
0.53823066 0.2977829 -0.013726365
0.53901595 0.29818666 -0.013116854
0.53900951 0.29908204 -0.013130296
0.53928238 -0.099322535 -0.010319328
0.53927588 -0.098420784 -0.010332865
0.53926939 -0.09751904 -0.010346402
0.53926289 -0.096617289 -0.010359939
0.53925639 -0.095715545 -0.010373477
0.53924996 -0.094813786 -0.010387014
0.53924346 -0.093912043 -0.010400551
0.53923696 -0.093010291 -0.010414088
0.53923047 -0.092108533 -0.010427626
0.53922397 -0.091206782 -0.010441163
0.53921747 -0.09030503 -0.0104547
0.53921098 -0.089403287 -0.010468237
0.53920454 -0.088501535 -0.010481774
0.53919804 -0.087599784 -0.010495312
0.53919154 -0.086698033 -0.010508848
0.53918505 -0.085796289 -0.010522386
0.53917855 -0.084894538 -0.010535923
0.53838617 -0.084178276 -0.011163497
0.53837967 -0.083274938 -0.011177058
0.53837317 -0.082371593 -0.011190619
0.53836668 -0.081468247 -0.01120418
0.53836018 -0.080564901 -0.011217741
0.53835368 -0.079661563 -0.011231302
0.53834718 -0.078758217 -0.011244864
0.53755468 -0.078029215 -0.01187263
0.53754818 -0.077124283 -0.011886215
0.53754169 -0.076219343 -0.011899799
0.53753513 -0.075314417 -0.011913384
0.53752863 -0.07440947 -0.01192697
0.53752214 -0.073504537 -0.011940555
0.53751564 -0.072599597 -0.01195414
0.53750908 -0.071694665 -0.011967724
0.53750259 -0.070789725 -0.011981309
0.53749609 -0.069884785 -0.011994895
0.53748959 -0.068979852 -0.01200848
0.53748304 -0.068074912 -0.012022065
0.53747654 -0.067169979 -0.01203565
0.53825617 -0.066111408 -0.011434719
0.53824967 -0.06520807 -0.011448281
0.53824317 -0.064304724 -0.011461842
0.53823668 -0.063401371 -0.011475403
0.53823018 -0.062498033 -0.011488964
0.53822368 -0.061594687 -0.011502525
0.53821719 -0.060691345 -0.011516086
0.53821069 -0.059788 -0.011529647
0.53820419 -0.058884662 -0.011543209
0.5381977 -0.057981312 -0.01155677
0.5381912 -0.057077974 -0.011570331
0.5381847 -0.056174625 -0.011583892
0.53817815 -0.055271287 -0.011597453
0.53817165 -0.054367941 -0.011611014
0.53816515 -0.053464592 -0.011624575
0.53815866 -0.052561253 -0.011638136
0.53815216 -0.051657904 -0.011651698
0.53814566 -0.050754566 -0.011665259
0.53813916 -0.049851224 -0.01167882
0.53813267 -0.048947878 -0.011692381
0.53812617 -0.048044536 -0.011705942
0.53811967 -0.047141191 -0.011719503
0.53811318 -0.046237845 -0.011733063
0.53810668 -0.045334503 -0.011746625
0.53810018 -0.044431157 -0.011760186
0.53809369 -0.043527815 -0.011773747
0.53808719 -0.04262447 -0.011787308
0.53808069 -0.041721128 -0.011800869
0.5380742 -0.040817786 -0.01181443
0.5380677 -0.03991444 -0.011827991
0.5380612 -0.039011095 -0.011841553
0.5380547 -0.038107749 -0.011855114
0.53804821 -0.037204407 -0.011868675
0.53804165 -0.036301065 -0.011882236
0.53803515 -0.035397723 -0.011895797
0.53802866 -0.034494381 -0.011909358
0.53802216 -0.033591036 -0.011922919
0.53880227 -0.032593008 -0.01132108
0.53879577 -0.031691249 -0.011334618
0.53878927 -0.030789502 -0.011348154
0.53878278 -0.029887753 -0.011361692
0.53877628 -0.028986003 -0.011375229
0.53876978 -0.028084254 -0.011388767
0.53876328 -0.027182501 -0.011402303
0.53875685 -0.026280751 -0.011415841
0.53875035 -0.025379002 -0.011429378
0.53874385 -0.024477251 -0.011442915
0.53873736 -0.023575502 -0.011456452
0.53873086 -0.022673748 -0.011469989
0.53951114 -0.021696428 -0.010867802
0.53950465 -0.020796269 -0.010881316
0.53949815 -0.019896114 -0.010894829
0.53949171 -0.018995956 -0.010908343
0.53948522 -0.018095797 -0.010921855
0.53947872 -0.01719564 -0.010935369
0.53947228 -0.016295483 -0.010948882
0.53946579 -0.015395326 -0.010962396
0.53945929 -0.014495169 -0.010975908
0.53945285 -0.013595012 -0.010989422
0.53944635 -0.012694855 -0.011002935
0.53943986 -0.011794696 -0.011016449
0.53943342 -0.010894541 -0.011029962
0.53942692 -0.0099943839 -0.011043475
0.54020733 -0.009040961 -0.010440966
