# .PCD v0.7 - Point Cloud Data file format
VERSION 0.7
FIELDS x y z
SIZE 4 4 4
TYPE F F F
COUNT 1 1 1
WIDTH 1311
HEIGHT 1
VIEWPOINT 0 0 0 1 0 0 0
POINTS 1311
DATA ascii
0.68237156 0.08975105 -0.010446673
0.68236643 0.090469569 -0.01045746
0.68236125 0.09118811 -0.010468247
0.68235606 0.091906644 -0.010479034
0.68235087 0.092625171 -0.010489821
0.68234575 0.093343705 -0.010500607
0.68234056 0.094062239 -0.010511394
0.68233538 0.094780773 -0.01052218
0.68233019 0.095499307 -0.010532967
0.68232507 0.096217833 -0.010543753
0.68231988 0.096936367 -0.010554541
0.68231469 0.097654909 -0.010565327
0.68230951 0.098373428 -0.010576114
0.68297333 0.09891881 -0.0098161846
0.68296814 0.099635758 -0.0098269479
0.68296301 0.10035269 -0.0098377103
0.68295783 0.10106963 -0.0098484736
0.6829527 0.10178657 -0.009859236
0.68294752 0.10250352 -0.0098699993
0.68294239 0.10322044 -0.0098807616
0.6829372 0.10393739 -0.009891524
0.68293208 0.10465433 -0.0099022873
0.68292689 0.10537127 -0.0099130496
0.68292177 0.10608821 -0.0099238129
0.68291658 0.10680515 -0.0099345753
0.6829114 0.10752209 -0.0099453386
0.68290627 0.10823902 -0.009956101
0.68290108 0.10895596 -0.0099668643
0.68289596 0.1096729 -0.0099776266
0.68289077 0.11038984 -0.0099883899
0.68288565 0.11110679 -0.0099991523
0.68288046 0.11182372 -0.010009915
0.68287534 0.11254066 -0.010020678
0.68287015 0.1132576 -0.01003144
0.68286502 0.11397454 -0.010042204
0.68285984 0.11469147 -0.010052966
0.68352389 0.11519863 -0.009292488
0.68351871 0.11591396 -0.0093032261
0.68351358 0.11662932 -0.0093139652
0.68350846 0.11734467 -0.0093247043
0.68350327 0.11806002 -0.0093354434
0.68349814 0.11877535 -0.0093461815
0.68349302 0.1194907 -0.0093569206
0.68348783 0.12020605 -0.0093676597
0.68348271 0.12092139 -0.0093783988
0.68347758 0.12163674 -0.0093891369
0.68347239 0.12235209 -0.009399876
0.68346727 0.12306743 -0.0094106151
0.68346214 0.12378278 -0.0094213542
0.68345696 0.12449813 -0.0094320932
0.68345183 0.12521347 -0.0094428314
0.68344671 0.12592882 -0.0094535705
0.68344152 0.12664416 -0.0094643096
0.68343639 0.12735951 -0.0094750486
0.68343121 0.12807487 -0.0094857877
0.68342608 0.1287902 -0.0094965259
0.68342096 0.12950554 -0.0095072649
0.68341577 0.13022089 -0.009518004
0.68341064 0.13093625 -0.0095287431
0.68340552 0.13165158 -0.0095394813
0.68340033 0.13236693 -0.0095502203
0.68339521 0.13308227 -0.0095609594
0.68339008 0.13379763 -0.0095716985
0.6833849 0.13451298 -0.0095824366
0.68337977 0.13522832 -0.0095931757
0.68337464 0.13594367 -0.0096039148
0.68336946 0.13665901 -0.0096146539
0.68336433 0.13737436 -0.009625392
0.68335915 0.1380897 -0.0096361311
0.68335402 0.13880505 -0.0096468702
0.68334889 0.13952041 -0.0096576093
0.68334371 0.14023574 -0.0096683484
0.68333858 0.14095108 -0.0096790865
0.68333346 0.14166644 -0.0096898256
0.68332827 0.14238177 -0.0097005647
0.68332314 0.14309712 -0.0097113037
0.68331802 0.14381248 -0.0097220419
0.68331283 0.14452782 -0.009732781
0.68330771 0.14524315 -0.0097435201
0.68330258 0.14595851 -0.0097542591
0.6832974 0.14667386 -0.0097649982
0.68329227 0.1473892 -0.0097757364
0.68328714 0.14810455 -0.0097864754
0.68328196 0.14881989 -0.0097972145
0.68327683 0.14953525 -0.0098079536
0.68327165 0.15025058 -0.0098186918
0.6839363 0.15067647 -0.0090569695
0.68393117 0.15139022 -0.0090676844
0.68392605 0.15210398 -0.0090783993
0.68392092 0.15281773 -0.0090891141
0.68391579 0.15353149 -0.009099829
0.68391067 0.15424524 -0.0091105439
0.68390548 0.15495898 -0.0091212587
0.68390036 0.15567276 -0.0091319736
0.68389523 0.15638649 -0.0091426885
0.6838901 0.15710025 -0.0091534043
0.68388498 0.15781401 -0.0091641191
0.68387985 0.15852776 -0.009174834
0.68387473 0.1592415 -0.0091855489
0.68386954 0.15995526 -0.0091962637
0.68386441 0.16066901 -0.0092069786
0.68385929 0.16138278 -0.0092176935
0.68385416 0.16209653 -0.0092284083
0.68384904 0.16281027 -0.0092391232
0.68384391 0.16352405 -0.009249839
0.68383873 0.16423778 -0.0092605529
0.6838336 0.16495153 -0.0092712687
0.68382847 0.16566528 -0.0092819836
0.68382335 0.16637905 -0.0092926985
0.68381822 0.16709279 -0.0093034133
0.68448311 0.16747886 -0.0085411165
0.68447798 0.16819102 -0.0085518081
0.68447286 0.16890319 -0.0085624987
0.68446773 0.16961533 -0.0085731894
0.68446261 0.17032748 -0.008583881
0.68445748 0.17103967 -0.0085945725
0.68445235 0.17175181 -0.0086052632
0.68444723 0.17246398 -0.0086159538
0.6844421 0.17317614 -0.0086266454
0.68443698 0.1738883 -0.0086373361
0.68443185 0.17460045 -0.0086480267
0.68442678 0.17531261 -0.0086587183
0.68442166 0.17602478 -0.008669409
0.68441653 0.17673694 -0.0086801006
0.68441141 0.17744909 -0.0086907912
0.68440628 0.17816126 -0.0087014828
0.68440115 0.17887342 -0.0087121734
0.68439603 0.17958556 -0.0087228641
0.6843909 0.18029773 -0.0087335557
0.68438578 0.1810099 -0.0087442463
0.68371034 0.18208161 -0.0095284274
0.68370521 0.18279535 -0.0095391423
0.68370008 0.18350911 -0.0095498571
0.68369496 0.18422286 -0.009560572
0.68368983 0.18493663 -0.0095712868
0.68368471 0.18565036 -0.0095820017
0.68367952 0.18636413 -0.0095927166
0.6836744 0.18707788 -0.0096034314
0.68366927 0.18779163 -0.0096141472
0.68366414 0.18850537 -0.0096248612
0.68365902 0.18921915 -0.009635577
0.68432426 0.18955582 -0.0088725388
0.68431914 0.19026797 -0.0088832295
0.68431401 0.19098014 -0.008893921
0.68430889 0.19169229 -0.0089046117
0.68430376 0.19240445 -0.0089153033
0.68429863 0.19311661 -0.0089259939
0.68429351 0.19382878 -0.0089366855
0.68428838 0.19454093 -0.0089473762
0.68428326 0.19525309 -0.0089580668
0.68427813 0.19596526 -0.0089687584
0.684273 0.1966774 -0.008979449
0.68426788 0.19738957 -0.0089901406
0.68426281 0.19810173 -0.0090008313
0.68425769 0.1988139 -0.0090115229
0.68425256 0.19952606 -0.0090222135
0.68424743 0.2002382 -0.0090329042
0.68424231 0.20095038 -0.0090435958
0.68423718 0.20166253 -0.0090542864
0.68423206 0.20237468 -0.009064978
0.68355632 0.20349419 -0.0098498752
0.68355113 0.20420794 -0.009860591
0.68354601 0.20492171 -0.0098713059
0.68354088 0.20563546 -0.0098820208
0.68353575 0.20634921 -0.0098927356
0.68353063 0.20706297 -0.0099034505
0.6835255 0.20777671 -0.0099141654
0.68352032 0.20849046 -0.0099248802
0.68351519 0.20920423 -0.0099355951
0.68351007 0.20991798 -0.0099463109
0.68350494 0.21063173 -0.0099570248
0.68349981 0.21134548 -0.0099677406
0.68349469 0.21205923 -0.0099784555
0.6834895 0.212773 -0.0099891704
0.68348438 0.21348673 -0.0099998852
0.68347925 0.2142005 -0.0100106
0.68347412 0.21491425 -0.010021315
0.68279815 0.21606244 -0.010806669
0.68346387 0.21634173 -0.010042745
0.68345869 0.21705551 -0.01005346
0.68345356 0.21776925 -0.010064174
0.68344843 0.21848302 -0.01007489
0.68344331 0.21919677 -0.010085605
0.68343818 0.21991052 -0.01009632
0.68343306 0.22062427 -0.010107035
0.68342787 0.22133802 -0.01011775
0.68342274 0.22205177 -0.010128465
0.68341762 0.22276554 -0.010139179
0.68341249 0.22347927 -0.010149894
0.68340737 0.22419304 -0.010160609
0.68340224 0.22490679 -0.010171324
0.68339711 0.22562054 -0.010182039
0.68339193 0.22633429 -0.010192754
0.6833868 0.22704805 -0.01020347
0.68338168 0.22776179 -0.010214184
0.68337655 0.22847556 -0.010224899
0.68270034 0.22965403 -0.011010706
0.68269521 0.23036937 -0.011021446
0.68269008 0.2310847 -0.011032185
0.6826849 0.23180006 -0.011042924
0.68267977 0.23251541 -0.011053663
0.68267459 0.23323075 -0.011064401
0.68266946 0.2339461 -0.01107514
0.68266433 0.23466145 -0.011085879
0.68265915 0.23537679 -0.011096618
0.68265402 0.23609214 -0.011107356
0.6826489 0.23680748 -0.011118095
0.68264371 0.23752283 -0.011128834
0.68263859 0.23823819 -0.011139574
0.68263346 0.23895352 -0.011150312
0.68262827 0.23966886 -0.011161051
0.6861816 -0.099856049 -0.0058560264
0.68617642 -0.099142298 -0.0058667413
0.68617129 -0.098428547 -0.0058774562
0.68616617 -0.097714789 -0.005888171
0.68549621 -0.097264439 -0.0066642994
0.68549109 -0.096549094 -0.006675038
0.6854859 -0.095833741 -0.0066857771
0.68548077 -0.095118403 -0.0066965157
0.68547565 -0.094403051 -0.0067072548
0.68547046 -0.093687706 -0.0067179934
0.68546534 -0.092972361 -0.0067287325
0.68546021 -0.092257015 -0.0067394711
0.68545502 -0.09154167 -0.0067502102
0.6854499 -0.090826318 -0.0067609488
0.68544471 -0.09011098 -0.0067716879
0.68543959 -0.089395627 -0.006782427
0.68543446 -0.088680282 -0.0067931656
0.68542928 -0.087964937 -0.0068039047
0.68608916 -0.087008506 -0.0060488954
0.68608403 -0.086294748 -0.0060596103
0.68607885 -0.08558099 -0.0060703252
0.68607372 -0.084867239 -0.00608104
0.68606859 -0.084153488 -0.0060917553
0.68606347 -0.083439738 -0.0061024702
0.68605834 -0.082725979 -0.0061131851
0.68605322 -0.082012221 -0.0061238999
0.68604803 -0.081298478 -0.0061346148
0.6860429 -0.08058472 -0.0061453301
0.68537265 -0.080096133 -0.0069220322
0.68536752 -0.07938078 -0.0069327708
0.6853624 -0.078665435 -0.0069435099
0.68535721 -0.07795009 -0.0069542485
0.68535209 -0.077234745 -0.0069649876
0.68534696 -0.076519392 -0.0069757262
0.68534178 -0.075804055 -0.0069864653
0.68533665 -0.075088702 -0.0069972044
0.68533152 -0.074373357 -0.007007943
0.68532634 -0.073658019 -0.0070186816
0.68532121 -0.072942667 -0.0070294207
0.68531609 -0.072227322 -0.0070401598
0.6853109 -0.071511976 -0.0070508984
0.68530577 -0.070796631 -0.0070616375
0.68530065 -0.070081279 -0.0070723761
0.68529546 -0.069365926 -0.0070831152
0.68595564 -0.06845092 -0.0063274843
0.68595046 -0.067737162 -0.0063381991
0.68594533 -0.067023411 -0.006348914
0.68594021 -0.066309653 -0.0063596289
0.68593508 -0.06559591 -0.0063703437
0.68592995 -0.064882152 -0.0063810591
0.68592483 -0.064168401 -0.0063917739
0.68591964 -0.06345465 -0.0064024888
0.68591452 -0.062740892 -0.0064132037
0.68590939 -0.062027141 -0.0064239185
0.68523884 -0.061497129 -0.0072012427
0.68523371 -0.060781784 -0.0072119813
0.68522859 -0.060066435 -0.0072227204
0.6852234 -0.05935109 -0.007233459
0.68521827 -0.058635741 -0.0072441981
0.68521315 -0.057920393 -0.0072549372
0.68520796 -0.057205047 -0.0072656758
0.68520284 -0.056489699 -0.0072764149
0.68519765 -0.055774361 -0.0072871535
0.68519253 -0.055059012 -0.0072978926
0.6851874 -0.054343671 -0.0073086312
0.68518221 -0.053628318 -0.0073193703
0.68517709 -0.052912977 -0.0073301089
0.68583751 -0.052034602 -0.0065739281
0.68583238 -0.051320843 -0.0065846429
0.6858272 -0.050607096 -0.0065953578
0.68582207 -0.049893342 -0.0066060731
0.68581694 -0.049179591 -0.006616788
0.68581182 -0.048465837 -0.0066275029
0.68580669 -0.047752082 -0.0066382177
0.68580157 -0.047038328 -0.0066489326
0.68579644 -0.046324573 -0.0066596474
0.68579125 -0.045610823 -0.0066703628
0.68578613 -0.044897065 -0.0066810776
0.685781 -0.044183318 -0.0066917925
0.68577588 -0.043469563 -0.0067025074
0.68510503 -0.042898126 -0.0074804532
0.6850999 -0.042182781 -0.0074911923
0.68509471 -0.041467436 -0.0075019309
0.68508959 -0.040752087 -0.00751267
0.68508446 -0.040036742 -0.0075234086
0.68507928 -0.039321393 -0.0075341477
0.68507415 -0.038606048 -0.0075448863
0.68506902 -0.037890702 -0.0075556254
0.68506384 -0.037175354 -0.0075663645
0.68505871 -0.036460008 -0.0075771031
0.68505359 -0.035744663 -0.0075878422
0.6850484 -0.035029318 -0.0075985808
0.68504328 -0.034313973 -0.0076093199
0.68503815 -0.033598624 -0.0076200585
0.68503296 -0.032883279 -0.0076307976
0.68502784 -0.03216793 -0.0076415362
0.68502265 -0.031452585 -0.0076522753
0.68501753 -0.030737238 -0.0076630143
0.6850124 -0.030021891 -0.007673753
0.68500721 -0.02930655 -0.007684492
0.68500209 -0.028591203 -0.0076952307
0.68499696 -0.027875856 -0.0077059697
0.68499178 -0.027160505 -0.0077167084
0.68498665 -0.026445162 -0.0077274474
0.68498152 -0.025729816 -0.007738186
0.68497634 -0.025014469 -0.0077489251
0.68497121 -0.024299122 -0.0077596637
0.68496609 -0.023583775 -0.0077704028
0.6849609 -0.022868434 -0.0077811414
0.68495578 -0.022153087 -0.0077918805
0.68495059 -0.021437736 -0.0078026196
0.68494546 -0.020722389 -0.0078133587
0.68494034 -0.020007046 -0.0078240968
0.68493515 -0.019291701 -0.0078348359
0.68493003 -0.018576354 -0.007845575
0.6849249 -0.017861007 -0.0078563141
0.68491971 -0.017145662 -0.0078670522
0.68491459 -0.016430315 -0.0078777913
0.68490946 -0.015714968 -0.0078885304
0.68490428 -0.014999622 -0.0078992695
0.68489915 -0.014284275 -0.0079100085
0.68489403 -0.013568929 -0.0079207467
0.68488884 -0.012853584 -0.0079314858
0.68488371 -0.012138238 -0.0079422249
0.68487859 -0.011422891 -0.0079529639
0.6848734 -0.010707544 -0.0079637021
0.68486828 -0.0099921999 -0.0079744412
0.68486309 -0.0092768529 -0.0079851802
0.68485796 -0.0085615069 -0.0079959193
0.68485284 -0.0078461599 -0.0080066584
0.68484765 -0.0071308133 -0.0080173966
0.68484253 -0.0064154686 -0.0080281356
0.6848374 -0.0057001202 -0.0080388747
0.68483222 -0.0049847756 -0.0080496138
0.68482709 -0.0042694286 -0.0080603519
0.68482196 -0.0035540822 -0.008071091
0.68481678 -0.0028387355 -0.0080818301
0.68481165 -0.0021233908 -0.0080925692
0.68414015 -0.0014579502 -0.0088719018
0.68413502 -0.00074100937 -0.0088826641
0.68412983 -2.4070423e-05 -0.0088934274
0.68412471 0.00069286855 -0.0089041898
0.68411952 0.0014098084 -0.0089149531
0.68411434 0.0021267473 -0.0089257155
0.68410921 0.0028436873 -0.0089364788
0.68410403 0.0035606262 -0.0089472411
0.6840989 0.004277566 -0.0089580035
0.68409371 0.0049945051 -0.0089687668
0.68408859 0.0057114442 -0.0089795291
0.6840834 0.0064283833 -0.0089902924
0.68407828 0.0071453229 -0.0090010548
0.68407309 0.0078622624 -0.0090118181
0.6840679 0.008579202 -0.0090225805
0.68406278 0.0092961406 -0.0090333438
0.68405759 0.01001308 -0.0090441061
0.68405247 0.01073002 -0.0090548694
0.68404728 0.011446959 -0.0090656318
0.68404216 0.012163899 -0.0090763941
0.68403697 0.012880838 -0.0090871574
0.68403184 0.013597777 -0.0090979198
0.68402666 0.014314717 -0.0091086831
0.68468809 0.015044919 -0.0083503015
0.68468297 0.015760265 -0.0083610406
0.68467784 0.016475612 -0.0083717797
0.68467265 0.017190957 -0.0083825188
0.68466753 0.017906304 -0.0083932569
0.6846624 0.018621651 -0.008403996
0.68465722 0.019336997 -0.0084147351
0.68465209 0.020052344 -0.0084254742
0.68464696 0.020767689 -0.0084362123
0.68464178 0.021483036 -0.0084469514
0.68463665 0.022198381 -0.0084576905
0.68463153 0.022913728 -0.0084684296
0.68462634 0.023629073 -0.0084791686
0.68462121 0.02434442 -0.0084899068
0.68461609 0.025059767 -0.0085006459
0.6846109 0.025775112 -0.0085113849
0.68460578 0.026490459 -0.008522124
0.68460059 0.027205804 -0.0085328622
0.68459547 0.027921151 -0.0085436013
0.68459034 0.028636498 -0.0085543403
0.68458515 0.029351844 -0.0085650794
0.68458003 0.030067191 -0.0085758185
0.6845749 0.030782536 -0.0085865567
0.68456972 0.031497885 -0.0085972957
0.68456459 0.032213226 -0.0086080348
0.68455946 0.032928575 -0.0086187739
0.68455428 0.03364392 -0.008629512
0.68454915 0.034359269 -0.0086402511
0.68454403 0.035074614 -0.0086509902
0.68453884 0.035789959 -0.0086617293
0.68453372 0.036505304 -0.0086724684
0.68452853 0.037220653 -0.0086832065
0.6845234 0.037935998 -0.0086939456
0.68451828 0.038651343 -0.0087046847
0.68451309 0.039366692 -0.0087154238
0.68450797 0.040082037 -0.0087261619
0.68450284 0.040797383 -0.008736901
0.68449765 0.041512728 -0.0087476401
0.68449253 0.042228077 -0.0087583791
0.6844874 0.042943422 -0.0087691173
0.68448222 0.043658767 -0.0087798564
0.68447709 0.044374112 -0.0087905955
0.68447196 0.045089461 -0.0088013345
0.68446678 0.045804806 -0.0088120736
0.68446165 0.046520155 -0.0088228118
0.68445653 0.0472355 -0.0088335508
0.68378419 0.048010871 -0.0096145337
0.68377906 0.048727807 -0.009625297
0.68377388 0.04944475 -0.0096360594
0.68376875 0.050161686 -0.0096468227
0.68376356 0.050878625 -0.0096575851
0.68375844 0.051595569 -0.0096683484
0.68375325 0.052312508 -0.0096791107
0.68374813 0.053029444 -0.0096898731
0.68374294 0.053746387 -0.0097006364
0.68373781 0.054463323 -0.0097113987
0.68373263 0.055180263 -0.009722162
0.68372744 0.055897202 -0.0097329244
0.68372232 0.056614142 -0.0097436877
0.68371713 0.057331081 -0.0097544501
0.68371201 0.058048021 -0.0097652134
0.68370682 0.058764961 -0.0097759757
0.68370169 0.059481896 -0.0097867381
0.68369651 0.06019884 -0.0097975014
0.68369138 0.060915779 -0.0098082637
0.6836862 0.061632715 -0.009819027
0.68368107 0.062349658 -0.0098297894
0.68367589 0.063066602 -0.0098405527
0.6836707 0.063783534 -0.0098513151
0.68433297 0.06440381 -0.0090912841
0.68432784 0.065119155 -0.0091020232
0.68432266 0.0658345 -0.0091127614
0.68431753 0.066549845 -0.0091235004
0.6843124 0.06726519 -0.0091342395
0.68430722 0.067980535 -0.0091449786
0.68430209 0.068695888 -0.0091557167
0.68429697 0.069411233 -0.0091664558
0.68429178 0.070126578 -0.0091771949
0.68428665 0.070841923 -0.009187934
0.68428153 0.071557276 -0.0091986731
0.68427634 0.072272621 -0.0092094112
0.68427122 0.072987966 -0.0092201503
0.68426603 0.073703304 -0.0092308894
0.6842609 0.074418657 -0.0092416285
0.68425578 0.075134002 -0.0092523666
0.68425059 0.075849347 -0.0092631057
0.68424547 0.076564692 -0.0092738448
0.68424034 0.077280037 -0.0092845839
0.68423516 0.07799539 -0.009295322
0.68423003 0.078710735 -0.0093060611
0.6842249 0.07942608 -0.0093168002
0.68355209 0.080273136 -0.01009886
0.6835469 0.080990084 -0.010109622
0.68354177 0.081707016 -0.010120385
0.68353659 0.082423963 -0.010131148
0.68353146 0.083140902 -0.010141911
0.68352628 0.083857834 -0.010152673
0.68352115 0.084574781 -0.010163436
0.68351597 0.085291721 -0.010174199
0.68351084 0.086008653 -0.010184961
0.68350565 0.086725593 -0.010195725
0.68350047 0.08744254 -0.010206487
0.68349534 0.088159472 -0.01021725
0.68349016 0.088876411 -0.010228013
0.68348503 0.089593358 -0.010238776
0.68347985 0.09031029 -0.010249538
0.68347472 0.091027237 -0.010260302
0.68346953 0.09174417 -0.010271064
0.68346441 0.092461109 -0.010281826
0.68345922 0.093178049 -0.01029259
0.6834541 0.093894996 -0.010303352
0.68344891 0.094611928 -0.010314115
0.68344373 0.095328867 -0.010324878
0.6834386 0.096045814 -0.010335641
0.68343341 0.096762747 -0.010346403
0.68342829 0.097479686 -0.010357167
0.6834231 0.098196626 -0.010367929
0.68341798 0.098913565 -0.010378692
0.68341279 0.099630512 -0.010389455
0.68340766 0.10034744 -0.010400217
0.68340248 0.10106438 -0.01041098
0.68339735 0.10178132 -0.010421743
0.68339217 0.10249827 -0.010432506
0.68338698 0.1032152 -0.010443268
0.68338186 0.10393214 -0.010454032
0.68337667 0.10464908 -0.010464794
0.68337154 0.10536602 -0.010475557
0.68403447 0.10589389 -0.0097141387
0.68402928 0.10660923 -0.0097248768
0.68402416 0.10732459 -0.0097356159
0.68401897 0.10803992 -0.009746355
0.68401384 0.10875528 -0.0097570941
0.68400872 0.10947062 -0.0097678322
0.68400353 0.11018597 -0.0097785713
0.68399841 0.11090132 -0.0097893104
0.68399328 0.11161666 -0.0098000495
0.68398809 0.11233201 -0.0098107886
0.68398297 0.11304735 -0.0098215267
0.68397784 0.1137627 -0.0098322658
0.68397266 0.11447804 -0.0098430049
0.68396753 0.11519339 -0.0098537439
0.6839624 0.11590873 -0.0098644821
0.68395722 0.11662409 -0.0098752212
0.68395209 0.11733943 -0.0098859603
0.68394697 0.11805478 -0.0098966993
0.68394178 0.11877012 -0.0099074384
0.68393666 0.11948546 -0.0099181766
0.68393147 0.12020081 -0.0099289156
0.68392634 0.12091616 -0.0099396547
0.68392122 0.12163151 -0.0099503938
0.68391603 0.12234686 -0.0099611329
0.68391091 0.1230622 -0.009971871
0.68390578 0.12377755 -0.0099826101
0.68390059 0.12449289 -0.0099933492
0.68389547 0.12520824 -0.010004088
0.68389034 0.12592359 -0.010014826
0.68388516 0.12663893 -0.010025566
0.68388003 0.12735428 -0.010036305
0.68387491 0.12806962 -0.010047044
0.68386972 0.12878497 -0.010057782
0.68386459 0.12950031 -0.010068521
0.68385947 0.13021566 -0.01007926
0.68385428 0.130931 -0.010089999
0.68384916 0.13164635 -0.010100737
0.6845125 0.13211367 -0.0093383854
0.68383884 0.13307704 -0.010122215
0.68383372 0.1337924 -0.010132954
0.68382853 0.13450775 -0.010143694
0.68382341 0.13522308 -0.010154432
0.68381828 0.13593844 -0.010165171
0.6838131 0.13665378 -0.01017591
0.68380797 0.13736911 -0.010186649
0.68380284 0.13808446 -0.010197387
0.68379766 0.13879982 -0.010208126
0.68379253 0.13951516 -0.010218865
0.68445599 0.13996495 -0.0094562499
0.68445086 0.14067872 -0.0094669657
0.68444574 0.14139247 -0.0094776805
0.68444061 0.14210621 -0.0094883954
0.68443549 0.14281997 -0.0094991103
0.68443036 0.14353372 -0.0095098251
0.68442518 0.14424747 -0.00952054
0.68442005 0.14496122 -0.0095312549
0.68441492 0.14567499 -0.0095419697
0.6844098 0.14638872 -0.0095526846
0.68440467 0.14710249 -0.0095633995
0.68439955 0.14781623 -0.0095741143
0.68439436 0.14853001 -0.0095848301
0.68438923 0.14924374 -0.009595545
0.68438411 0.14995749 -0.0096062599
0.68437898 0.15067126 -0.0096169747
0.68437386 0.15138501 -0.0096276896
0.68436873 0.15209875 -0.0096384045
0.6843636 0.15281251 -0.0096491193
0.68435842 0.15352626 -0.0096598342
0.68435329 0.15424001 -0.0096705491
0.68434817 0.15495376 -0.0096812639
0.68434304 0.15566753 -0.0096919797
0.68433791 0.15638128 -0.0097026946
0.68433279 0.15709503 -0.0097134095
0.6843276 0.15780878 -0.0097241243
0.68432248 0.15852255 -0.0097348392
0.68431735 0.15923628 -0.0097455541
0.68431222 0.15995003 -0.0097562689
0.6843071 0.1606638 -0.0097669838
0.68497092 0.16106421 -0.0090036523
0.68496579 0.16177636 -0.0090143429
0.68496066 0.16248854 -0.0090250345
0.68495554 0.16320069 -0.0090357251
0.68495041 0.16391285 -0.0090464158
0.68494529 0.164625 -0.0090571074
0.68494016 0.16533716 -0.009067798
0.68493503 0.16604932 -0.0090784896
0.68492991 0.16676149 -0.0090891803
0.68492478 0.16747364 -0.0090998709
0.68491966 0.16818582 -0.0091105625
0.68491453 0.16889797 -0.0091212532
0.68557853 0.16927765 -0.0083575863
0.6855734 0.16998823 -0.0083682528
0.68556833 0.17069879 -0.0083789201
0.68556321 0.17140937 -0.0083895875
0.68555808 0.17211993 -0.0084002549
0.68555295 0.17283049 -0.0084109213
0.68554789 0.17354107 -0.0084215887
0.68554276 0.17425162 -0.0084322561
0.68553764 0.17496219 -0.0084429225
0.68553251 0.17567277 -0.0084535899
0.68552738 0.17638332 -0.0084642572
0.68552232 0.17709389 -0.0084749246
0.68551719 0.17780447 -0.008485592
0.68551207 0.17851502 -0.0084962584
0.6848377 0.17958036 -0.0092816185
0.68483257 0.18029252 -0.0092923101
0.68482745 0.18100469 -0.0093030008
0.68482232 0.18171684 -0.0093136923
0.68481719 0.182429 -0.009324383
0.68481207 0.18314116 -0.0093350736
0.68480694 0.18385333 -0.0093457652
0.68480182 0.18456548 -0.0093564559
0.68479669 0.18527764 -0.0093671475
0.68479156 0.18598981 -0.0093778381
0.68478644 0.18670195 -0.0093885297
0.68478131 0.18741412 -0.0093992203
0.68477619 0.18812627 -0.009409911
0.68477106 0.18883845 -0.0094206026
0.68476593 0.18955061 -0.0094312932
0.68476081 0.19026275 -0.0094419848
0.68475568 0.19097494 -0.0094526755
0.68475056 0.19168708 -0.0094633661
0.68474543 0.19239923 -0.0094740577
0.68540984 0.19272634 -0.0087096011
0.68540472 0.19343694 -0.0087202685
0.68539959 0.19414748 -0.0087309349
0.68539447 0.19485806 -0.0087416023
0.68538934 0.19556864 -0.0087522697
0.68538427 0.19627918 -0.0087629361
0.68537915 0.19698976 -0.0087736035
0.68537402 0.19770032 -0.0087842708
0.6853689 0.19841088 -0.0087949382
0.68536383 0.19912146 -0.0088056047
0.6853587 0.19983202 -0.008816272
0.68468398 0.20094517 -0.0096023502
0.68467885 0.20165731 -0.0096130408
0.68467373 0.20236948 -0.0096237324
0.6846686 0.20308164 -0.0096344231
0.68466347 0.20379381 -0.0096451147
0.68465835 0.20450597 -0.0096558053
0.68465322 0.20521811 -0.009666496
0.6846481 0.20593029 -0.0096771875
0.68464297 0.20664243 -0.0096878782
0.68463784 0.20735459 -0.0096985698
0.68463272 0.20806676 -0.0097092604
0.68462759 0.20877892 -0.0097199511
0.68462247 0.20949109 -0.0097306427
0.68461734 0.21020323 -0.0097413333
0.68461221 0.21091539 -0.009752024
0.68393731 0.21205401 -0.010538461
0.68393219 0.21276776 -0.010549176
0.68392706 0.21348152 -0.01055989
0.68392193 0.21419528 -0.010570605
0.68391675 0.21490902 -0.01058132
0.68391162 0.21562278 -0.010592035
0.6839065 0.21633652 -0.01060275
0.68390137 0.21705028 -0.010613466
0.68389624 0.21776403 -0.010624181
0.68389112 0.21847779 -0.010634895
0.68388599 0.21919155 -0.01064561
0.68388081 0.2199053 -0.010656325
0.68454558 0.22017346 -0.009891008
0.68454045 0.22088563 -0.0099016987
0.68453538 0.22159779 -0.0099123903
0.68453026 0.22230995 -0.0099230809
0.68452513 0.22302212 -0.0099337725
0.68452001 0.22373427 -0.0099444631
0.68451488 0.22444643 -0.0099551538
0.68383974 0.22561532 -0.010742045
0.68383461 0.22632906 -0.01075276
0.68382949 0.22704282 -0.010763475
0.68382436 0.22775657 -0.01077419
0.68381917 0.22847033 -0.010784904
0.68381405 0.22918409 -0.010795619
0.68380892 0.22989784 -0.010806334
0.6838038 0.23061158 -0.010817049
0.68379867 0.23132534 -0.010827764
0.68379354 0.23203909 -0.010838479
0.68378836 0.23275284 -0.010849195
0.68378323 0.2334666 -0.010859909
0.68377811 0.23418036 -0.010870624
0.68377298 0.2348941 -0.010881339
0.68376786 0.23560786 -0.010892054
0.68376273 0.2363216 -0.010902769
0.68375754 0.23703538 -0.010913484
0.68375242 0.23774911 -0.010924199
0.68374729 0.23846287 -0.010934914
0.68374217 0.23917662 -0.010945628
0.68662423 -0.099861272 -0.0064160377
0.6866191 -0.099147521 -0.0064267525
0.68661398 -0.09843377 -0.0064374674
0.68660885 -0.097720012 -0.0064481823
0.68660372 -0.097006261 -0.0064588971
0.68659854 -0.096292511 -0.006469612
0.68659341 -0.095578752 -0.0064803273
0.68658829 -0.094865002 -0.0064910422
0.68658316 -0.094151251 -0.0065017571
0.68657804 -0.0934375 -0.0065124719
0.68657291 -0.092723742 -0.0065231868
0.68656772 -0.092009991 -0.0065339021
0.6865626 -0.091296241 -0.006544617
0.68655747 -0.090582483 -0.0065553319
0.68655235 -0.089868732 -0.0065660467
0.68654722 -0.089154981 -0.0065767616
0.68654209 -0.08844123 -0.0065874765
0.68653691 -0.087727472 -0.0065981918
0.68653178 -0.087013721 -0.0066089067
0.68652666 -0.086299971 -0.0066196215
0.68652153 -0.085586213 -0.0066303364
0.6865164 -0.084872462 -0.0066410513
0.68651128 -0.084158711 -0.0066517661
0.68650615 -0.08344496 -0.0066624815
0.68650097 -0.082731202 -0.0066731963
0.68649584 -0.082017444 -0.0066839112
0.68649071 -0.081303701 -0.0066946261
0.68648559 -0.080589943 -0.0067053409
0.68648046 -0.079876184 -0.0067160563
0.68647534 -0.079162426 -0.0067267711
0.68647015 -0.078448683 -0.006737486
0.68646502 -0.077734925 -0.0067482009
0.6864599 -0.077021174 -0.0067589157
0.68645477 -0.076307423 -0.0067696311
0.68644965 -0.075593673 -0.0067803459
0.68644452 -0.074879915 -0.0067910608
0.68643934 -0.074166156 -0.0068017757
0.68643421 -0.073452413 -0.0068124905
0.68642908 -0.072738655 -0.0068232059
0.68642396 -0.072024904 -0.0068339207
0.68641883 -0.071311146 -0.0068446356
0.68641371 -0.070597403 -0.0068553505
0.68640852 -0.069883645 -0.0068660653
0.68640339 -0.069169886 -0.0068767807
0.68639827 -0.068456143 -0.0068874955
0.68639314 -0.067742385 -0.0068982104
0.68638802 -0.067028634 -0.0069089253
0.68638289 -0.066314876 -0.0069196401
0.6863777 -0.065601133 -0.006930355
0.68637258 -0.064887375 -0.0069410703
0.68636745 -0.064173624 -0.0069517852
0.68636233 -0.063459866 -0.0069625
0.6863572 -0.062746115 -0.0069732149
0.68635207 -0.062032364 -0.0069839298
0.68634695 -0.06131861 -0.0069946451
0.68634176 -0.060604859 -0.00700536
0.68633664 -0.059891105 -0.0070160748
0.68633151 -0.059177354 -0.0070267897
0.68632638 -0.0584636 -0.0070375046
0.68632126 -0.057749841 -0.0070482194
0.68631613 -0.057036094 -0.0070589348
0.68631095 -0.056322336 -0.0070696496
0.68630582 -0.055608589 -0.0070803645
0.68630069 -0.054894831 -0.0070910794
0.68629557 -0.054181084 -0.0071017942
0.68629044 -0.05346733 -0.0071125091
0.68628532 -0.052753579 -0.0071232244
0.68628013 -0.052039824 -0.0071339393
0.68627501 -0.051326066 -0.0071446542
0.68626988 -0.050612319 -0.007155369
0.68626475 -0.049898561 -0.0071660839
0.68625963 -0.049184814 -0.0071767988
0.6862545 -0.048471056 -0.0071875141
0.68624932 -0.047757305 -0.007198229
0.68624419 -0.047043551 -0.0072089438
0.68623906 -0.046329796 -0.0072196587
0.68623394 -0.045616046 -0.007230374
0.68622881 -0.044902287 -0.0072410889
0.68622369 -0.04418854 -0.0072518038
0.6862185 -0.043474782 -0.0072625186
0.68621337 -0.042761035 -0.0072732335
0.68620825 -0.042047277 -0.0072839484
0.68620312 -0.041333526 -0.0072946637
0.686198 -0.040619772 -0.0073053786
0.68619287 -0.039906021 -0.0073160934
0.68618774 -0.03919227 -0.0073268083
0.68618256 -0.038478512 -0.0073375232
0.68617743 -0.037764762 -0.0073482385
0.68617231 -0.037051007 -0.0073589534
0.68616718 -0.036337256 -0.0073696682
0.68616205 -0.035623502 -0.0073803831
0.68549204 -0.035034552 -0.0081598433
0.68548691 -0.034319203 -0.0081705814
0.68548179 -0.033603858 -0.0081813205
0.6854766 -0.032888513 -0.0081920596
0.68547148 -0.032173164 -0.0082027987
0.68546635 -0.031457819 -0.0082135368
0.68546116 -0.030742472 -0.0082242759
0.68545604 -0.030027125 -0.008235015
0.68545091 -0.029311782 -0.0082457541
0.68544573 -0.028596437 -0.0082564931
0.6854406 -0.02788109 -0.0082672313
0.68543547 -0.027165739 -0.0082779704
0.68543029 -0.026450396 -0.0082887094
0.68609011 -0.025630958 -0.0075303926
0.68608499 -0.024917206 -0.0075411075
0.68607986 -0.024203453 -0.0075518223
0.68607473 -0.023489701 -0.0075625372
0.68606961 -0.022775948 -0.0075732521
0.68606448 -0.022062195 -0.0075839674
0.6860593 -0.021348439 -0.0075946823
0.68605417 -0.020634688 -0.0076053971
0.68604904 -0.019920936 -0.007616112
0.68604392 -0.019207183 -0.0076268269
0.68603879 -0.018493431 -0.0076375422
0.68603367 -0.017779678 -0.0076482571
0.68602854 -0.017065926 -0.0076589719
0.68602335 -0.016352173 -0.0076696868
0.68601823 -0.015638417 -0.0076804017
0.6860131 -0.014924665 -0.007691117
0.68600798 -0.014210912 -0.0077018319
0.68600285 -0.01349716 -0.0077125467
0.68599772 -0.012783407 -0.0077232616
0.68599254 -0.012069655 -0.0077339765
0.68598741 -0.011355901 -0.0077446913
0.68598229 -0.010642149 -0.0077554067
0.68597716 -0.0099283941 -0.0077661215
0.68597203 -0.0092146415 -0.0077768364
0.68596691 -0.0085008871 -0.0077875513
0.68596172 -0.007787135 -0.0077982661
0.6859566 -0.0070733824 -0.0078089815
0.68595147 -0.0063596303 -0.0078196963
0.68594635 -0.0056458758 -0.0078304112
0.68594122 -0.0049321237 -0.0078411261
0.68593609 -0.0042183711 -0.0078518409
0.68593091 -0.0035046169 -0.0078625558
0.68526047 -0.002843969 -0.0086430917
0.68525529 -0.0021286244 -0.0086538307
0.68525016 -0.0014132778 -0.0086645698
0.68524498 -0.00069793023 -0.0086753089
0.68523985 1.7415452e-05 -0.008686048
0.68523473 0.00073276111 -0.0086967861
0.68522954 0.0014481078 -0.0087075252
0.68522441 0.0021634535 -0.0087182643
0.68521929 0.0028788 -0.0087290034
0.6852141 0.0035941456 -0.0087397415
0.68520898 0.0043094922 -0.0087504806
0.68520385 0.0050248378 -0.0087612197
0.68519866 0.0057401848 -0.0087719588
0.68519354 0.0064555309 -0.0087826969
0.68518841 0.007170877 -0.008793436
0.68518323 0.0078862235 -0.0088041751
0.6851781 0.0086015696 -0.0088149142
0.68517298 0.0093169156 -0.0088256532
0.68516779 0.010032262 -0.0088363914
0.68516266 0.010747609 -0.0088471305
0.68515748 0.011462955 -0.0088578695
0.68515235 0.012178301 -0.0088686086
0.68514723 0.012893647 -0.0088793468
0.68514204 0.013608993 -0.0088900859
0.68513691 0.014324339 -0.0089008249
0.68513179 0.015039685 -0.008911564
0.6851266 0.015755031 -0.0089223031
0.68512148 0.016470378 -0.0089330412
0.68511635 0.017185723 -0.0089437803
0.68511117 0.01790107 -0.0089545194
0.68510604 0.018616417 -0.0089652585
0.68510091 0.019331763 -0.0089759966
0.68576145 0.020049231 -0.0082161492
0.68575633 0.020762984 -0.008226864
0.6857512 0.021476738 -0.0082375789
0.68574607 0.022190491 -0.0082482947
0.68574089 0.022904243 -0.0082590096
0.68573576 0.023617996 -0.0082697244
0.68573064 0.024331748 -0.0082804393
0.68572551 0.025045501 -0.0082911542
0.68572038 0.025759256 -0.008301869
0.68571526 0.026473008 -0.0083125839
0.68571013 0.027186763 -0.0083232988
0.68570495 0.027900515 -0.0083340136
0.68569982 0.028614268 -0.0083447285
0.68569469 0.02932802 -0.0083554443
0.68568957 0.030041773 -0.0083661592
0.68568444 0.030755527 -0.008376874
0.68567932 0.031469278 -0.0083875889
0.68567413 0.032183032 -0.0083983038
0.685669 0.032896783 -0.0084090186
0.68566388 0.033610538 -0.0084197335
0.68565875 0.034324292 -0.0084304484
0.68565363 0.035038047 -0.0084411632
0.6856485 0.035751797 -0.0084518781
0.68564332 0.036465552 -0.008462593
0.68563819 0.037179302 -0.0084733088
0.68563306 0.037893057 -0.0084840236
0.68562794 0.038606808 -0.0084947385
0.68562281 0.039320562 -0.0085054534
0.68561769 0.040034316 -0.0085161682
0.6856125 0.040748067 -0.0085268831
0.68560737 0.041461822 -0.008537598
0.68560225 0.042175576 -0.0085483128
0.68559712 0.042889327 -0.0085590277
0.685592 0.043603078 -0.0085697426
0.68558687 0.044316832 -0.0085804574
0.68558168 0.045030586 -0.0085911732
0.68557656 0.045744341 -0.0086018881
0.68557143 0.046458095 -0.0086126029
0.68490016 0.047230266 -0.0093948133
0.68489498 0.047945615 -0.0094055515
0.68488985 0.048660956 -0.0094162906
0.68488473 0.049376305 -0.0094270296
0.68487954 0.05009165 -0.0094377687
0.68487442 0.050806995 -0.0094485078
0.68486929 0.051522344 -0.0094592459
0.6848641 0.052237689 -0.009469985
0.68485898 0.052953038 -0.0094807241
0.68485385 0.053668384 -0.0094914632
0.68484867 0.054383725 -0.0095022013
0.68484354 0.055099074 -0.0095129404
0.68483841 0.055814419 -0.0095236795
0.68483323 0.056529764 -0.0095344186
0.6848281 0.057245117 -0.0095451577
0.68482292 0.057960458 -0.0095558958
0.68481779 0.058675807 -0.0095666349
0.68481266 0.059391152 -0.009577374
0.68480748 0.060106497 -0.0095881131
0.68480235 0.060821842 -0.0095988512
0.68479723 0.061537188 -0.0096095903
0.68479204 0.062252536 -0.0096203294
0.68478692 0.062967889 -0.0096310684
0.68478179 0.063683227 -0.0096418066
0.6847766 0.064398572 -0.0096525457
0.68477148 0.065113924 -0.0096632848
0.68476635 0.06582927 -0.0096740238
0.68476117 0.066544615 -0.0096847629
0.68475604 0.06725996 -0.0096955011
0.68475091 0.067975305 -0.0097062401
0.68474573 0.068690658 -0.0097169792
0.6847406 0.069406003 -0.0097277183
0.68473542 0.07012134 -0.0097384565
0.68473029 0.070836693 -0.0097491955
0.68472517 0.071552038 -0.0097599346
0.68471998 0.072267383 -0.0097706737
0.68471485 0.072982728 -0.0097814128
0.68537629 0.073580705 -0.0090197707
0.68537116 0.074294463 -0.0090304855
0.68536603 0.075008206 -0.0090412004
0.68536091 0.075721964 -0.0090519162
0.68535572 0.076435715 -0.0090626311
0.68468398 0.077274807 -0.0098458454
0.68534547 0.077863224 -0.0090840608
0.68467367 0.078705497 -0.0098673236
0.68466854 0.07942085 -0.0098780626
0.68466336 0.080136195 -0.0098888008
0.68465823 0.080851533 -0.0098995399
0.6846531 0.081566878 -0.009910279
0.68464792 0.08228223 -0.009921018
0.68464279 0.082997583 -0.0099317562
0.68463767 0.083712921 -0.0099424953
0.68463248 0.084428273 -0.0099532343
0.68462735 0.085143618 -0.0099639734
0.68462223 0.085858963 -0.0099747125
0.68461704 0.086574309 -0.0099854507
0.68461192 0.087289654 -0.0099961897
0.68460679 0.088004991 -0.010006929
0.6846016 0.088720344 -0.010017668
0.68459648 0.089435697 -0.010028406
0.68459135 0.090151034 -0.010039145
0.68458617 0.090866387 -0.010049884
0.68458104 0.091581732 -0.010060623
0.68457586 0.092297085 -0.010071361
0.68457073 0.093012422 -0.010082101
0.6845656 0.093727767 -0.01009284
0.68456042 0.09444312 -0.010103579
0.68455529 0.095158458 -0.010114317
0.68455017 0.09587381 -0.010125056
0.68454498 0.096589155 -0.010135795
0.68453985 0.097304501 -0.010146534
0.68453473 0.098019846 -0.010157273
0.68452954 0.098735198 -0.010168011
0.68452442 0.099450544 -0.01017875
0.68451929 0.10016588 -0.010189489
0.68451411 0.10088123 -0.010200229
0.68450898 0.10159658 -0.010210967
0.68450385 0.10231192 -0.010221706
0.68449867 0.10302727 -0.010232445
0.68449354 0.10374262 -0.010243184
0.68448836 0.10445796 -0.010253923
0.68448323 0.10517331 -0.010264661
0.6844781 0.10588866 -0.0102754
0.68447292 0.106604 -0.010286139
0.68513489 0.1071271 -0.009523374
0.68512976 0.10784085 -0.0095340889
0.68512464 0.10855461 -0.0095448038
0.68511951 0.10926835 -0.0095555186
0.68511438 0.10998211 -0.0095662335
0.68510926 0.11069587 -0.0095769484
0.68510407 0.11140961 -0.0095876632
0.68509895 0.11212337 -0.0095983781
0.68509382 0.11283712 -0.009609093
0.68508869 0.11355088 -0.0096198078
0.68508357 0.11426462 -0.0096305236
0.68507844 0.11497838 -0.0096412385
0.68507332 0.11569213 -0.0096519534
0.68506813 0.11640589 -0.0096626682
0.685063 0.11711964 -0.0096733831
0.68505788 0.11783339 -0.009684098
0.68505275 0.11854715 -0.0096948128
0.68504763 0.11926089 -0.0097055277
0.6850425 0.11997465 -0.0097162426
0.68503731 0.1206884 -0.0097269574
0.68503219 0.12140216 -0.0097376723
0.68502706 0.12211591 -0.0097483881
0.68502194 0.12282966 -0.0097591029
0.68501681 0.12354342 -0.0097698178
0.68501168 0.12425717 -0.0097805327
0.6850065 0.12497092 -0.0097912475
0.68500137 0.12568468 -0.0098019624
0.68499625 0.12639843 -0.0098126773
0.68499112 0.12711218 -0.0098233921
0.684986 0.12782595 -0.009834107
0.68498087 0.12853968 -0.0098448219
0.68497568 0.12925343 -0.0098555367
0.68497056 0.12996718 -0.0098662516
0.68496543 0.13068095 -0.0098769674
0.68496031 0.1313947 -0.0098876823
0.68495518 0.13210845 -0.0098983971
0.68495005 0.1328222 -0.009909112
0.68494487 0.13353595 -0.0099198269
0.68493974 0.1342497 -0.0099305417
0.68493462 0.13496347 -0.0099412566
0.68492949 0.13567722 -0.0099519715
0.68492436 0.13639097 -0.0099626863
0.68491924 0.13710472 -0.0099734021
0.68491411 0.13781847 -0.009984117
0.68490893 0.13853224 -0.0099948319
0.6849038 0.13924597 -0.010005547
0.68489867 0.13995974 -0.010016262
0.68489355 0.14067349 -0.010026976
0.68488842 0.14138724 -0.010037691
0.6848833 0.14210099 -0.010048406
0.68487811 0.14281474 -0.010059121
0.68554068 0.14325501 -0.0092951367
0.68553555 0.14396717 -0.0093058273
0.68553042 0.14467932 -0.0093165189
0.6855253 0.14539149 -0.0093272096
0.68552017 0.14610364 -0.0093379002
0.68551505 0.14681581 -0.0093485918
0.68550992 0.14752796 -0.0093592824
0.68550479 0.14824012 -0.009369974
0.68549967 0.14895229 -0.0093806647
0.68549454 0.14966443 -0.0093913553
0.68548942 0.15037662 -0.0094020469
0.68548429 0.15108876 -0.0094127376
0.68547922 0.15180092 -0.0094234291
0.6854741 0.15251309 -0.0094341198
0.68546897 0.15322524 -0.0094448114
0.68546385 0.1539374 -0.009455502
0.68545872 0.15464956 -0.0094661927
0.68545359 0.15536173 -0.0094768843
0.68544847 0.15607388 -0.0094875749
0.68544334 0.15678604 -0.0094982665
0.68543822 0.1574982 -0.0095089572
0.68543309 0.15821037 -0.0095196487
0.68542796 0.15892252 -0.0095303394
0.68542284 0.15963466 -0.00954103
0.68541771 0.16034684 -0.0095517216
0.68541259 0.16105899 -0.0095624123
0.68540746 0.16177116 -0.0095731039
0.68540233 0.16248332 -0.0095837945
0.68539721 0.16319548 -0.0095944852
0.68606013 0.16358793 -0.0088297585
0.686055 0.16429849 -0.0088404259
0.68604988 0.16500905 -0.0088510932
0.68604475 0.16571964 -0.0088617606
0.68603969 0.16643019 -0.008872427
0.68603456 0.16714075 -0.0088830944
0.68602943 0.16785134 -0.0088937618
0.68602431 0.16856189 -0.0089044282
0.68601924 0.16927245 -0.0089150956
0.68601412 0.16998303 -0.008925763
0.68600899 0.17069359 -0.0089364303
0.68667203 0.17106692 -0.0081714401
0.68666691 0.17177591 -0.0081820833
0.68666184 0.17248489 -0.0081927273
0.68665671 0.17319386 -0.0082033705
0.68665165 0.17390282 -0.0082140137
0.68664652 0.17461179 -0.0082246568
0.6866414 0.17532079 -0.0082353
0.68663633 0.17602974 -0.0082459431
0.6866312 0.17673872 -0.0082565863
0.68595785 0.17779927 -0.0090431012
0.68595278 0.17850983 -0.0090537686
0.68594766 0.17922039 -0.009064435
0.68594253 0.17993096 -0.0090751024
0.6859374 0.18064153 -0.0090857698
0.68593228 0.18135209 -0.0090964371
0.68592721 0.18206267 -0.0091071036
0.68592209 0.18277322 -0.0091177709
0.68591696 0.18348379 -0.0091284383
0.68591183 0.18419436 -0.0091391047
0.68590677 0.18490492 -0.0091497721
0.68590164 0.18561551 -0.0091604395
0.68589652 0.18632606 -0.0091711069
0.68589139 0.18703662 -0.0091817733
0.68588626 0.1877472 -0.0091924407
0.6858812 0.18845776 -0.009203108
0.68587607 0.18916832 -0.0092137754
0.68587095 0.1898789 -0.0092244418
0.68586582 0.19058946 -0.0092351092
0.68586075 0.19130003 -0.0092457766
0.68585563 0.1920106 -0.0092564439
0.6858505 0.19272114 -0.0092671104
0.68584538 0.19343174 -0.0092777777
0.68584025 0.19414228 -0.0092884451
0.68583518 0.19485286 -0.0092991116
0.68583006 0.19556344 -0.0093097789
0.68582493 0.19627398 -0.0093204463
0.6858198 0.19698456 -0.0093311137
0.68581474 0.19769512 -0.0093417801
0.68580961 0.1984057 -0.0093524475
0.68580449 0.19911626 -0.0093631148
0.68579936 0.19982682 -0.0093737822
0.68579423 0.2005374 -0.0093844486
0.68578917 0.20124796 -0.009395116
0.68578404 0.20195854 -0.0094057834
0.68577892 0.20266908 -0.0094164498
0.68577379 0.20337966 -0.0094271172
0.68576872 0.20409022 -0.0094377846
0.6857636 0.20480078 -0.0094484519
0.68575847 0.20551138 -0.0094591193
0.68575335 0.20622192 -0.0094697857
0.68574822 0.20693249 -0.0094804531
0.68574315 0.20764306 -0.0094911205
0.68573803 0.20835362 -0.0095017869
0.6857329 0.20906419 -0.0095124543
0.68505901 0.21019801 -0.010300093
0.68505388 0.21091019 -0.010310785
0.68504876 0.21162234 -0.010321476
0.68504363 0.2123345 -0.010332167
0.68503851 0.21304667 -0.010342858
0.68503338 0.21375883 -0.010353549
0.68502825 0.214471 -0.01036424
0.68502313 0.21518314 -0.010374931
0.685018 0.2158953 -0.010385622
0.68501288 0.21660747 -0.010396313
0.68500775 0.21731962 -0.010407005
0.68500262 0.21803178 -0.010417695
0.6849975 0.21874395 -0.010428387
0.68499237 0.21945611 -0.010439077
0.68498725 0.22016826 -0.010449768
0.68498218 0.22088042 -0.01046046
0.68497705 0.22159258 -0.01047115
0.68497193 0.22230475 -0.010481842
0.6849668 0.2230169 -0.010492533
0.68496168 0.22372906 -0.010503223
0.68495655 0.22444123 -0.010513915
0.68495142 0.22515337 -0.010524605
0.6849463 0.22586554 -0.010535297
0.68494117 0.22657771 -0.010545988
0.68493605 0.22728986 -0.010556678
0.68493092 0.22800203 -0.01056737
0.68492579 0.22871418 -0.010578061
0.68492067 0.22942634 -0.010588752
0.68491554 0.2301385 -0.010599443
0.68491042 0.23085065 -0.010610133
0.68490529 0.23156284 -0.010620825
0.68490016 0.23227498 -0.010631516
0.68422592 0.23346137 -0.01141992
0.68422079 0.23417515 -0.011430635
0.68421566 0.23488888 -0.01144135
0.68487966 0.23512362 -0.01067428
0.68487453 0.23583578 -0.010684971
0.68486941 0.23654795 -0.010695662
0.68486428 0.2372601 -0.010706353
0.68485916 0.23797226 -0.010717045
0.68485403 0.2386844 -0.010727735
0.68772972 -0.099596709 -0.0062082536
0.68772459 -0.098884545 -0.0062189447
0.68771946 -0.098172389 -0.0062296358
0.68771434 -0.097460225 -0.0062403269
0.68770921 -0.096748069 -0.006251018
0.68770409 -0.096035913 -0.0062617087
0.68769896 -0.095323749 -0.0062723998
0.68769383 -0.094611585 -0.0062830909
0.68768871 -0.093899429 -0.006293782
0.68702066 -0.093442723 -0.0070724832
0.68701553 -0.092728965 -0.0070831981
0.68701041 -0.092015207 -0.0070939129
0.68700528 -0.091301464 -0.0071046278
0.68766308 -0.090338625 -0.0063472372
0.68765795 -0.089626469 -0.0063579283
0.68765283 -0.088914305 -0.0063686194
0.6876477 -0.088202149 -0.00637931
0.68764257 -0.087489992 -0.0063900012
0.68763745 -0.086777836 -0.0064006923
0.68763232 -0.086065672 -0.0064113834
0.6876272 -0.085353501 -0.0064220745
0.68762207 -0.084641352 -0.0064327656
0.68761694 -0.083929189 -0.0064434567
0.68761182 -0.083217032 -0.0064541474
0.68760669 -0.082504869 -0.0064648385
0.68760157 -0.08179272 -0.0064755296
0.68759644 -0.081080548 -0.0064862208
0.68759131 -0.080368385 -0.0064969119
0.68758619 -0.079656228 -0.0065076025
0.68758106 -0.078944072 -0.0065182936
0.68691283 -0.078453906 -0.0072974972
0.68690771 -0.077740148 -0.0073082121
0.68690258 -0.077026397 -0.007318927
0.68689746 -0.076312639 -0.0073296423
0.68689227 -0.075598896 -0.0073403572
0.68688715 -0.074885137 -0.007351072
0.68688202 -0.074171379 -0.0073617869
0.68687689 -0.073457636 -0.0073725018
0.68687177 -0.072743878 -0.0073832171
0.68686664 -0.072030127 -0.007393932
0.68686146 -0.071316369 -0.0074046468
0.68685633 -0.070602626 -0.0074153617
0.68751448 -0.069685996 -0.0066572772
0.68750936 -0.068973832 -0.0066679684
0.68750423 -0.068261676 -0.0066786595
0.68749911 -0.067549519 -0.0066893501
0.68749398 -0.066837355 -0.0067000412
0.68748885 -0.066125192 -0.0067107324
0.68748373 -0.065413035 -0.0067214235
0.6874786 -0.064700879 -0.0067321146
0.68747348 -0.063988723 -0.0067428052
0.68746835 -0.063276559 -0.0067534964
0.68746322 -0.062564388 -0.0067641875
0.6874581 -0.061852235 -0.0067748786
0.68745297 -0.061140072 -0.0067855697
0.68744785 -0.060427919 -0.0067962608
0.68744272 -0.059715755 -0.0068069519
0.68743759 -0.059003603 -0.0068176426
0.68743247 -0.058291439 -0.0068283337
0.68742734 -0.057579271 -0.0068390248
0.68742222 -0.056867115 -0.006849716
0.68741709 -0.056154955 -0.0068604071
0.68741202 -0.055442799 -0.0068710977
0.6874069 -0.054730639 -0.0068817888
0.68740177 -0.054018483 -0.00689248
0.68739665 -0.053306315 -0.0069031711
0.68739152 -0.052594159 -0.0069138622
0.68738639 -0.051881999 -0.0069245533
0.68738127 -0.051169835 -0.006935244
0.68737614 -0.050457682 -0.0069459351
0.68737102 -0.049745519 -0.0069566262
0.68736589 -0.049033359 -0.0069673173
0.68736076 -0.048321199 -0.0069780084
0.68735564 -0.047609042 -0.0069886991
0.68735051 -0.046896879 -0.0069993902
0.68734539 -0.046184719 -0.0070100813
0.68734026 -0.045472559 -0.0070207724
0.68733513 -0.044760399 -0.0070314636
0.68733001 -0.044048242 -0.0070421547
0.68732488 -0.043336082 -0.0070528453
0.68731976 -0.042623922 -0.0070635364
0.68731463 -0.041911762 -0.0070742276
0.6873095 -0.041199602 -0.0070849187
0.68730438 -0.040487442 -0.0070956098
0.68729925 -0.039775282 -0.0071063009
0.68663037 -0.03919749 -0.0078868195
0.68662524 -0.038483735 -0.0078975344
0.68662012 -0.037769981 -0.0079082493
0.68661499 -0.03705623 -0.0079189641
0.68660986 -0.036342476 -0.007929679
0.68660468 -0.035628725 -0.0079403948
0.68659955 -0.034914974 -0.0079511097
0.68659443 -0.03420122 -0.0079618245
0.6865893 -0.033487469 -0.0079725394
0.68658417 -0.032773711 -0.0079832543
0.68657905 -0.03205996 -0.0079939691
0.68657386 -0.031346206 -0.008004684
0.68656874 -0.030632455 -0.0080153989
0.68656361 -0.029918702 -0.0080261137
0.68655849 -0.02920495 -0.0080368286
0.68655336 -0.028491197 -0.0080475435
0.68654823 -0.027777445 -0.0080582583
0.68654305 -0.027063688 -0.0080689741
0.68653792 -0.026349936 -0.008079689
0.6865328 -0.025636179 -0.0080904039
0.68652767 -0.024922427 -0.0081011187
0.68652254 -0.024208676 -0.0081118336
0.68651742 -0.023494923 -0.0081225485
0.68651223 -0.022781171 -0.0081332633
0.68650711 -0.022067418 -0.0081439782
0.68650198 -0.021353662 -0.0081546931
0.68649685 -0.020639909 -0.0081654079
0.68649173 -0.019926157 -0.0081761237
0.6864866 -0.019212404 -0.0081868386
0.68648142 -0.018498652 -0.0081975535
0.68647629 -0.017784899 -0.0082082683
0.68647116 -0.017071148 -0.0082189832
0.68646604 -0.016357396 -0.0082296981
0.68646091 -0.015643639 -0.0082404129
0.68645579 -0.014929887 -0.0082511278
0.68645066 -0.014216134 -0.0082618427
0.68644547 -0.013502382 -0.0082725575
0.68644035 -0.012788629 -0.0082832724
0.68643522 -0.012074877 -0.0082939882
0.6864301 -0.011361123 -0.008304703
0.68642497 -0.01064737 -0.0083154179
0.68641984 -0.009933616 -0.0083261328
0.68641466 -0.0092198635 -0.0083368476
0.68640953 -0.008506109 -0.0083475625
0.68640441 -0.0077923569 -0.0083582774
0.68639928 -0.0070786043 -0.0083689922
0.68639416 -0.0063648522 -0.0083797071
0.68638903 -0.0056510977 -0.008390422
0.68638384 -0.0049373456 -0.0084011378
0.68637872 -0.004223593 -0.0084118526
0.68637359 -0.0035098388 -0.0084225675
0.68636847 -0.0027960862 -0.0084332824
0.68636334 -0.0020823339 -0.0084439972
0.68635821 -0.0013685806 -0.0084547121
0.68635303 -0.00065482635 -0.008465427
0.6863479 5.8926085e-05 -0.0084761418
0.68634278 0.00077267847 -0.0084868567
0.68633765 0.0014864318 -0.0084975716
0.68633252 0.0022001842 -0.0085082864
0.6863274 0.0029139377 -0.0085190022
0.68632221 0.003627691 -0.0085297171
0.68631709 0.0043414445 -0.008540432
0.68631196 0.0050551966 -0.0085511468
