# .PCD v0.7 - Point Cloud Data file format
VERSION 0.7
FIELDS x y z
SIZE 4 4 4
TYPE F F F
COUNT 1 1 1
WIDTH 1310
HEIGHT 1
VIEWPOINT 0 0 0 1 0 0 0
POINTS 1310
DATA ascii
0.67624795 -0.086704575 -0.0065074125
0.67624277 -0.085978076 -0.0065183188
0.67623752 -0.085251577 -0.006529225
0.67623228 -0.084525079 -0.0065401313
0.67622703 -0.08379858 -0.0065510375
0.67622185 -0.083072081 -0.0065619438
0.6762166 -0.082345583 -0.00657285
0.67621136 -0.081619091 -0.0065837563
0.67620617 -0.080892585 -0.0065946626
0.67620093 -0.080166094 -0.0066055688
0.67619568 -0.079439588 -0.0066164751
0.6761905 -0.078713097 -0.0066273813
0.67618525 -0.077986591 -0.006638288
0.67618001 -0.077260099 -0.0066491943
0.67617476 -0.076533593 -0.0066601005
0.67616957 -0.075807095 -0.0066710068
0.67616433 -0.075080596 -0.006681913
0.67615908 -0.074354097 -0.0066928193
0.6761539 -0.073627599 -0.0067037256
0.67614865 -0.0729011 -0.0067146318
0.67614341 -0.072174601 -0.0067255381
0.67613822 -0.071448103 -0.0067364448
0.67613298 -0.070721604 -0.0067473506
0.67612773 -0.069995113 -0.0067582568
0.67612249 -0.069268607 -0.0067691635
0.6761173 -0.068542115 -0.0067800698
0.67543685 -0.068010382 -0.007544897
0.67543167 -0.067282289 -0.007555827
0.67542642 -0.066554196 -0.0075667575
0.67542118 -0.065826111 -0.0075776875
0.67541593 -0.06509801 -0.007588618
0.67541069 -0.064369924 -0.007599548
0.67540544 -0.063641831 -0.007610478
0.6754002 -0.062913738 -0.0076214084
0.67539495 -0.062185645 -0.0076323384
0.67538971 -0.061457552 -0.0076432689
0.67538446 -0.06072947 -0.0076541989
0.67537928 -0.060001373 -0.0076651294
0.67537403 -0.059273276 -0.0076760594
0.67536879 -0.058545187 -0.0076869898
0.67536354 -0.05781709 -0.0076979198
0.6753583 -0.057089008 -0.0077088499
0.67535305 -0.056360912 -0.0077197803
0.67534781 -0.055632822 -0.0077307103
0.67534256 -0.054904725 -0.0077416408
0.67533731 -0.054176636 -0.0077525708
0.67533213 -0.053448547 -0.0077635013
0.67532688 -0.052720454 -0.0077744313
0.67532164 -0.051992364 -0.0077853617
0.67531639 -0.051264267 -0.0077962917
0.67531115 -0.050536178 -0.0078072217
0.6753059 -0.049808089 -0.0078181522
0.67530066 -0.049079999 -0.0078290822
0.67529541 -0.048351903 -0.0078400122
0.67529017 -0.047623806 -0.0078509431
0.67528498 -0.04689572 -0.0078618731
0.67527974 -0.046167623 -0.0078728031
0.67459893 -0.045584921 -0.0086384146
0.67459369 -0.044855233 -0.0086493688
0.67458844 -0.044125549 -0.0086603221
0.67458314 -0.043395866 -0.0086712763
0.67457789 -0.042666182 -0.0086822305
0.67457265 -0.041936494 -0.0086931847
0.6745674 -0.041206811 -0.0087041389
0.67456216 -0.040477127 -0.0087150931
0.67455691 -0.039747436 -0.0087260474
0.67455167 -0.039017752 -0.0087370016
0.67454642 -0.038288072 -0.0087479558
0.67454118 -0.037558384 -0.00875891
0.67453593 -0.0368287 -0.0087698633
0.67453068 -0.036099017 -0.0087808175
0.67452544 -0.035369329 -0.0087917717
0.67452013 -0.034639645 -0.0088027259
0.67451489 -0.033909958 -0.0088136801
0.67450964 -0.033180274 -0.0088246344
0.6751802 -0.032333884 -0.0080804769
0.67517495 -0.031605791 -0.0080914069
0.67516971 -0.030877698 -0.0081023378
0.67516446 -0.030149609 -0.0081132678
0.67515922 -0.029421516 -0.0081241978
0.67515397 -0.028693426 -0.0081351278
0.67514873 -0.027965331 -0.0081460588
0.67514348 -0.027237238 -0.0081569888
0.67513829 -0.026509149 -0.0081679188
0.67513305 -0.025781056 -0.0081788488
0.6751278 -0.025052967 -0.0081897788
0.67512256 -0.024324873 -0.0082007097
0.67511731 -0.023596782 -0.0082116397
0.67511207 -0.022868693 -0.0082225697
0.67510682 -0.022140596 -0.0082334997
0.67510158 -0.021412507 -0.0082444306
0.67509633 -0.020684414 -0.0082553606
0.67509115 -0.019956321 -0.0082662906
0.6750859 -0.019228233 -0.0082772207
0.67508066 -0.01850014 -0.0082881507
0.67507541 -0.017772051 -0.0082990816
0.67507017 -0.017043957 -0.0083100116
0.67506492 -0.016315863 -0.0083209416
0.67505968 -0.015587772 -0.0083318716
0.67505443 -0.014859679 -0.0083428025
0.67504919 -0.014131588 -0.0083537325
0.67504394 -0.013403498 -0.0083646625
0.67503875 -0.012675406 -0.0083755925
0.67503351 -0.011947311 -0.0083865235
0.67502826 -0.011219221 -0.0083974535
0.67502302 -0.01049113 -0.0084083835
0.67501777 -0.0097630387 -0.0084193135
0.67501253 -0.0090349466 -0.0084302435
0.67500728 -0.0083068535 -0.0084411744
0.67500204 -0.0075787622 -0.0084521044
0.67499679 -0.0068506715 -0.0084630344
0.67499161 -0.0061225789 -0.0084739644
0.67498636 -0.0053944858 -0.0084848944
0.67498112 -0.004666395 -0.0084958253
0.67497587 -0.0039383024 -0.0085067553
0.67497063 -0.0032102114 -0.0085176853
0.67496538 -0.0024821204 -0.0085286153
0.67496014 -0.0017540285 -0.0085395463
0.67495489 -0.0010259348 -0.0085504763
0.67494965 -0.00029784392 -0.0085614063
0.67494446 0.00043024702 -0.0085723363
0.67493922 0.0011583398 -0.0085832663
0.67493397 0.0018864308 -0.0085941972
0.67492872 0.0026145235 -0.0086051272
0.67492348 0.0033426145 -0.0086160572
0.67491823 0.0040707071 -0.0086269872
0.67491299 0.0047987984 -0.0086379182
0.67490774 0.00552689 -0.0086488482
0.6749025 0.0062549817 -0.0086597782
0.67422092 0.0069524013 -0.0094271116
0.67421567 0.0076820864 -0.0094380658
0.67421037 0.0084117716 -0.0094490191
0.67420512 0.0091414563 -0.0094599733
0.67419988 0.0098711411 -0.0094709275
0.67419463 0.010600827 -0.0094818817
0.67418939 0.011330511 -0.009492836
0.67418414 0.012060197 -0.0095037902
0.6741789 0.012789882 -0.0095147444
0.67417365 0.013519567 -0.0095256986
0.67416841 0.014249251 -0.0095366528
0.67416316 0.014978937 -0.009547607
0.67415792 0.015708622 -0.0095585613
0.67415267 0.016438307 -0.0095695145
0.67414737 0.017167991 -0.0095804688
0.67414212 0.017897677 -0.009591423
0.67413688 0.018627362 -0.0096023772
0.67413163 0.019357046 -0.0096133314
0.67412639 0.020086732 -0.0096242856
0.67412114 0.020816417 -0.0096352398
0.6741159 0.021546101 -0.0096461941
0.67411065 0.022275787 -0.0096571483
0.67410541 0.023005472 -0.0096681025
0.67410016 0.023735156 -0.0096790558
0.67409492 0.024464842 -0.00969001
0.6747663 0.025185369 -0.0089439638
0.67476106 0.02591346 -0.0089548938
0.67475581 0.026641551 -0.0089658238
0.67475063 0.027369644 -0.0089767538
0.67474538 0.028097736 -0.0089876847
0.67474014 0.028825827 -0.0089986147
0.67473489 0.02955392 -0.0090095447
0.67472965 0.030282009 -0.0090204747
0.6747244 0.031010102 -0.0090314057
0.67471915 0.031738196 -0.0090423357
0.67471391 0.032466289 -0.0090532657
0.67403191 0.033221062 -0.0098214597
0.67402667 0.03395075 -0.0098324139
0.67402136 0.03468043 -0.0098433681
0.67401612 0.035410117 -0.0098543223
0.67401087 0.036139801 -0.0098652765
0.67400563 0.036869489 -0.0098762307
0.67400038 0.037599172 -0.0098871849
0.67399514 0.038328856 -0.0098981392
0.67398989 0.039058544 -0.0099090924
0.67466152 0.039747205 -0.0091625676
0.6739794 0.040517911 -0.0099310009
0.67397416 0.041247599 -0.0099419551
0.67396891 0.041977283 -0.0099529093
0.67396361 0.042706966 -0.0099638635
0.67395836 0.043436654 -0.0099748177
0.67395312 0.044166338 -0.009985772
0.67394787 0.044896021 -0.0099967262
0.67394263 0.045625705 -0.01000768
0.67393738 0.046355393 -0.010018634
0.67393214 0.04708508 -0.010029588
0.67460394 0.047756214 -0.0092828004
0.67459869 0.048484307 -0.0092937304
0.67459345 0.049212396 -0.0093046604
0.6745882 0.049940489 -0.0093155904
0.67458296 0.050668579 -0.0093265213
0.67457771 0.051396672 -0.0093374513
0.67457247 0.052124768 -0.0093483813
0.67456722 0.052852858 -0.0093593113
0.67456198 0.053580951 -0.0093702413
0.67455679 0.05430904 -0.0093811722
0.67455155 0.05503713 -0.0093921022
0.6745463 0.055765223 -0.0094030323
0.67454106 0.056493312 -0.0094139623
0.67453581 0.057221405 -0.0094248932
0.67453057 0.057949498 -0.0094358232
0.67452532 0.058677591 -0.0094467532
0.67452008 0.059405684 -0.0094576832
0.67451483 0.060133774 -0.0094686132
0.67450958 0.060861867 -0.0094795441
0.6745044 0.06158996 -0.0094904741
0.67449915 0.062318049 -0.0095014041
0.67449391 0.063046142 -0.0095123341
0.67448866 0.063774236 -0.0095232651
0.67448342 0.064502329 -0.0095341951
0.67447817 0.065230422 -0.0095451251
0.67447293 0.065958507 -0.0095560551
0.67446768 0.0666866 -0.0095669851
0.67446244 0.067414694 -0.009577916
0.67445725 0.068142787 -0.009588846
0.67445201 0.068870872 -0.009599776
0.67444676 0.069598965 -0.009610706
0.67444152 0.070327058 -0.0096216369
0.67443627 0.071055152 -0.0096325669
0.67443103 0.071783245 -0.0096434969
0.67442578 0.072511338 -0.0096544269
0.67442054 0.073239423 -0.0096653569
0.67441529 0.073967524 -0.0096762879
0.6744101 0.07469561 -0.0096872179
0.67440486 0.075423703 -0.0096981479
0.67439961 0.076151788 -0.0097090779
0.67439437 0.076879889 -0.0097200088
0.67438912 0.077607974 -0.0097309388
0.67438388 0.078336067 -0.0097418688
0.67437863 0.079064168 -0.0097527988
0.67437339 0.079792246 -0.0097637288
0.67436814 0.080520347 -0.0097746598
0.67436296 0.081248432 -0.0097855898
0.67435771 0.081976533 -0.0097965198
0.67435247 0.082704619 -0.0098074498
0.67434722 0.083432712 -0.0098183807
0.67434198 0.084160805 -0.0098293107
0.67433673 0.084888898 -0.0098402407
0.67433149 0.085616991 -0.0098511707
0.6736486 0.086488068 -0.010621111
0.67364335 0.087217756 -0.010632065
0.67431575 0.087801255 -0.0098839616
0.67431056 0.088529356 -0.0098948916
0.67430532 0.089257441 -0.0099058216
0.67430007 0.089985542 -0.0099167526
0.67429483 0.090713628 -0.0099276826
0.67428958 0.091441721 -0.0099386126
0.67428434 0.092169814 -0.0099495426
0.67427909 0.092897907 -0.0099604726
0.67427385 0.093626 -0.0099714035
0.6742686 0.094354086 -0.0099823335
0.67426342 0.095082179 -0.0099932635
0.67425817 0.095810272 -0.010004194
0.67425293 0.096538365 -0.010015124
0.67424768 0.097266458 -0.010026054
0.67424244 0.097994544 -0.010036984
0.67423719 0.098722637 -0.010047914
0.67423195 0.09945073 -0.010058844
0.6742267 0.10017882 -0.010069775
0.67422146 0.10090692 -0.010080705
0.67421627 0.101635 -0.010091635
0.67421103 0.1023631 -0.010102565
0.67420578 0.10309119 -0.010113496
0.67420053 0.10381929 -0.010124426
0.67419529 0.10454737 -0.010135356
0.67419004 0.10527546 -0.010146286
0.6741848 0.10600355 -0.010157216
0.67417955 0.10673165 -0.010168147
0.67417431 0.10745975 -0.010179077
0.67416906 0.10818783 -0.010190007
0.67416388 0.10891593 -0.010200937
0.67415863 0.10964401 -0.010211867
0.67415339 0.11037211 -0.010222798
0.67414814 0.1111002 -0.010233728
0.6741429 0.1118283 -0.010244658
0.67413765 0.11255638 -0.010255588
0.67481047 0.11308254 -0.0095066428
0.67480522 0.11380904 -0.0095175486
0.67479998 0.11453553 -0.0095284553
0.67479479 0.11526204 -0.0095393611
0.67478955 0.11598853 -0.0095502678
0.6747843 0.11671504 -0.0095611736
0.67477912 0.11744153 -0.0095720803
0.67477387 0.11816803 -0.0095829861
0.67476863 0.11889453 -0.0095938928
0.67476344 0.11962103 -0.0096047996
0.6747582 0.12034753 -0.0096157053
0.67475295 0.12107403 -0.0096266121
0.67474771 0.12180053 -0.0096375179
0.67474252 0.12252703 -0.0096484246
0.67473727 0.12325352 -0.0096593304
0.67473203 0.12398003 -0.0096702371
0.67472684 0.12470652 -0.0096811429
0.67404336 0.12566204 -0.010452332
0.67403811 0.12639013 -0.010463263
0.67403287 0.12711823 -0.010474193
0.67402762 0.12784632 -0.010485123
0.67402244 0.1285744 -0.010496053
0.67401719 0.12930249 -0.010506983
0.67401195 0.1300306 -0.010517914
0.6740067 0.13075869 -0.010528844
0.67400146 0.13148677 -0.010539774
0.67399621 0.13221486 -0.010550704
0.67399096 0.13294296 -0.010561635
0.67466408 0.13342451 -0.0098120188
0.67465889 0.134151 -0.0098229246
0.67465365 0.1348775 -0.0098338313
0.6746484 0.13560401 -0.0098447381
0.67464316 0.1363305 -0.0098556438
0.67463797 0.13705699 -0.0098665506
0.67463273 0.1377835 -0.0098774564
0.67462748 0.13850999 -0.0098883631
0.6746223 0.13923648 -0.0098992689
0.67461705 0.13996299 -0.0099101756
0.67461181 0.14068949 -0.0099210814
0.67460662 0.14141598 -0.0099319881
0.67460138 0.14214247 -0.0099428939
0.67459613 0.142869 -0.0099538006
0.67459089 0.14359549 -0.0099647064
0.6745857 0.14432198 -0.0099756131
0.67458045 0.14504847 -0.0099865189
0.67457521 0.14577499 -0.0099974256
0.67457002 0.14650148 -0.010008332
0.67524338 0.14695115 -0.009258219
0.67523813 0.14767607 -0.0092691015
0.67523295 0.14840096 -0.009279984
0.6752277 0.14912587 -0.0092908666
0.67522252 0.14985077 -0.0093017481
0.67521727 0.15057568 -0.0093126306
0.67521209 0.15130058 -0.0093235131
0.67520684 0.15202549 -0.0093343956
0.67520165 0.1527504 -0.0093452781
0.67519641 0.1534753 -0.0093561606
0.67519122 0.15420021 -0.0093670432
0.67518598 0.15492512 -0.0093779257
0.67518079 0.15565003 -0.0093888082
0.67517555 0.15637493 -0.0093996897
0.67517036 0.15709983 -0.0094105722
0.67516512 0.15782475 -0.0094214547
0.67515993 0.15854965 -0.0094323372
0.67515469 0.15927455 -0.0094432198
0.6751495 0.15999945 -0.0094541023
0.67514426 0.16072437 -0.0094649848
0.67513907 0.16144927 -0.0094758663
0.67513382 0.16217417 -0.0094867488
0.67512864 0.16289908 -0.0094976313
0.67512339 0.16362399 -0.0095085138
0.67511821 0.16434889 -0.0095193963
0.67511296 0.16507378 -0.0095302789
0.67510778 0.16579871 -0.0095411614
0.67510253 0.16652361 -0.0095520429
0.67577624 0.16692708 -0.008801261
0.675771 0.16765039 -0.0088121202
0.67576581 0.16837372 -0.0088229785
0.67576063 0.16909702 -0.0088338368
0.67575538 0.16982032 -0.0088446951
0.6757502 0.17054364 -0.0088555533
0.67574501 0.17126697 -0.0088664126
0.67573982 0.17199028 -0.0088772709
0.67573458 0.17271358 -0.0088881291
0.67572939 0.17343691 -0.0088989874
0.67572421 0.17416021 -0.0089098457
0.67571896 0.17488351 -0.008920704
0.67571378 0.17560683 -0.0089315632
0.67570859 0.17633015 -0.0089424215
0.67570335 0.17705345 -0.0089532798
0.67569816 0.17777677 -0.0089641381
0.67569298 0.17850009 -0.0089749973
0.67568773 0.1792234 -0.0089858556
0.67568254 0.17994671 -0.0089967139
0.67567736 0.18067002 -0.0090075722
0.67567211 0.18139334 -0.0090184305
0.67566693 0.18211664 -0.0090292888
0.67566174 0.18283994 -0.0090401471
0.6756565 0.18356326 -0.0090510063
0.67565131 0.18428658 -0.0090618646
0.67564613 0.1850099 -0.0090727229
0.67564094 0.1857332 -0.0090835812
0.6756357 0.18645652 -0.0090944394
0.67563051 0.18717983 -0.0091052987
0.67562532 0.18790314 -0.009116157
0.67562008 0.18862645 -0.0091270152
0.67561489 0.18934977 -0.0091378735
0.67560971 0.19007307 -0.0091487318
0.67560446 0.19079638 -0.0091595901
0.67559928 0.19151969 -0.0091704493
0.67559409 0.19224302 -0.0091813076
0.67558885 0.19296633 -0.0091921659
0.67558366 0.19368964 -0.0092030242
0.67557847 0.19441295 -0.0092138825
0.67557323 0.19513626 -0.0092247408
0.67556804 0.19585957 -0.0092356
0.67556286 0.19658288 -0.0092464583
0.67555761 0.1973062 -0.0092573166
0.67555243 0.1980295 -0.0092681749
0.67554724 0.19875284 -0.0092790341
0.67554206 0.19947614 -0.0092898924
0.67553681 0.20019946 -0.0093007507
0.67553163 0.20092276 -0.009311609
0.67552644 0.20164607 -0.0093224673
0.67552119 0.20236939 -0.0093333255
0.67551601 0.20309269 -0.0093441838
0.67551082 0.20381601 -0.0093550431
0.67550558 0.20453931 -0.0093659014
0.67550039 0.20526263 -0.0093767596
0.67549521 0.20598595 -0.0093876179
0.67548996 0.20670927 -0.0093984772
0.67548478 0.20743257 -0.0094093354
0.67547959 0.20815589 -0.0094201937
0.67547435 0.2088792 -0.009431052
0.67478961 0.21001792 -0.010204986
0.67478436 0.21074283 -0.010215868
0.67477918 0.21146773 -0.010226751
0.67477393 0.21219264 -0.010237633
0.67476875 0.21291754 -0.010248515
0.6747635 0.21364245 -0.010259397
0.67475832 0.21436736 -0.01027028
0.67475307 0.21509227 -0.010281162
0.67474788 0.21581717 -0.010292045
0.67474264 0.21654208 -0.010302927
0.67473745 0.21726699 -0.01031381
0.67473221 0.21799189 -0.010324692
0.67472702 0.21871679 -0.010335574
0.67472178 0.2194417 -0.010346456
0.67471659 0.22016661 -0.010357339
0.67471135 0.22089151 -0.010368221
0.67470616 0.22161642 -0.010379104
0.67470092 0.22234133 -0.010389986
0.67469573 0.22306623 -0.010400869
0.67469049 0.22379112 -0.010411751
0.6746853 0.22451603 -0.010422633
0.67468005 0.22524095 -0.010433516
0.67467487 0.22596584 -0.010444398
0.67466962 0.22669074 -0.010455281
0.67466444 0.22741567 -0.010466163
0.67465919 0.22814056 -0.010477045
0.67465401 0.22886546 -0.010487927
0.67464876 0.22959036 -0.01049881
0.67464358 0.23031528 -0.010509692
0.67463833 0.23104018 -0.010520575
0.67463315 0.23176508 -0.010531457
0.6746279 0.23248999 -0.01054234
0.67462265 0.2332149 -0.010553221
0.67529744 0.23347181 -0.0098002395
0.67529219 0.23419513 -0.0098110978
0.67528701 0.23491845 -0.009821957
0.67528182 0.23564175 -0.0098328153
0.67527658 0.23636505 -0.0098436736
0.67527139 0.23708838 -0.0098545318
0.67526621 0.23781168 -0.0098653901
0.67458093 0.23901415 -0.01064028
0.67457575 0.23973905 -0.010651163
0.6745705 0.24046396 -0.010662045
0.67456532 0.24118887 -0.010672928
0.67456007 0.24191377 -0.01068381
0.67455488 0.24263866 -0.010694693
0.67746633 -0.09952198 -0.0061269673
0.67746115 -0.098797068 -0.0061378498
0.6774559 -0.098072171 -0.0061487323
0.67745072 -0.09734726 -0.0061596143
0.67744547 -0.096622363 -0.0061704968
0.67744029 -0.095897451 -0.0061813793
0.67743504 -0.095172554 -0.0061922614
0.67742985 -0.094447643 -0.0062031439
0.67742461 -0.093722731 -0.0062140264
0.67741936 -0.092997834 -0.0062249084
0.67741418 -0.092272922 -0.0062357909
0.67740893 -0.091548018 -0.0062466734
0.67740375 -0.090823106 -0.0062575559
0.6773985 -0.09009821 -0.006268438
0.67739332 -0.089373298 -0.0062793205
0.67738807 -0.088648401 -0.006290203
0.67738289 -0.08792349 -0.0063010855
0.67737764 -0.087198585 -0.0063119675
0.67737246 -0.086473681 -0.00632285
0.67736721 -0.085748777 -0.0063337325
0.67736202 -0.085023873 -0.0063446146
0.67735678 -0.084298968 -0.0063554971
0.67735159 -0.083574064 -0.0063663796
0.67734635 -0.08284916 -0.0063772621
0.67734116 -0.082124248 -0.0063881441
0.67733592 -0.081399344 -0.0063990266
0.67733073 -0.080674432 -0.0064099091
0.67732549 -0.079949535 -0.0064207916
0.6773203 -0.079224624 -0.0064316737
0.67731506 -0.078499727 -0.0064425562
0.67730987 -0.077774815 -0.0064534387
0.67730463 -0.077049918 -0.0064643207
0.67729944 -0.076325007 -0.0064752032
0.67729419 -0.075600103 -0.0064860857
0.67728901 -0.074875198 -0.0064969677
0.67728376 -0.074150287 -0.0065078503
0.67727858 -0.07342539 -0.0065187328
0.67727333 -0.072700478 -0.0065296153
0.67726815 -0.071975574 -0.0065404973
0.6772629 -0.071250662 -0.0065513798
0.67725772 -0.070525758 -0.0065622623
0.67657828 -0.070000425 -0.007328263
0.6765731 -0.069273926 -0.0073391693
0.67656785 -0.068547428 -0.0073500755
0.67656261 -0.067820929 -0.0073609818
0.67655742 -0.06709443 -0.007371888
0.67655218 -0.066367932 -0.0073827943
0.67654693 -0.065641433 -0.0073937005
0.67654169 -0.064914934 -0.0074046073
0.6765365 -0.064188428 -0.0074155135
0.67653126 -0.063461937 -0.0074264198
0.67652601 -0.062735431 -0.007437326
0.67652082 -0.06200894 -0.0074482323
0.67651558 -0.061282437 -0.0074591385
0.67651033 -0.060555942 -0.0074700448
0.67650515 -0.05982944 -0.007480951
0.6764999 -0.059102938 -0.0074918577
0.67649466 -0.058376443 -0.0075027635
0.67648941 -0.057649948 -0.0075136698
0.67648423 -0.056923453 -0.007524576
0.67647898 -0.05619695 -0.0075354828
0.67647374 -0.055470455 -0.007546389
0.67646855 -0.054743953 -0.0075572953
0.67646331 -0.054017458 -0.0075682015
0.67645806 -0.053290956 -0.0075791078
0.67645288 -0.052564453 -0.007590014
0.67644763 -0.051837958 -0.0076009203
0.67644238 -0.051111456 -0.0076118265
0.67643714 -0.050384961 -0.0076227328
0.67643195 -0.049658459 -0.007633639
0.67642671 -0.048931964 -0.0076445453
0.67642146 -0.048205465 -0.0076554515
0.67574173 -0.047629133 -0.008422194
0.67573649 -0.046901047 -0.0084331241
0.67573124 -0.04617295 -0.0084440541
0.675726 -0.045444865 -0.0084549841
0.67572081 -0.044716768 -0.008465915
0.67571557 -0.043988679 -0.008476845
0.67571032 -0.043260586 -0.008487775
0.67570508 -0.042532496 -0.008498705
0.67569983 -0.041804407 -0.008509635
0.67569458 -0.041076314 -0.0085205659
0.67568934 -0.040348221 -0.0085314959
0.67568409 -0.039620128 -0.0085424259
0.67567885 -0.038892034 -0.0085533559
0.67567366 -0.038163945 -0.0085642859
0.67566842 -0.037435852 -0.0085752169
0.67566317 -0.036707759 -0.0085861469
0.67565793 -0.03597967 -0.0085970769
0.67565268 -0.035251576 -0.0086080069
0.67564744 -0.034523483 -0.0086189378
0.67564219 -0.033795394 -0.0086298678
0.67563695 -0.033067301 -0.0086407978
0.6756317 -0.032339212 -0.0086517278
0.67562646 -0.031611118 -0.0086626587
0.67562127 -0.030883025 -0.0086735887
0.67629081 -0.030043002 -0.0079281088
0.67628556 -0.029316504 -0.0079390155
0.67628032 -0.028590005 -0.0079499213
0.67627513 -0.027863503 -0.007960828
0.67626989 -0.027137004 -0.0079717338
0.67626464 -0.026410505 -0.0079826405
0.67625946 -0.025684007 -0.0079935472
0.67625421 -0.024957508 -0.008004453
0.67624897 -0.024231013 -0.0080153598
0.67624378 -0.023504514 -0.0080262655
0.67623854 -0.022778016 -0.0080371723
0.67623329 -0.022051513 -0.008048078
0.67622805 -0.021325015 -0.0080589848
0.67622286 -0.020598516 -0.0080698906
0.67621762 -0.019872017 -0.0080807973
0.67621237 -0.019145519 -0.0080917031
0.67620718 -0.01841902 -0.0081026098
0.67620194 -0.017692525 -0.0081135156
0.67619669 -0.016966026 -0.0081244223
0.67619151 -0.016239526 -0.008135329
0.67618626 -0.015513026 -0.0081462348
0.67618102 -0.014786527 -0.0081571415
0.67617577 -0.014060029 -0.0081680473
0.67617059 -0.013333532 -0.008178954
0.67616534 -0.012607034 -0.0081898598
0.6761601 -0.011880534 -0.0082007665
0.67615491 -0.011154035 -0.0082116723
0.67614967 -0.010427538 -0.008222579
0.67614442 -0.0097010396 -0.0082334848
0.67613924 -0.0089745391 -0.0082443915
0.67613399 -0.0082480405 -0.0082552982
0.67612875 -0.0075215437 -0.008266204
0.6761235 -0.006795045 -0.0082771108
0.67611831 -0.0060685449 -0.0082880165
0.67611307 -0.0053420463 -0.0082989233
0.67610782 -0.0046155495 -0.008309829
0.67610264 -0.0038890489 -0.0083207358
0.67609739 -0.0031625505 -0.0083316416
0.67609215 -0.0024360518 -0.0083425483
0.67608696 -0.0017095542 -0.0083534541
0.67608172 -0.0009830537 -0.0083643608
0.67607647 -0.00025655609 -0.0083752675
0.67607123 0.00046994249 -0.0083861733
0.67606604 0.0011964411 -0.00839708
0.6760608 0.0019229397 -0.0084079858
0.67538029 0.0026091968 -0.0091763781
0.67537504 0.0033372878 -0.0091873081
0.6753698 0.0040653804 -0.0091982381
0.67536455 0.0047934717 -0.0092091691
0.67535931 0.0055215633 -0.0092200991
0.67535406 0.006249655 -0.0092310291
0.67534882 0.0069777472 -0.0092419591
0.67534357 0.0077058384 -0.0092528891
0.67533833 0.0084339306 -0.00926382
0.67533314 0.0091620218 -0.00927475
0.6753279 0.009890114 -0.00928568
0.67532265 0.010618206 -0.00929661
0.67531741 0.011346297 -0.009307541
0.67531216 0.012074389 -0.009318471
0.67530692 0.012802482 -0.009329401
0.67530167 0.013530573 -0.009340331
0.67529643 0.014258665 -0.009351261
0.67529118 0.014986756 -0.0093621919
0.67528594 0.015714848 -0.0093731219
0.67528075 0.01644294 -0.0093840519
0.6752755 0.017171033 -0.0093949819
0.67527026 0.017899124 -0.0094059128
0.67526501 0.018627215 -0.0094168428
0.67525977 0.019355308 -0.0094277728
0.67525452 0.020083399 -0.0094387028
0.67524928 0.020811491 -0.0094496328
0.67524403 0.021539584 -0.0094605638
0.67523879 0.022267675 -0.0094714938
0.6752336 0.022995766 -0.0094824238
0.67522836 0.023723857 -0.0094933538
0.67522311 0.024451951 -0.0095042847
0.67521787 0.025180042 -0.0095152147
0.67521262 0.025908133 -0.0095261447
0.67520738 0.026636226 -0.0095370747
0.67520213 0.027364317 -0.0095480047
0.67519689 0.02809241 -0.0095589356
0.67519164 0.028820502 -0.0095698657
0.67518646 0.029548593 -0.0095807957
0.67518121 0.030276684 -0.0095917257
0.67517596 0.031004777 -0.0096026566
0.67517072 0.031732868 -0.0096135866
0.67516547 0.032460961 -0.0096245166
0.67516023 0.033189051 -0.0096354466
0.67515498 0.033917144 -0.0096463766
0.67514974 0.034645233 -0.0096573075
0.67514449 0.035373326 -0.0096682375
0.67513931 0.036101419 -0.0096791675
0.67513406 0.036829513 -0.0096900975
0.67512882 0.037557602 -0.0097010285
0.67512357 0.038285691 -0.0097119585
0.67511833 0.039013784 -0.0097228885
0.67511308 0.039741877 -0.0097338185
0.67510784 0.040469971 -0.0097447485
0.67510259 0.04119806 -0.0097556794
0.67509735 0.041926153 -0.0097666094
0.6750921 0.042654246 -0.0097775394
0.67508692 0.043382335 -0.0097884694
0.67508167 0.044110429 -0.0097994003
0.67507643 0.044838522 -0.0098103303
0.67507118 0.045566611 -0.0098212603
0.67506593 0.046294708 -0.0098321903
0.67506069 0.047022797 -0.0098431204
0.67505544 0.047750887 -0.0098540513
0.6750502 0.04847898 -0.0098649813
0.67504495 0.049207069 -0.0098759113
0.67503977 0.049935162 -0.0098868413
0.67503452 0.050663251 -0.0098977722
0.67502928 0.051391345 -0.0099087022
0.67502403 0.052119441 -0.0099196322
0.67501879 0.052847531 -0.0099305622
0.67501354 0.053575624 -0.0099414932
0.6750083 0.054303713 -0.0099524232
0.67500305 0.055031806 -0.0099633532
0.67499781 0.055759899 -0.0099742832
0.67499262 0.056487985 -0.0099852132
0.67566353 0.057136834 -0.0092368638
0.67565829 0.057863336 -0.0092477705
0.67565304 0.058589835 -0.0092586763
0.67564785 0.05931633 -0.009269583
0.67564261 0.060042828 -0.0092804888
0.67563736 0.060769327 -0.0092913955
0.67563218 0.061495822 -0.0093023013
0.67562693 0.062222321 -0.0093132081
0.67562169 0.062948823 -0.0093241148
0.6756165 0.063675322 -0.0093350206
0.67561126 0.06440182 -0.0093459273
0.67560601 0.065128319 -0.0093568331
0.67560077 0.065854818 -0.0093677398
0.67559558 0.066581316 -0.0093786456
0.67559034 0.067307815 -0.0093895523
0.67558509 0.068034314 -0.0094004581
0.67557991 0.068760812 -0.0094113648
0.67557466 0.069487311 -0.0094222706
0.67556942 0.07021381 -0.0094331773
0.67556423 0.070940308 -0.009444084
0.67555898 0.071666807 -0.0094549898
0.67555374 0.072393313 -0.0094658965
0.67554849 0.073119804 -0.0094768023
0.67554331 0.073846303 -0.009487709
0.67553806 0.074572802 -0.0094986148
0.67553282 0.0752993 -0.0095095215
0.67552763 0.076025791 -0.0095204273
0.67552239 0.07675229 -0.009531334
0.67551714 0.077478789 -0.0095422398
0.67551196 0.078205287 -0.0095531465
0.67550671 0.078931794 -0.0095640533
0.67550147 0.079658285 -0.0095749591
0.67549622 0.080384791 -0.0095858658
0.67549103 0.081111282 -0.0095967716
0.67548579 0.081837788 -0.0096076783
0.67480397 0.082699291 -0.010378701
0.67547536 0.083290786 -0.0096294908
0.67479354 0.084155478 -0.010400562
0.6747883 0.084883571 -0.010411492
0.67478305 0.085611664 -0.010422422
0.67477781 0.086339757 -0.010433352
0.67477256 0.087067842 -0.010444283
0.67476732 0.087795928 -0.010455213
0.67476207 0.088524029 -0.010466143
0.67475682 0.089252114 -0.010477073
0.67475158 0.089980215 -0.010488003
0.67542309 0.090555772 -0.0097385533
0.67541784 0.091282263 -0.00974946
0.6754126 0.09200877 -0.0097603658
0.67540741 0.092735261 -0.0097712725
0.67540216 0.093461767 -0.0097821783
0.67539692 0.094188258 -0.009793085
0.67539167 0.094914764 -0.0098039908
0.67538649 0.095641263 -0.0098148976
0.67538124 0.096367761 -0.0098258033
0.675376 0.09709426 -0.0098367101
0.67537081 0.097820759 -0.0098476168
0.67536557 0.098547257 -0.0098585226
0.67536032 0.099273756 -0.0098694293
0.67535514 0.10000025 -0.0098803351
0.67534989 0.10072675 -0.0098912418
0.67534465 0.10145324 -0.0099021476
0.6753394 0.10217975 -0.0099130543
0.67533422 0.10290624 -0.0099239601
0.67532897 0.10363275 -0.0099348668
0.67532372 0.10435924 -0.0099457726
0.67531854 0.10508575 -0.0099566793
0.67531329 0.10581224 -0.0099675851
0.67530805 0.10653874 -0.0099784918
0.67530286 0.10726524 -0.0099893985
0.67529762 0.10799174 -0.010000304
0.67529237 0.10871824 -0.010011211
0.67528713 0.10944473 -0.010022117
0.67528194 0.11017124 -0.010033024
0.6752767 0.11089773 -0.010043929
0.67527145 0.11162423 -0.010054836
0.67526627 0.11235073 -0.010065743
0.67526102 0.11307723 -0.010076649
0.67525578 0.11380372 -0.010087554
0.67525059 0.11453022 -0.010098461
0.67524534 0.11525672 -0.010109368
0.6752401 0.11598322 -0.010120274
0.67523485 0.11670972 -0.01013118
0.67522967 0.11743622 -0.010142086
0.67590159 0.11794963 -0.0093916794
0.67589635 0.11867455 -0.0094025619
0.67589116 0.11939945 -0.0094134444
0.67520875 0.12034222 -0.010185711
0.6752035 0.12106871 -0.010196618
0.67519832 0.12179521 -0.010207524
0.67519307 0.12252171 -0.01021843
0.67518783 0.12324821 -0.010229337
0.67518258 0.12397471 -0.010240243
0.6751774 0.12470121 -0.01025115
0.67517215 0.12542771 -0.010262055
0.6751669 0.1261542 -0.010272962
0.67516172 0.12688071 -0.010283868
0.67515647 0.1276072 -0.010294775
0.67515123 0.1283337 -0.01030568
0.67514604 0.12906019 -0.010316587
0.6751408 0.1297867 -0.010327493
0.67513555 0.13051319 -0.0103384
0.67513031 0.1312397 -0.010349305
0.67512512 0.13196619 -0.010360212
0.67511988 0.13269269 -0.010371119
0.67511463 0.13341919 -0.010382025
0.67510945 0.13414569 -0.010392931
0.6751042 0.13487218 -0.010403837
0.67509896 0.13559869 -0.010414744
0.67509377 0.13632518 -0.01042565
0.67508852 0.13705169 -0.010436556
0.67508328 0.13777818 -0.010447462
0.67575556 0.13824698 -0.0096963858
0.67575032 0.13897189 -0.0097072683
0.67574513 0.13969679 -0.0097181508
0.67573988 0.14042172 -0.0097290333
0.6757347 0.14114662 -0.0097399158
0.67572945 0.14187151 -0.0097507974
0.67572427 0.14259642 -0.0097616799
0.67571902 0.14332134 -0.0097725624
0.67571384 0.14404623 -0.0097834449
0.67570859 0.14477113 -0.0097943274
0.67570335 0.14549604 -0.0098052099
0.67569816 0.14622095 -0.0098160924
0.67569292 0.14694585 -0.009826974
0.67568773 0.14767076 -0.0098378565
0.67568249 0.14839566 -0.009848739
0.67635494 0.14883898 -0.0090973042
0.6763497 0.14956228 -0.0091081625
0.67634451 0.15028562 -0.0091190217
0.67633933 0.15100893 -0.00912988
0.67633408 0.15173224 -0.0091407383
0.6763289 0.15245555 -0.0091515966
0.67632371 0.15317887 -0.0091624549
0.67631847 0.15390217 -0.0091733132
0.67631328 0.15462548 -0.0091841724
0.6763081 0.15534881 -0.0091950307
0.67630285 0.15607211 -0.009205889
0.6756199 0.15709454 -0.0099793272
0.67629248 0.15751874 -0.0092276065
0.67628729 0.15824206 -0.0092384648
0.67628205 0.15896536 -0.009249323
0.67627686 0.15968867 -0.0092601813
0.67627168 0.16041198 -0.0092710396
0.67626643 0.1611353 -0.0092818979
0.67626125 0.1618586 -0.0092927562
0.67625606 0.16258191 -0.0093036145
0.67625082 0.16330524 -0.0093144737
0.67624563 0.16402856 -0.009325332
0.67624044 0.16475186 -0.0093361903
0.6762352 0.16547517 -0.0093470486
0.67623001 0.16619849 -0.0093579078
0.67622483 0.16692179 -0.0093687661
0.67689753 0.16732208 -0.0086166607
0.67689234 0.16804381 -0.0086274957
0.67688715 0.16876554 -0.0086383298
0.67688197 0.16948725 -0.0086491648
0.67687678 0.17020898 -0.0086599989
0.6768716 0.1709307 -0.0086708339
0.67686641 0.17165241 -0.008681668
0.67686123 0.17237411 -0.008692502
0.67685598 0.17309585 -0.0087033371
0.6768508 0.17381757 -0.0087141721
0.67684561 0.17453928 -0.0087250061
0.67684042 0.17526101 -0.0087358411
0.67683524 0.17598273 -0.0087466752
0.67683005 0.17670444 -0.0087575093
0.67682487 0.17742616 -0.0087683443
0.67681968 0.17814788 -0.0087791793
0.67681444 0.17886961 -0.0087900134
0.67680925 0.17959131 -0.0088008475
0.67680407 0.18031304 -0.0088116825
0.67679888 0.18103476 -0.0088225175
0.67679369 0.18175648 -0.0088333515
0.67678851 0.18247819 -0.0088441866
0.67678332 0.18319991 -0.0088550206
0.67677814 0.18392164 -0.0088658556
0.67677289 0.18464334 -0.0088766897
0.67676771 0.18536507 -0.0088875247
0.67676252 0.1860868 -0.0088983588
0.67675734 0.18680851 -0.0089091938
0.67675215 0.18753022 -0.0089200279
0.67674696 0.18825194 -0.0089308629
0.67674178 0.18897367 -0.008941697
0.67673659 0.18969539 -0.008952532
0.67673135 0.1904171 -0.008963366
0.67672616 0.19113883 -0.008974201
0.67672098 0.19186054 -0.0089850351
0.67671579 0.19258225 -0.0089958692
0.67671061 0.19330397 -0.0090067042
0.67670542 0.1940257 -0.0090175383
0.67670023 0.19474742 -0.0090283733
0.67669505 0.19546913 -0.0090392074
0.6766898 0.19619086 -0.0090500424
0.67668462 0.19691257 -0.0090608764
0.67667943 0.19763428 -0.0090717115
0.67667425 0.198356 -0.0090825455
0.67666906 0.19907774 -0.0090933805
0.67666388 0.19979945 -0.0091042155
0.67665869 0.20052116 -0.0091150496
0.6766535 0.20124289 -0.0091258846
0.67664832 0.2019646 -0.0091367187
0.67664307 0.20268632 -0.0091475537
0.67663789 0.20340806 -0.0091583878
0.6766327 0.20412977 -0.0091692228
0.67662752 0.20485148 -0.0091800569
0.67662233 0.20557319 -0.0091908909
0.67593855 0.20670398 -0.0099659814
0.67593336 0.20742728 -0.0099768396
0.67592818 0.2081506 -0.0099876979
0.67592293 0.20887391 -0.0099985562
0.67591774 0.20959722 -0.010009415
0.67591256 0.21032052 -0.010020273
0.67590737 0.21104383 -0.010031131
0.67590213 0.21176715 -0.01004199
0.67589694 0.21249047 -0.010052849
0.67589176 0.21321377 -0.010063707
0.67588651 0.21393709 -0.010074565
0.67588133 0.21466041 -0.010085424
0.67587614 0.21538371 -0.010096283
0.6758709 0.21610703 -0.010107141
0.67586571 0.21683034 -0.010117999
0.67518181 0.21798658 -0.010893447
0.67517656 0.2187115 -0.01090433
0.67517138 0.21943639 -0.010915211
0.67516613 0.2201613 -0.010926094
0.67516094 0.2208862 -0.010936976
0.6751557 0.22161111 -0.010947859
0.67515051 0.22233602 -0.010958741
0.67514527 0.22306092 -0.010969624
0.67514008 0.22378582 -0.010980506
0.67513484 0.22451073 -0.010991388
0.67580849 0.22478677 -0.010237442
0.67580324 0.22551008 -0.010248301
0.67579806 0.22623339 -0.010259159
0.67579287 0.22695673 -0.010270018
0.67578763 0.22768003 -0.010280876
0.67578244 0.22840333 -0.010291735
0.67577726 0.22912665 -0.010302593
0.67577201 0.22984996 -0.010313451
0.67576683 0.23057327 -0.01032431
0.67576164 0.23129657 -0.010335169
0.67575639 0.2320199 -0.010346027
0.67575121 0.2327432 -0.010356885
0.67574602 0.23346652 -0.010367744
0.67574078 0.23418982 -0.010378602
0.67573559 0.23491316 -0.010389461
0.67573041 0.23563646 -0.010400319
0.67572516 0.23635976 -0.010411178
0.67571998 0.23708309 -0.010422036
0.67571479 0.23780639 -0.010432894
0.67570961 0.2385297 -0.010443753
0.67570436 0.239253 -0.010454611
0.67569917 0.23997633 -0.01046547
0.67569399 0.24069965 -0.010476328
0.67568874 0.24142295 -0.010487187
0.67568356 0.24214625 -0.010498045
0.67791593 -0.099527277 -0.0066957283
0.67791069 -0.098802373 -0.0067066108
0.6779055 -0.098077469 -0.0067174928
0.67857301 -0.097092457 -0.0059729391
0.67856783 -0.09636914 -0.0059837978
0.67856258 -0.095645823 -0.0059946561
0.6785574 -0.09492252 -0.0060055144
0.67855221 -0.094199203 -0.0060163732
0.67854697 -0.093475893 -0.0060272315
0.67786896 -0.093003139 -0.0067936694
0.67786378 -0.092278227 -0.0068045519
0.67785853 -0.091553323 -0.0068154344
0.67785335 -0.090828411 -0.0068263169
0.6778481 -0.090103514 -0.006837199
0.67784292 -0.089378603 -0.0068480815
0.67783767 -0.088653706 -0.006858964
0.67783248 -0.087928794 -0.0068698465
0.67782724 -0.08720389 -0.0068807285
0.67782205 -0.086478986 -0.006891611
0.67781681 -0.085754082 -0.0069024935
0.67781162 -0.085029177 -0.0069133756
0.67780638 -0.084304273 -0.0069242581
0.67780119 -0.083579369 -0.0069351406
0.67779595 -0.082854465 -0.0069460226
0.67779076 -0.082129553 -0.0069569051
0.67778552 -0.081404641 -0.0069677876
0.67778033 -0.080679737 -0.0069786701
0.67777508 -0.079954833 -0.0069895522
0.6777699 -0.079229929 -0.0070004347
0.67843771 -0.078286335 -0.0062552593
0.67843246 -0.077563025 -0.0062661176
0.67842728 -0.076839715 -0.0062769759
0.67842209 -0.076116405 -0.0062878346
0.67841685 -0.075393081 -0.0062986929
0.67841166 -0.074669778 -0.0063095517
0.67840648 -0.073946461 -0.0063204099
0.67840123 -0.073223151 -0.0063312682
0.67839605 -0.072499841 -0.006342127
0.67771769 -0.071980879 -0.0071092583
0.6777125 -0.071255967 -0.0071201408
0.67770725 -0.070531063 -0.0071310233
0.67770207 -0.069806159 -0.0071419058
0.67769682 -0.069081254 -0.0071527879
0.67769164 -0.06835635 -0.0071636704
0.67768639 -0.067631446 -0.0071745529
0.67768121 -0.066906542 -0.0071854349
0.67767596 -0.066181637 -0.0071963174
0.67767078 -0.065456733 -0.0072071999
0.67766553 -0.064731829 -0.0072180824
0.67766035 -0.064006917 -0.0072289645
0.6776551 -0.06328202 -0.007239847
0.67764992 -0.062557109 -0.0072507295
0.67697138 -0.062014256 -0.0080182441
0.67696613 -0.061287753 -0.0080291508
0.67763424 -0.060382392 -0.0072833765
0.67762905 -0.059657484 -0.007294259
0.67762381 -0.058932576 -0.0073051411
0.67761862 -0.058207676 -0.0073160236
0.67761338 -0.057482768 -0.0073269061
0.67760819 -0.056757867 -0.0073377881
0.67760295 -0.056032959 -0.0073486706
0.67759776 -0.055308059 -0.0073595531
0.67759252 -0.054583151 -0.0073704356
0.67758733 -0.05385825 -0.0073813177
0.67758209 -0.053133342 -0.0073922002
0.6775769 -0.052408431 -0.0074030827
0.67689818 -0.051843274 -0.0081709325
0.67689294 -0.051116772 -0.0081818383
0.67688775 -0.050390277 -0.008192745
0.67688251 -0.049663775 -0.0082036508
0.67687726 -0.04893728 -0.0082145575
0.67687207 -0.048210781 -0.0082254633
0.67686683 -0.047484279 -0.00823637
0.67686158 -0.046757784 -0.0082472758
0.6768564 -0.046031281 -0.0082581826
0.67685115 -0.045304786 -0.0082690883
0.67684591 -0.044578284 -0.0082799951
0.67684066 -0.043851789 -0.0082909018
0.67683548 -0.043125287 -0.0083018076
0.67683023 -0.042398792 -0.0083127143
0.67682499 -0.041672293 -0.0083236201
0.6768198 -0.040945794 -0.0083345268
0.67681456 -0.040219296 -0.0083454326
0.67680931 -0.039492793 -0.0083563393
0.67680413 -0.038766295 -0.0083672451
0.67679888 -0.038039796 -0.0083781518
0.67679363 -0.037313297 -0.0083890576
0.67678839 -0.036586802 -0.0083999643
0.6767832 -0.035860304 -0.0084108701
0.67677796 -0.035133805 -0.0084217768
0.67677271 -0.03440731 -0.0084326835
0.67676753 -0.033680808 -0.0084435893
0.67676228 -0.032954309 -0.008454496
0.67675704 -0.03222781 -0.0084654018
0.67675185 -0.031501312 -0.0084763085
0.67674661 -0.030774811 -0.0084872143
0.67674136 -0.030048316 -0.0084981211
0.67673612 -0.029321818 -0.0085090268
0.67673093 -0.028595319 -0.0085199336
0.67672569 -0.027868817 -0.0085308393
0.67672044 -0.027142318 -0.0085417461
0.67671525 -0.026415821 -0.0085526528
0.67671001 -0.025689323 -0.0085635586
0.67670476 -0.024962824 -0.0085744653
0.67669958 -0.024236329 -0.0085853711
0.67669433 -0.02350983 -0.0085962778
0.67668909 -0.022783332 -0.0086071836
0.67668384 -0.022056829 -0.0086180903
0.67667866 -0.021330331 -0.0086289961
0.67667341 -0.020603832 -0.0086399028
0.67666817 -0.019877333 -0.0086508086
0.67666298 -0.019150835 -0.0086617153
0.67665774 -0.018424336 -0.008672622
0.67665249 -0.017697841 -0.0086835278
0.67664731 -0.01697134 -0.0086944345
0.67731607 -0.016163161 -0.0079472009
0.67731088 -0.015438257 -0.0079580834
0.67663157 -0.014791843 -0.0087271528
0.67730045 -0.013988446 -0.0079798484
0.67729521 -0.013263542 -0.0079907309
0.67729002 -0.012538636 -0.0080016134
0.67728478 -0.011813729 -0.0080124959
0.67727959 -0.011088825 -0.0080233775
0.67727435 -0.010363919 -0.00803426
0.67726916 -0.0096390145 -0.0080451425
0.67726392 -0.0089141084 -0.008056025
0.67725873 -0.0081892041 -0.0080669075
0.67725348 -0.0074642976 -0.00807779
0.6772483 -0.0067393933 -0.0080886725
0.67724305 -0.0060144872 -0.0080995541
0.67723787 -0.0052895807 -0.0081104366
0.67723262 -0.0045646764 -0.0081213191
0.67722744 -0.0038397701 -0.0081322016
0.67722219 -0.0031148659 -0.0081430841
0.67654276 -0.0024413669 -0.0089125596
0.67653751 -0.0017148694 -0.0089234663
0.67653227 -0.00098836888 -0.008934373
0.67652702 -0.00026187126 -0.0089452788
0.67652184 0.00046462734 -0.0089561855
0.67651659 0.0011911259 -0.0089670913
0.67651135 0.0019176245 -0.008977998
0.67650616 0.002644123 -0.0089889038
0.67650092 0.0033706217 -0.0089998106
0.67649567 0.0040971204 -0.0090107163
0.67649049 0.004823619 -0.0090216231
0.67648524 0.0055501172 -0.0090325288
0.67648 0.0062766159 -0.0090434356
0.67647475 0.0070031146 -0.0090543414
0.67646956 0.0077296132 -0.0090652481
0.67646432 0.0084561119 -0.0090761548
0.67645907 0.0091826105 -0.0090870606
0.67645389 0.0099091092 -0.0090979673
0.67644864 0.010635608 -0.0091088731
0.6764434 0.011362107 -0.0091197798
0.67643821 0.012088605 -0.0091306856
0.67643297 0.012815104 -0.0091415923
0.67642772 0.013541603 -0.0091524981
0.67642248 0.0142681 -0.0091634048
0.67641729 0.014994599 -0.0091743106
0.67641205 0.015721098 -0.0091852173
0.6764068 0.016447596 -0.0091961231
0.67640162 0.017174095 -0.0092070298
0.67639637 0.017900594 -0.0092179365
0.67639112 0.018627092 -0.0092288423
0.67638594 0.019353591 -0.0092397491
0.67638069 0.02008009 -0.0092506548
0.67637545 0.020806588 -0.0092615616
0.6763702 0.021533087 -0.0092724673
0.67636502 0.022259586 -0.0092833741
0.67635977 0.022986084 -0.0092942799
0.67635453 0.023712583 -0.0093051866
0.67634934 0.024439082 -0.0093160924
0.6763441 0.02516558 -0.0093269991
0.67633885 0.025892079 -0.0093379058
0.67633367 0.026618578 -0.0093488116
0.67632842 0.027345076 -0.0093597183
0.67632318 0.028071575 -0.0093706241
0.67631793 0.028798074 -0.0093815308
0.67631274 0.02952457 -0.0093924366
0.6763075 0.030251069 -0.0094033433
0.67630225 0.03097757 -0.0094142491
0.67629707 0.031704068 -0.0094251558
0.67629182 0.032430567 -0.0094360616
0.67628658 0.033157062 -0.0094469683
0.67628139 0.033883564 -0.0094578741
0.67627615 0.034610063 -0.0094687808
0.6762709 0.035336558 -0.0094796875
0.67626566 0.036063056 -0.0094905933
0.67626047 0.036789559 -0.0095015001
0.67625523 0.037516057 -0.0095124058
0.67624998 0.038242556 -0.0095233126
0.6762448 0.038969051 -0.0095342183
0.67623955 0.039695553 -0.0095451251
0.6762343 0.040422052 -0.0095560309
0.67622912 0.041148551 -0.0095669376
0.67622387 0.041875046 -0.0095778434
0.67621863 0.042601548 -0.0095887501
0.67621338 0.043328047 -0.0095996568
0.6762082 0.044054545 -0.0096105626
0.67620295 0.04478104 -0.0096214693
0.67619771 0.045507539 -0.0096323751
0.67619252 0.046234041 -0.0096432818
0.67618728 0.04696054 -0.0096541876
0.67618203 0.047687039 -0.0096650943
0.67617685 0.048413537 -0.0096760001
0.6761716 0.049140032 -0.0096869068
0.67616636 0.049866531 -0.0096978126
0.67616111 0.05059303 -0.0097087193
0.67615592 0.051319528 -0.0097196251
0.67615068 0.052046031 -0.0097305318
0.67614543 0.052772529 -0.0097414386
0.67614025 0.053499028 -0.0097523443
0.676135 0.054225527 -0.0097632511
0.67612976 0.054952025 -0.0097741568
0.67612457 0.05567852 -0.0097850636
0.67611933 0.056405019 -0.0097959694
0.67611408 0.057131518 -0.0098068761
0.67610884 0.05785802 -0.0098177819
0.67610365 0.058584519 -0.0098286886
0.67609841 0.059311017 -0.0098395944
0.67609316 0.060037516 -0.0098505011
0.67608798 0.060764015 -0.0098614078
0.67608273 0.06149051 -0.0098723136
0.67607749 0.062217008 -0.0098832203
0.67674756 0.062851526 -0.0091333799
0.67674237 0.06357643 -0.0091442624
0.67673713 0.064301334 -0.0091551449
0.67673194 0.065026239 -0.0091660274
0.6767267 0.065751143 -0.0091769099
0.67672145 0.066476054 -0.0091877915
0.67671627 0.067200959 -0.009198674
0.67671102 0.067925863 -0.0092095565
0.67670584 0.068650767 -0.009220439
0.67670059 0.069375671 -0.0092313215
0.67669541 0.070100576 -0.009242204
0.67669016 0.07082548 -0.0092530865
0.67668498 0.071550392 -0.0092639681
0.67667973 0.072275303 -0.0092748506
0.67667454 0.0730002 -0.0092857331
0.6766693 0.073725112 -0.0092966156
0.67598861 0.074567482 -0.010068627
0.67598343 0.075293988 -0.010079533
0.67597818 0.076020479 -0.01009044
0.67597294 0.076746978 -0.010101345
0.67596775 0.077473477 -0.010112252
0.67596251 0.078199975 -0.010123158
0.67595726 0.078926481 -0.010134065
0.67595202 0.079652973 -0.010144971
0.67594683 0.080379479 -0.010155877
0.67594159 0.08110597 -0.010166784
0.67593634 0.081832476 -0.01017769
0.67593116 0.082558967 -0.010188596
0.67592591 0.083285466 -0.010199502
0.67592067 0.084011972 -0.010210409
0.67591548 0.084738463 -0.010221315
0.67591023 0.085464969 -0.010232221
0.67590499 0.08619146 -0.010243127
0.67589974 0.086917967 -0.010254034
0.67589456 0.087644458 -0.010264941
0.67588931 0.088370964 -0.010275846
0.67588407 0.089097455 -0.010286753
0.67587888 0.089823954 -0.010297659
0.67587364 0.090550452 -0.010308566
0.67586839 0.091276951 -0.010319471
0.67586321 0.09200345 -0.010330378
0.67585796 0.092729948 -0.010341284
0.67585272 0.093456447 -0.010352191
0.67584747 0.094182946 -0.010363096
0.67584229 0.094909444 -0.010374003
0.67583704 0.095635951 -0.01038491
0.67583179 0.096362442 -0.010395816
0.67582661 0.097088948 -0.010406722
0.67649722 0.097646981 -0.0096557336
0.67649198 0.098371886 -0.0096666161
0.67648679 0.099096797 -0.0096774986
0.67648154 0.099821702 -0.0096883811
0.67647636 0.10054661 -0.0096992636
0.67647111 0.10127151 -0.0097101461
0.67646593 0.10199642 -0.0097210286
0.67646068 0.10272132 -0.0097319102
0.6764555 0.10344623 -0.0097427927
0.67645025 0.10417113 -0.0097536752
0.67644507 0.10489604 -0.0097645577
0.67643982 0.10562094 -0.0097754402
0.67643464 0.10634585 -0.0097863227
0.67642939 0.10707075 -0.0097972052
0.67642421 0.10779566 -0.0098080868
0.67641896 0.10852056 -0.0098189693
0.67641377 0.10924547 -0.0098298518
0.67640853 0.10997038 -0.0098407343
0.67640334 0.11069528 -0.0098516168
0.6763981 0.11142019 -0.0098624993
0.67639291 0.1121451 -0.0098733818
0.67638767 0.11287 -0.0098842634
0.67638242 0.1135949 -0.0098951459
0.67637724 0.11431981 -0.0099060284
0.67637199 0.11504471 -0.0099169109
0.67636681 0.11576962 -0.0099277934
0.67636156 0.11649452 -0.0099386759
0.67635638 0.11721943 -0.0099495584
0.67635113 0.11794433 -0.00996044
0.67634594 0.11866924 -0.0099713225
0.6763407 0.11939415 -0.009982205
0.67633551 0.12011906 -0.0099930875
0.67633027 0.12084395 -0.01000397
0.67632508 0.12156887 -0.010014853
0.67631984 0.12229376 -0.010025735
0.67631465 0.12301867 -0.010036618
0.67630941 0.12374358 -0.010047499
0.67630422 0.12446848 -0.010058382
0.67629898 0.12519339 -0.010069264
0.67629379 0.12591828 -0.010080147
0.67628855 0.1266432 -0.010091029
0.67628336 0.12736811 -0.010101912
0.67627811 0.128093 -0.010112793
0.67627293 0.12881792 -0.010123676
0.67626768 0.12954283 -0.010134558
0.6762625 0.13026774 -0.010145441
0.67625725 0.13099264 -0.010156323
0.67625207 0.13171753 -0.010167206
0.67624682 0.13244244 -0.010178088
0.67624164 0.13316736 -0.010188971
0.67623639 0.13389225 -0.010199852
0.67623121 0.13461715 -0.010210735
0.67622596 0.13534206 -0.010221617
0.67622077 0.13606697 -0.0102325
0.67621553 0.13679187 -0.010243382
0.67621034 0.13751678 -0.010254265
0.6762051 0.13824168 -0.010265147
0.67619991 0.13896659 -0.010276029
0.67619467 0.13969149 -0.010286911
0.67618948 0.14041641 -0.010297794
0.67618424 0.14114131 -0.010308676
0.67617905 0.14186621 -0.010319559
0.67685038 0.14232388 -0.0095670884
0.67684513 0.1430472 -0.0095779467
0.67683995 0.14377052 -0.009588805
0.67683476 0.14449382 -0.0095996642
0.67682952 0.14521715 -0.0096105225
0.67682433 0.14594045 -0.0096213808
0.67681915 0.14666376 -0.0096322391
0.6768139 0.14738707 -0.0096430974
0.67680871 0.14811039 -0.0096539557
0.67680353 0.14883369 -0.0096648149
0.67679828 0.14955699 -0.0096756732
0.6767931 0.15028033 -0.0096865315
0.67678791 0.15100364 -0.0096973898
0.67678267 0.15172695 -0.0097082481
0.67677748 0.15245026 -0.0097191073
0.6767723 0.15317358 -0.0097299656
0.67676705 0.15389688 -0.0097408239
0.67676187 0.15462019 -0.0097516822
0.67675668 0.1553435 -0.0097625405
0.67675149 0.15606682 -0.0097733987
0.67674625 0.15679012 -0.009784257
0.67674106 0.15751345 -0.0097951163
0.67673588 0.15823677 -0.0098059746
0.67673063 0.15896007 -0.0098168328
0.67672545 0.15968338 -0.0098276911
0.67672026 0.16040669 -0.0098385504
0.67671502 0.16113001 -0.0098494086
0.6773867 0.16154306 -0.0090962444
0.67738152 0.16226478 -0.0091070784
0.67737633 0.1629865 -0.0091179134
0.67737114 0.16370821 -0.0091287475
0.6773659 0.16442995 -0.0091395825
0.67736071 0.16515167 -0.0091504166
0.67735553 0.16587338 -0.0091612516
0.67735034 0.16659509 -0.0091720857
0.67734516 0.16731681 -0.0091829197
0.67733997 0.16803853 -0.0091937548
0.67733479 0.16876025 -0.0092045898
0.6773296 0.16948198 -0.0092154238
0.67732435 0.1702037 -0.0092262588
0.67731917 0.17092541 -0.0092370929
0.67799097 0.17131457 -0.0084835943
0.67798579 0.1720347 -0.0084944051
0.67798066 0.17275484 -0.0085052159
0.67797548 0.17347495 -0.0085160257
0.67797029 0.17419507 -0.0085268365
0.6779651 0.17491522 -0.0085376473
0.67795992 0.17563534 -0.0085484581
