# .PCD v0.7 - Point Cloud Data file format
VERSION 0.7
FIELDS x y z
SIZE 4 4 4
TYPE F F F
COUNT 1 1 1
WIDTH 1335
HEIGHT 1
VIEWPOINT 0 0 0 1 0 0 0
POINTS 1335
DATA ascii
0.55926836 0.1782783 -0.011657082
0.5592621 0.17914978 -0.011670164
0.55847931 0.18031198 -0.012320685
0.55847305 0.18118505 -0.012333792
0.55846673 0.18205813 -0.012346898
0.559237 0.18263569 -0.011722495
0.55923074 0.18350719 -0.011735578
0.5584479 0.18467733 -0.012386219
0.55844164 0.18555041 -0.012399325
0.55921191 0.18612161 -0.011774827
0.55920565 0.18699309 -0.011787909
0.55919939 0.18786457 -0.011800992
0.55919307 0.18873605 -0.011814075
0.55918682 0.18960755 -0.011827158
0.55918056 0.19047903 -0.01184024
0.5591743 0.19135049 -0.011853322
0.55916804 0.19222197 -0.011866406
0.55916172 0.19309346 -0.011879489
0.55915546 0.19396493 -0.011892571
0.55914921 0.19483641 -0.011905654
0.55914295 0.1957079 -0.011918737
0.55913669 0.19657937 -0.01193182
0.55913037 0.19745085 -0.011944902
0.55912411 0.19832233 -0.011957985
0.55911785 0.19919382 -0.011971068
0.55988836 0.19973791 -0.011346124
0.5598821 0.20060779 -0.011359183
0.55987585 0.20147769 -0.011372242
0.55986959 0.20234758 -0.0113853
0.55986333 0.20321746 -0.011398359
0.55985707 0.20408735 -0.011411418
0.55985081 0.20495725 -0.011424477
0.55984455 0.20582713 -0.011437536
0.55983829 0.20669702 -0.011450595
0.55983204 0.20756692 -0.011463654
0.55982578 0.20843677 -0.011476712
0.55981952 0.20930666 -0.011489771
0.56059015 0.20983008 -0.010864555
0.56058389 0.21069838 -0.01087759
0.56057769 0.21156667 -0.010890624
0.56057143 0.21243496 -0.010903659
0.56056517 0.21330327 -0.010916695
0.56055892 0.21417156 -0.01092973
0.56055266 0.21503985 -0.010942765
0.56054646 0.21590814 -0.010955799
0.5605402 0.21677645 -0.010968834
0.56053394 0.21764472 -0.010981869
0.56052768 0.21851301 -0.010994904
0.56052142 0.2193813 -0.011007939
0.56051517 0.22024961 -0.011020974
0.56050897 0.2211179 -0.011034009
0.56050271 0.22198619 -0.011047044
0.56049645 0.2228545 -0.011060079
0.56049019 0.22372279 -0.011073113
0.56048393 0.22459106 -0.011086148
0.56047773 0.22545935 -0.011099183
0.56047148 0.22632766 -0.011112219
0.56046522 0.22719595 -0.011125254
0.56123608 0.22768432 -0.010499511
0.56122988 0.22855103 -0.010512522
0.56122363 0.22941773 -0.010525533
0.56121737 0.23028441 -0.010538545
0.56121117 0.2311511 -0.010551555
0.56120491 0.23201782 -0.010564567
0.56119865 0.23288451 -0.010577577
0.56119245 0.23375121 -0.010590588
0.56118619 0.23461792 -0.010603599
0.56118 0.23548461 -0.010616611
0.56117374 0.23635131 -0.010629621
0.56116748 0.23721801 -0.010642632
0.56116128 0.23808472 -0.010655643
0.56115502 0.23895141 -0.010668654
0.56114876 0.23981811 -0.010681666
0.56114256 0.24068482 -0.010694676
0.56113631 0.24155152 -0.010707688
0.56113011 0.24241821 -0.010720698
0.56112385 0.24328491 -0.01073371
0.56034029 0.24456182 -0.011385952
0.56033403 0.24543011 -0.011398987
0.56032777 0.2462984 -0.011412022
0.56032151 0.24716671 -0.011425056
0.56031525 0.248035 -0.011438092
0.56030905 0.24890329 -0.011451127
0.56030279 0.24977157 -0.011464161
0.56029654 0.25063989 -0.011477197
0.56029028 0.25150815 -0.011490231
0.56028402 0.25237644 -0.011503266
0.56027776 0.25324473 -0.011516301
0.56027156 0.25411305 -0.011529336
0.5602653 0.25498134 -0.011542371
0.56025904 0.25584963 -0.011555406
0.56025279 0.25671792 -0.011568441
0.56024653 0.25758621 -0.011581476
0.56024033 0.2584545 -0.011594511
0.56023407 0.25932279 -0.011607545
0.56022781 0.26019108 -0.011620581
0.56022155 0.26105937 -0.011633616
0.56021529 0.26192766 -0.011646651
0.56020904 0.26279598 -0.011659686
0.56020284 0.26366428 -0.01167272
0.56019658 0.26453257 -0.011685755
0.56019032 0.26540086 -0.01169879
0.56018406 0.26626915 -0.011711825
0.5601778 0.26713744 -0.01172486
0.5601716 0.26800573 -0.011737895
0.55938768 0.26932886 -0.012390832
0.55938143 0.27019873 -0.01240389
0.55937517 0.27106863 -0.012416949
0.55936891 0.2719385 -0.012430009
0.55936265 0.27280837 -0.012443068
0.55935639 0.27367824 -0.012456126
0.55935013 0.27454814 -0.012469185
0.55934387 0.27541804 -0.012482245
0.55933762 0.27628791 -0.012495303
0.55855352 0.27762699 -0.013148517
0.55854726 0.27849847 -0.0131616
0.558541 0.27936995 -0.013174683
0.55853468 0.28024143 -0.013187765
0.55852842 0.28111291 -0.013200848
0.55852216 0.28198439 -0.013213931
0.55851591 0.28285587 -0.013227014
0.55850965 0.28372735 -0.013240096
0.55850333 0.28459883 -0.013253179
0.55771923 0.28595382 -0.013906593
0.55771291 0.28682688 -0.0139197
0.55770665 0.28769994 -0.013932806
0.55770034 0.28857303 -0.013945914
0.55769408 0.28944609 -0.01395902
0.55768782 0.29031914 -0.013972127
0.5576815 0.29119223 -0.013985233
0.55767524 0.29206529 -0.01399834
0.55948734 -0.099515975 -0.010073626
0.55948102 -0.098639727 -0.01008678
0.55947477 -0.097763464 -0.010099935
0.55946845 -0.096887201 -0.01011309
0.55946213 -0.096010938 -0.010126244
0.55945581 -0.095134683 -0.010139399
0.55944949 -0.094258428 -0.010152553
0.55944324 -0.093382157 -0.010165708
0.55943692 -0.09250591 -0.010178862
0.5594306 -0.091629647 -0.010192017
0.55942428 -0.090753391 -0.010205171
0.55941802 -0.089877129 -0.010218326
0.5594117 -0.089000866 -0.010231481
0.55940539 -0.08812461 -0.010244635
0.55939907 -0.08724834 -0.01025779
0.55939275 -0.086372092 -0.010270944
0.55938649 -0.08549583 -0.010284099
0.55860811 -0.084811606 -0.010928694
0.5586018 -0.083933756 -0.010941872
0.55859554 -0.083055906 -0.010955051
0.55858922 -0.082178041 -0.01096823
0.5585829 -0.081300192 -0.010981408
0.55857658 -0.080422342 -0.010994586
0.55857027 -0.079544485 -0.011007764
0.55856395 -0.078666642 -0.011020944
0.55855763 -0.077788785 -0.011034122
0.55855131 -0.076910935 -0.0110473
0.55854499 -0.076033086 -0.011060478
0.55853868 -0.075155221 -0.011073657
0.55853236 -0.074277371 -0.011086836
0.55852604 -0.073399521 -0.011100014
0.55851972 -0.072521672 -0.011113192
0.5585134 -0.071643814 -0.011126371
0.55850708 -0.070765972 -0.011139549
0.55850077 -0.069888115 -0.011152728
0.55926669 -0.068846911 -0.010534034
0.55926037 -0.067970648 -0.010547189
0.55925405 -0.067094378 -0.010560344
0.55924779 -0.06621813 -0.010573498
0.55924147 -0.065341868 -0.010586653
0.55923516 -0.064465612 -0.010599807
0.55922884 -0.063589342 -0.010612962
0.55999488 -0.062560894 -0.0099940766
0.55998856 -0.061686218 -0.010007207
0.5599823 -0.060811553 -0.010020338
0.56074834 -0.059789468 -0.0094013577
0.56151438 -0.05877056 -0.008782329
0.56150812 -0.05789908 -0.0087954113
0.56304669 -0.056742303 -0.0075440914
0.56458521 -0.055591911 -0.0062927129
0.56612384 -0.054447871 -0.0050412007
0.56920117 -0.052178942 -0.0025379276
0.57073992 -0.051054034 -0.0012861666
0.5715062 -0.050068587 -0.00066663575
0.57304507 -0.048954822 0.00058533036
0.573039 -0.048107244 0.0005726064
0.57380539 -0.047131356 0.0011922808
0.57379925 -0.046285369 0.0011795807
0.57379317 -0.045439381 0.0011668806
0.57378709 -0.04459339 0.0011541805
0.57378101 -0.043747406 0.0011414804
0.57454747 -0.042781074 0.0017612976
0.57454139 -0.041936681 0.0017486213
0.57453531 -0.041092284 0.0017359452
0.57452923 -0.040247887 0.0017232691
0.57452315 -0.039403494 0.0017105929
0.57451707 -0.038559098 0.0016979168
0.57451099 -0.037714705 0.0016852405
0.57450497 -0.036870308 0.0016725644
0.57449889 -0.036025912 0.0016598882
0.57449281 -0.035181515 0.001647212
0.57448673 -0.034337118 0.0016345358
0.57448065 -0.033492725 0.0016218596
0.57447457 -0.032648329 0.0016091835
0.57446849 -0.031803936 0.0015965074
0.57446241 -0.030959543 0.0015838312
0.57445633 -0.030115146 0.001571155
0.57445025 -0.029270751 0.0015584788
0.57444417 -0.028426353 0.0015458027
0.5744381 -0.027581958 0.0015331265
0.57443202 -0.026737563 0.0015204503
0.57442594 -0.025893169 0.0015077741
0.57441986 -0.025048772 0.001495098
0.57518661 -0.02411909 0.0021154659
0.57518053 -0.023276284 0.0021028137
0.57517445 -0.022433484 0.0020901614
0.57516843 -0.02159068 0.0020775092
0.57516235 -0.020747878 0.0020648569
0.57515627 -0.019905077 0.0020522047
0.57515019 -0.019062273 0.0020395524
0.57514417 -0.018219471 0.0020269002
0.57513809 -0.017376671 0.0020142479
0.57513201 -0.016533868 0.0020015957
0.57512593 -0.015691066 0.0019889434
0.57511991 -0.014848264 0.0019762912
0.57511383 -0.014005462 0.0019636389
0.57510775 -0.013162659 0.0019509866
0.57510173 -0.012319858 0.0019383344
0.57509565 -0.011477055 0.0019256821
0.57508957 -0.010634254 0.0019130299
0.57508349 -0.0097914496 0.0019003776
0.57507747 -0.0089486483 0.0018877253
0.57507139 -0.008105848 0.0018750731
0.57506531 -0.007263043 0.0018624208
0.57505924 -0.0064202421 0.0018497686
0.57505322 -0.0055774413 0.0018371163
0.57504714 -0.0047346381 0.0018244641
0.57504106 -0.0038918355 0.0018118118
0.57503498 -0.0030490328 0.0017991596
0.57502896 -0.0022062317 0.0017865073
0.57502288 -0.001363429 0.0017738551
0.5750168 -0.00052062713 0.0017612028
0.57501072 0.00032217568 0.0017485506
0.5750047 0.0011649766 0.0017358983
0.57577181 0.0020436831 0.0023570692
0.57576573 0.0028848918 0.0023444409
0.57575971 0.0037261012 0.0023318126
0.57575363 0.0045673088 0.0023191844
0.57574761 0.005408518 0.0023065559
0.57574153 0.0062497272 0.0022939276
0.57573551 0.0070909359 0.0022812993
0.57572943 0.0079321451 0.0022686708
0.57572341 0.0087733539 0.0022560426
0.57571733 0.0096145626 0.0022434143
0.57571131 0.010455771 0.002230786
0.57570523 0.01129698 0.0022181575
0.57569915 0.012138189 0.0022055293
0.57569313 0.012979398 0.002192901
0.57568705 0.013820607 0.0021802725
0.57568103 0.014661816 0.0021676442
0.57567495 0.015503025 0.0021550159
0.57566893 0.016344234 0.0021423874
0.57566285 0.017185442 0.0021297592
0.57565683 0.018026652 0.0021171309
0.57565075 0.018867861 0.0021045026
0.57564473 0.019709069 0.0020918741
0.57563865 0.020550279 0.0020792459
0.57563257 0.021391487 0.0020666176
0.57562655 0.022232696 0.0020539891
0.57562047 0.023073904 0.0020413608
0.57561445 0.023915114 0.0020287326
0.57560837 0.024756322 0.0020161043
0.57560235 0.025597531 0.0020034758
0.57559627 0.026438739 0.0019908475
0.57559025 0.027279949 0.0019782193
0.57558417 0.028121157 0.0019655908
0.57557809 0.028962366 0.0019529625
0.57557207 0.029803576 0.0019403342
0.57556599 0.030644784 0.0019277058
0.57555997 0.031485993 0.0019150776
0.57555389 0.032327201 0.0019024492
0.57554787 0.033168413 0.0018898208
0.57554179 0.034009621 0.0018771925
0.57476211 0.034877062 0.0012298081
0.57475603 0.035719864 0.0012171558
0.57397634 0.036592085 0.0005697374
0.57319665 0.037467495 -7.7728146e-05
0.5724169 0.038346086 -0.00072524225
0.57086349 0.039262064 -0.0020076791
0.56931001 0.040184416 -0.0032901738
0.56775647 0.041113142 -0.0045728027
0.56697661 0.042009261 -0.0052205794
0.56542307 0.042949136 -0.0065033371
0.56386936 0.04389539 -0.0077862293
0.56308943 0.044804253 -0.0084341969
0.56308317 0.045670953 -0.0084472084
0.56230319 0.046584595 -0.0090952478
0.56229699 0.047452889 -0.0091082836
0.56229073 0.048321184 -0.0091213183
0.56228447 0.049189474 -0.0091343531
0.56227821 0.050057769 -0.0091473879
0.56227195 0.050926059 -0.0091604227
0.56226569 0.051794358 -0.0091734575
0.5622595 0.052662652 -0.0091864932
0.56225324 0.053530943 -0.009199528
0.56224698 0.054399237 -0.0092125628
0.56224072 0.055267531 -0.0092255976
0.56223446 0.056135822 -0.0092386324
0.56222826 0.057004113 -0.0092516672
0.562222 0.057872407 -0.009264702
0.56144184 0.058809955 -0.0099131009
0.56143558 0.059679836 -0.0099261599
0.56142932 0.060549725 -0.0099392179
0.56142306 0.06141961 -0.0099522769
0.5614168 0.062289495 -0.009965336
0.56063652 0.063236602 -0.010613916
0.56063026 0.064108081 -0.010626999
0.55984998 0.06505996 -0.011275614
0.55984372 0.065933034 -0.01128872
0.55906343 0.066889696 -0.011937405
0.55905712 0.067764364 -0.011950536
0.55827683 0.068725795 -0.012599294
0.55827051 0.069602057 -0.012612448
0.5582642 0.070478313 -0.012625603
0.55825788 0.071354575 -0.012638757
0.55825162 0.072230831 -0.012651912
0.5582453 0.073107094 -0.012665066
0.55823898 0.073983356 -0.012678221
0.55745858 0.074957542 -0.013327169
0.55745226 0.075835392 -0.013340347
0.55744594 0.076713249 -0.013353527
0.55743963 0.077591091 -0.013366705
0.5566591 0.078573249 -0.014015811
0.55665278 0.079452701 -0.014029014
0.55664647 0.080332153 -0.014042215
0.55664009 0.081211589 -0.014055418
0.55663377 0.082091033 -0.01406862
0.55740172 0.082858205 -0.013445775
0.5573954 0.08373607 -0.013458954
0.55816334 0.084498465 -0.012836075
0.55815703 0.085374728 -0.012849229
0.55892497 0.086132348 -0.012226279
0.55969298 0.086886786 -0.011603281
0.55968666 0.087759852 -0.011616387
0.56045467 0.088509515 -0.010993317
0.56044841 0.089380987 -0.011006399
0.56044215 0.090252474 -0.011019482
0.56121027 0.090995751 -0.010396278
0.56120402 0.091865636 -0.010409337
0.56119776 0.092735521 -0.010422396
0.5611915 0.093605407 -0.010435455
0.56118524 0.094475299 -0.010448514
0.56117898 0.095345177 -0.010461573
0.56117272 0.096215069 -0.010474632
0.56116647 0.097084962 -0.01048769
0.56116021 0.097954839 -0.010500749
0.56115395 0.098824732 -0.010513808
0.56037319 0.099838741 -0.011163392
0.56036693 0.10071023 -0.011176475
0.56036061 0.10158171 -0.011189558
0.56035435 0.10245319 -0.011202641
0.55957359 0.10347516 -0.011852307
0.55879283 0.10450033 -0.012502021
0.55878651 0.10537501 -0.012515152
0.55800569 0.10640495 -0.013164938
0.55722487 0.10743808 -0.013814772
0.55644393 0.1084744 -0.014464691
0.55566305 0.10951391 -0.01511462
0.55488217 0.1105566 -0.015764598
0.55487579 0.11143924 -0.015777849
0.55409485 0.11248671 -0.016427897
0.55331385 0.11353737 -0.017078033
0.55253285 0.11459122 -0.017728176
0.55252647 0.11547863 -0.017741498
0.5525201 0.11636604 -0.017754821
0.55173904 0.11742625 -0.018405061
0.55173266 0.11831526 -0.018418407
0.55172628 0.11920427 -0.018431753
0.55171984 0.12009327 -0.018445099
0.55171347 0.12098227 -0.018458445
0.55247539 0.12257792 -0.017848074
0.55324376 0.12328137 -0.01722431
0.55401212 0.12398164 -0.01660046
0.55555528 0.12449157 -0.015339468
0.55554897 0.12537262 -0.015352693
0.55631739 0.12606333 -0.014728738
0.55708593 0.12675083 -0.014104697
0.55707961 0.12762868 -0.014117875
0.5570733 0.12850654 -0.014131053
0.55784178 0.12918769 -0.013506955
0.55783546 0.13006395 -0.01352011
0.55782914 0.1309402 -0.013533264
0.55782288 0.13181646 -0.013546419
0.55781657 0.13269272 -0.013559573
0.55781025 0.13356899 -0.013572728
0.55780393 0.13444524 -0.013585882
0.55779767 0.1353215 -0.013599037
0.55779135 0.13619776 -0.013612191
0.55778503 0.13707402 -0.013625346
0.55777872 0.13795027 -0.013638501
0.5577724 0.13882653 -0.013651655
0.55776614 0.1397028 -0.01366481
0.55775982 0.14057906 -0.013677964
0.5577535 0.14145532 -0.013691119
0.55852222 0.14211097 -0.013066637
0.55851591 0.14298564 -0.013079768
0.55850959 0.14386031 -0.013092898
0.55850333 0.14473498 -0.013106029
0.55849701 0.14560963 -0.013119159
0.55849075 0.1464843 -0.01313229
0.55848444 0.14735897 -0.013145421
0.55847812 0.14823364 -0.013158551
0.55847186 0.14910831 -0.013171682
0.55846554 0.14998297 -0.013184813
0.55845928 0.15085764 -0.013197943
0.55845296 0.1517323 -0.013211073
0.55844671 0.15260698 -0.013224204
0.55844039 0.15348163 -0.013237335
0.55843407 0.1543563 -0.013250466
0.55842781 0.15523097 -0.013263596
0.55842149 0.15610564 -0.013276727
0.55841523 0.15698031 -0.013289858
0.55840892 0.15785497 -0.013302987
0.55917782 0.15847875 -0.012678028
0.55917156 0.15935184 -0.012691136
0.5591653 0.16022491 -0.012704242
0.55915898 0.16109797 -0.012717349
0.55915272 0.16197106 -0.012730455
0.55992168 0.16258529 -0.012105352
0.55991542 0.16345677 -0.012118435
0.55990916 0.16432825 -0.012131517
0.55990291 0.16519973 -0.0121446
0.55989659 0.16607121 -0.012157682
0.56066573 0.16667587 -0.011532398
0.56065947 0.16754577 -0.011545457
0.56065321 0.16841564 -0.011558516
0.56064695 0.16928552 -0.011571574
0.56064069 0.17015541 -0.011584633
0.56063443 0.17102531 -0.011597692
0.56062818 0.17189519 -0.011610751
0.56062192 0.17276508 -0.01162381
0.56061566 0.17363498 -0.011636869
0.5606094 0.17450485 -0.011649927
0.56060314 0.17537473 -0.011662986
0.56059688 0.17624462 -0.011676045
0.56059062 0.17711452 -0.011689104
0.56058437 0.1779844 -0.011702163
0.55980253 0.1791434 -0.012353924
0.55979627 0.18001489 -0.012367007
0.55979002 0.18088636 -0.01238009
0.55978376 0.18175784 -0.012393173
0.5597775 0.18262932 -0.012406255
0.55977118 0.18350081 -0.012419338
0.55976492 0.18437229 -0.012432421
0.55975866 0.18524377 -0.012445504
0.5597524 0.18611524 -0.012458586
0.55974615 0.18698671 -0.012471669
0.55973983 0.18785819 -0.012484752
0.56050926 0.18842302 -0.011858869
0.56050301 0.18929292 -0.011871928
0.56049675 0.19016281 -0.011884986
0.56049049 0.19103268 -0.011898045
0.56048423 0.19190256 -0.011911104
0.56047797 0.19277246 -0.011924163
0.56047171 0.19364235 -0.011937222
0.56046546 0.19451223 -0.011950281
0.5604592 0.19538213 -0.01196334
0.56045294 0.19625202 -0.011976399
0.56044668 0.1971219 -0.011989458
0.56044042 0.19799177 -0.012002517
0.56120986 0.19853592 -0.011376361
0.56120366 0.19940421 -0.011389396
0.5611974 0.2002725 -0.011402431
0.56119114 0.20114081 -0.011415466
0.56118488 0.20200908 -0.011428501
0.56117862 0.20287737 -0.011441535
0.56117243 0.20374566 -0.011454571
0.56116617 0.20461397 -0.011467606
0.56115991 0.20548226 -0.011480641
0.56192952 0.20601048 -0.010854245
0.56192327 0.20687719 -0.010867257
0.56191707 0.20774388 -0.010880268
0.56191081 0.20861056 -0.010893279
0.56190455 0.20947726 -0.010906289
0.56189835 0.21034397 -0.010919301
0.56189209 0.21121067 -0.010932311
0.56188583 0.21207736 -0.010945323
0.56187963 0.21294408 -0.010958333
0.56187338 0.21381077 -0.010971345
0.56186718 0.21467747 -0.010984356
0.56186092 0.21554416 -0.010997367
0.56185466 0.21641088 -0.011010378
0.56184846 0.21727757 -0.011023389
0.5618422 0.21814427 -0.0110364
0.56183594 0.21901096 -0.01104941
0.56182975 0.21987768 -0.011062422
0.56182349 0.22074437 -0.011075432
0.56181729 0.22161107 -0.011088444
0.56181103 0.22247776 -0.011101454
0.56180477 0.22334446 -0.011114466
0.56179857 0.22421116 -0.011127477
0.56179231 0.22507785 -0.011140488
0.56178606 0.22594458 -0.011153499
0.56177986 0.22681127 -0.01116651
0.5617736 0.22767797 -0.011179521
0.5617674 0.22854468 -0.011192532
0.56253731 0.22902827 -0.010565468
0.56253105 0.22989337 -0.010578455
0.56252486 0.23075847 -0.010591442
0.56251866 0.23162359 -0.010604429
0.5625124 0.23248869 -0.010617416
0.5625062 0.23335381 -0.010630404
0.56249994 0.23421893 -0.010643391
0.56249374 0.23508403 -0.010656377
0.56248748 0.23594913 -0.010669365
0.56248128 0.23681423 -0.010682352
0.56247503 0.23767935 -0.010695339
0.56246883 0.23854443 -0.010708326
0.56246263 0.23940954 -0.010721313
0.56245637 0.24027465 -0.0107343
0.56245017 0.24113977 -0.010747287
0.56244391 0.24200487 -0.010760275
0.56166136 0.24327856 -0.01141372
0.5616551 0.24414527 -0.01142673
0.56164891 0.24501197 -0.011439742
0.56164265 0.24587867 -0.011452752
0.56163639 0.24674538 -0.011465764
0.56163019 0.24761207 -0.011478774
0.56162393 0.24847877 -0.011491785
0.56161773 0.24934547 -0.011504796
0.56161147 0.25021219 -0.011517808
0.56160522 0.25107887 -0.011530818
0.56159902 0.25194559 -0.011543829
0.56159276 0.25281227 -0.011556841
0.5615865 0.25367898 -0.011569851
0.5615803 0.25454569 -0.011582863
0.56157404 0.25541237 -0.011595873
0.56156784 0.25627908 -0.011608885
0.56156158 0.25714579 -0.011621895
0.56155533 0.25801247 -0.011634907
0.56154913 0.25887918 -0.011647917
0.56154287 0.25974587 -0.011660929
0.56153661 0.26061258 -0.011673939
0.56153041 0.26147926 -0.011686951
0.56152415 0.26234597 -0.011699961
0.56151795 0.26321268 -0.011712973
0.5615117 0.26407939 -0.011725984
0.56150544 0.26494607 -0.011738994
0.56149924 0.26581278 -0.011752006
0.56149298 0.2666795 -0.011765017
0.56148672 0.26754618 -0.011778028
0.56148052 0.26841289 -0.011791038
0.56069756 0.26973596 -0.012445225
0.56069136 0.27060425 -0.01245826
0.5606851 0.27147254 -0.012471295
0.56067884 0.27234083 -0.012484331
0.56067258 0.27320912 -0.012497365
0.56066632 0.27407742 -0.0125104
0.56066012 0.27494574 -0.012523435
0.5598771 0.27628157 -0.013177813
0.55987084 0.27715147 -0.013190872
0.55986458 0.27802134 -0.01320393
0.55985832 0.27889124 -0.013216989
0.55985206 0.27976114 -0.013230048
0.55984581 0.28063101 -0.013243107
0.55983955 0.28150088 -0.013256166
0.55983329 0.28237075 -0.013269224
0.55905008 0.28372097 -0.013923856
0.55904382 0.28459245 -0.013936939
0.55903757 0.28546393 -0.013950022
0.55903131 0.28633541 -0.013963104
0.55902499 0.28720689 -0.013976187
0.55901873 0.28807837 -0.01398927
0.55901247 0.28894985 -0.014002353
0.55900621 0.28982136 -0.014015436
0.55899996 0.29069284 -0.014028518
0.55899364 0.29156429 -0.014041602
0.56157875 -0.099957205 -0.0094834613
0.56157249 -0.099084131 -0.0094965678
0.56079537 -0.0984286 -0.010141983
0.56078905 -0.097553924 -0.010155113
0.56078273 -0.096679263 -0.010168244
0.56077647 -0.095804602 -0.010181375
0.56077015 -0.094929926 -0.010194506
0.5607639 -0.094055265 -0.010207635
0.56075758 -0.093180589 -0.010220766
0.56075132 -0.092305936 -0.010233897
0.560745 -0.091431268 -0.010247028
0.56073868 -0.090556599 -0.010260158
0.56073242 -0.089681931 -0.010273289
0.56072611 -0.088807262 -0.01028642
0.56071985 -0.087932602 -0.01029955
0.56071353 -0.087057933 -0.010312681
0.56070721 -0.086183272 -0.010325811
0.56070095 -0.085308604 -0.010338942
0.56069463 -0.084433943 -0.010352072
0.55991733 -0.083749719 -0.010997918
0.55991101 -0.082873464 -0.011011073
0.55990469 -0.081997208 -0.011024227
0.55989838 -0.081120946 -0.011037382
0.55989206 -0.080244683 -0.011050537
0.5598858 -0.079368427 -0.011063691
0.55987948 -0.078492172 -0.011076846
0.55987316 -0.077615909 -0.01109
0.55986685 -0.076739646 -0.011103155
0.55986059 -0.075863391 -0.011116309
0.55985427 -0.074987128 -0.011129464
0.55984795 -0.074110873 -0.011142618
0.55984163 -0.07323461 -0.011155773
0.55983531 -0.072358355 -0.011168928
0.55982906 -0.071482092 -0.011182082
0.55982274 -0.070605837 -0.011195237
0.56058764 -0.069564618 -0.010575293
0.56058139 -0.06868995 -0.010588423
0.56057507 -0.067815281 -0.010601554
0.56056881 -0.066940613 -0.010614685
0.56056249 -0.066065952 -0.010627815
0.56055617 -0.065191284 -0.010640945
0.56054991 -0.064316615 -0.010654076
0.5605436 -0.063441947 -0.010667207
0.56130862 -0.062415071 -0.010047048
0.56130236 -0.061542001 -0.010060155
0.56129605 -0.060668919 -0.010073262
0.56206113 -0.059648421 -0.009453008
0.56205487 -0.058776934 -0.0094660902
0.56282002 -0.0577612 -0.008845726
0.56435657 -0.056605995 -0.0075919195
0.56512171 -0.05559824 -0.0069714733
0.56665838 -0.054454178 -0.0057174615
0.56973177 -0.0521852 -0.0032091883
0.5704971 -0.051194958 -0.0025884793
0.57203388 -0.050074812 -0.0013341462
0.57279921 -0.049092539 -0.00071331824
0.57279313 -0.048243362 -0.00072606612
0.57355851 -0.047265861 -0.00010512803
0.57355243 -0.046418283 -0.00011785201
0.57354635 -0.045570701 -0.00013057599
0.57431179 -0.044599582 0.00049041945
0.57430571 -0.043753594 0.00047771941
0.57429957 -0.042907607 0.00046501932
0.57429349 -0.042061612 0.00045231916
0.57428741 -0.041215625 0.00043961912
0.57428133 -0.040369637 0.00042691902
0.57427526 -0.039523646 0.00041421893
0.57426918 -0.038677663 0.00040151886
0.5742631 -0.037831672 0.00038881876
0.57425702 -0.036985688 0.00037611873
0.57425088 -0.036139697 0.00036341863
0.5742448 -0.035293706 0.00035071847
0.57423872 -0.034447718 0.00033801841
0.57423264 -0.033601731 0.00032531831
0.57422656 -0.03275574 0.00031261821
0.57422048 -0.031909756 0.00029991817
0.5742144 -0.031063765 0.00028721808
0.57498002 -0.030121325 0.00090864481
0.57497394 -0.02927693 0.00089596864
0.57496786 -0.028432531 0.00088329241
0.57496178 -0.027588135 0.00087061623
0.5749557 -0.02674374 0.00085794006
0.57494962 -0.025899345 0.00084526389
0.57494354 -0.02505495 0.00083258771
0.57493746 -0.024210555 0.0008199116
0.57493144 -0.023366161 0.00080723542
0.57492536 -0.022521764 0.00079455925
0.57491928 -0.021677366 0.00078188302
0.5749132 -0.020832974 0.0007692069
0.57490712 -0.01998858 0.00075653073
0.57490104 -0.019144185 0.00074385456
0.57489496 -0.018299788 0.00073117838
0.57488889 -0.017455393 0.00071850221
0.57488281 -0.016610997 0.00070582604
0.57487673 -0.015766602 0.00069314986
0.57487065 -0.014922206 0.00068047369
0.57486457 -0.014077812 0.00066779752
0.57485849 -0.013233415 0.00065512129
0.57485241 -0.012389021 0.00064244517
0.57484633 -0.011544626 0.000629769
0.57484031 -0.010700231 0.00061709282
0.57483423 -0.0098558338 0.00060441665
0.57482815 -0.009011439 0.00059174048
0.57482207 -0.0081670433 0.0005790643
0.57481599 -0.0073226485 0.00056638813
0.57480991 -0.0064782533 0.00055371196
0.57480383 -0.0056338585 0.00054103578
0.57479775 -0.0047894632 0.00052835961
0.57479167 -0.0039450661 0.00051568344
0.57478559 -0.0031006711 0.00050300726
0.57477951 -0.0022562768 0.00049033109
0.57554555 -0.0013695951 0.0011125942
0.57553953 -0.00052679313 0.0010999419
0.57553345 0.00031600965 0.0010872897
0.57552737 0.0011588106 0.0010746374
0.57552129 0.0020016134 0.0010619852
0.57551527 0.0028444151 0.0010493329
0.57550919 0.0036872181 0.0010366807
0.57550311 0.0045300191 0.0010240284
0.57549703 0.0053728214 0.0010113762
0.57549101 0.0062156236 0.0009987239
0.57548493 0.0070584258 0.00098607165
0.57547885 0.007901228 0.0009734194
0.57547277 0.0087440303 0.00096076709
0.57546675 0.0095868325 0.00094811484
0.57546067 0.010429635 0.00093546259
0.57545459 0.011272436 0.00092281034
0.57544851 0.012115238 0.00091015809
0.57544249 0.01295804 0.00089750584
0.57543641 0.013800843 0.00088485359
0.57543033 0.014643645 0.00087220134
0.57542425 0.015486447 0.00085954909
0.57541823 0.016329249 0.00084689684
0.57541215 0.017172052 0.00083424459
0.57540607 0.018014854 0.00082159234
0.57539999 0.018857656 0.00080894004
0.57539397 0.019700458 0.00079628779
0.5753879 0.02054326 0.00078363554
0.57538182 0.021386063 0.00077098329
0.5753758 0.022228865 0.00075833104
0.57536972 0.023071667 0.00074567879
0.57536364 0.023914468 0.00073302654
0.57613009 0.024750168 0.0013560934
0.57612401 0.025591377 0.0013434651
0.57611799 0.026432585 0.0013308367
0.57611191 0.027273795 0.0013182084
0.57610589 0.028115002 0.00130558
0.57609981 0.028956212 0.0012929518
0.57609379 0.02979742 0.0012803234
0.57608771 0.03063863 0.0012676951
0.57608169 0.031479839 0.0012550667
0.57607561 0.032321047 0.0012424383
0.57529694 0.033185292 0.00059385173
0.57529086 0.034028094 0.00058119948
0.57528478 0.034870896 0.00056854723
0.5745061 0.035741512 -8.0096623e-05
0.57372743 0.036615316 -0.00072878908
0.57294869 0.037492305 -0.0013775286
0.5721699 0.038372479 -0.0020263544
0.57061845 0.039290026 -0.0033112776
0.56906694 0.04021395 -0.0045962967
0.56828809 0.041106872 -0.0052453135
0.56673652 0.042041942 -0.0065305
0.56518483 0.04298339 -0.0078158192
0.56440592 0.043889061 -0.0084649893
0.56362695 0.044797912 -0.0091142086
0.56362069 0.045664612 -0.0091272192
0.56361449 0.046531312 -0.0091402307
0.56360823 0.047398012 -0.0091532413
0.56360197 0.048264712 -0.0091662528
0.56359577 0.049131412 -0.0091792634
0.56358951 0.049998112 -0.009192274
0.56358331 0.050864812 -0.0092052855
0.56357706 0.051731512 -0.009218296
0.56279796 0.052656297 -0.0098677538
0.56279171 0.053524591 -0.0098807886
0.56278551 0.054392885 -0.0098938234
0.56277925 0.05526118 -0.0099068582
0.56277299 0.056129467 -0.009919893
0.56276673 0.056997761 -0.0099329278
0.56276047 0.057866056 -0.0099459626
0.56275427 0.05873435 -0.0099589983
0.56274801 0.059602644 -0.0099720331
0.56274176 0.060470939 -0.0099850679
0.5627355 0.061339229 -0.0099981027
0.56195629 0.062283132 -0.010647847
0.56195003 0.063153021 -0.010660906
0.56117076 0.064101703 -0.011310761
0.5611645 0.064973183 -0.011323843
0.56038517 0.065926649 -0.011973731
0.56037891 0.066799723 -0.011986838
0.56037265 0.067672789 -0.011999944
0.55959332 0.068632625 -0.012649927
0.559587 0.069507293 -0.012663058
0.55958074 0.070381954 -0.012676189
0.55957443 0.071256623 -0.012689319
0.55956811 0.072131291 -0.01270245
0.55878872 0.073100686 -0.013352578
0.5587824 0.073976941 -0.013365732
0.55877614 0.074853204 -0.013378887
0.55876982 0.07572946 -0.013392041
0.5587635 0.076605722 -0.013405195
0.55875719 0.077481985 -0.01341835
0.55875093 0.078358233 -0.013431504
0.55797142 0.079340376 -0.014081823
0.5579651 0.080218233 -0.014095001
0.55795878 0.081096083 -0.014108179
0.55795246 0.081973933 -0.014121357
0.5587194 0.082739539 -0.013497277
0.55871308 0.083615795 -0.013510432
0.55948001 0.084376618 -0.012886278
0.55947375 0.085251279 -0.012899409
0.56024069 0.086007327 -0.012275185
0.56100774 0.086760178 -0.011650912
0.56100142 0.087631658 -0.011663996
0.56176853 0.088379726 -0.011039613
0.56176227 0.089249611 -0.011052672
0.56175601 0.090119503 -0.011065731
0.56174976 0.090989389 -0.01107879
0.5617435 0.091859266 -0.011091848
0.56173724 0.092729159 -0.011104907
0.56173098 0.093599044 -0.011117966
0.56172472 0.094468936 -0.011131025
0.56171846 0.095338814 -0.011144084
0.56171221 0.096208699 -0.011157143
0.56170595 0.097078592 -0.011170202
0.56169969 0.097948477 -0.01118326
0.56169343 0.098818369 -0.011196319
0.56168717 0.099688247 -0.011209378
0.56168091 0.10055814 -0.011222437
0.56167465 0.10142802 -0.011235496
0.5616684 0.10229791 -0.011248555
0.56088859 0.10331829 -0.011899485
0.56088227 0.10418978 -0.011912568
0.56010252 0.10521493 -0.012563532
0.55932266 0.10624327 -0.013214543
0.55854285 0.10727479 -0.013865604
0.55853653 0.10815105 -0.013878758
0.55698305 0.10934742 -0.015167905
0.55697674 0.11022686 -0.015181107
0.55619681 0.11126954 -0.015832335
0.55541682 0.11231541 -0.016483609
0.5554105 0.11319804 -0.016496859
0.55463052 0.11424869 -0.017148206
0.55462414 0.11513291 -0.017161481
0.55384409 0.11618835 -0.017812937
0.55383772 0.11707416 -0.017826235
0.55383134 0.11795998 -0.017839532
0.55382496 0.11884581 -0.017852832
0.55381858 0.11973162 -0.017866129
0.55381221 0.12061744 -0.017879426
0.55380583 0.12150326 -0.017892726
0.55457324 0.12220672 -0.017267674
0.55456692 0.12309094 -0.017280947
0.55533427 0.12378962 -0.016655862
0.55610168 0.12448512 -0.016030729
0.55686915 0.12517744 -0.015405547
0.55763668 0.12586656 -0.014780279
0.55763036 0.1267444 -0.014793458
0.55839783 0.12742876 -0.014168157
0.55839151 0.12830502 -0.014181312
0.55915904 0.12898459 -0.013555939
0.55915278 0.12985925 -0.01356907
0.55914646 0.13073392 -0.0135822
0.55914015 0.13160859 -0.013595331
0.55913389 0.13248324 -0.013608461
0.55912757 0.13335791 -0.013621592
0.55912131 0.13423258 -0.013634723
0.55911499 0.13510725 -0.013647853
0.55910873 0.1359819 -0.013660984
0.55910242 0.13685659 -0.013674115
0.5590961 0.13773124 -0.013687245
0.55908984 0.13860591 -0.013700375
0.55908352 0.13948059 -0.013713506
0.55907726 0.14035524 -0.013726637
0.55907094 0.14122991 -0.013739767
0.55906463 0.14210457 -0.013752898
0.55905837 0.14297923 -0.013766029
0.55982608 0.14363012 -0.013140226
0.55981982 0.14450321 -0.013153332
0.55981356 0.14537628 -0.013166439
0.55980724 0.14624935 -0.013179546
0.55980098 0.14712243 -0.013192653
0.55979466 0.1479955 -0.013205759
0.55978841 0.14886858 -0.013218866
0.55978215 0.14974165 -0.013231972
0.55977583 0.15061472 -0.01324508
0.55976957 0.15148778 -0.013258186
0.55976325 0.15236087 -0.013271293
0.55975699 0.15323393 -0.013284399
0.55975074 0.154107 -0.013297506
0.55974442 0.15498008 -0.013310612
0.56051236 0.15560707 -0.012684451
0.56050605 0.15647855 -0.012697534
0.56049979 0.15735003 -0.012710617
0.56049353 0.15822151 -0.012723699
0.56048727 0.15909301 -0.012736782
0.56048101 0.15996447 -0.012749865
0.56047469 0.16083595 -0.012762948
0.56046844 0.16170745 -0.01277603
0.5612365 0.16232008 -0.012149615
0.56123024 0.16318996 -0.012162674
0.56122398 0.16405985 -0.012175732
0.56121773 0.16492975 -0.012188792
0.56121147 0.16579962 -0.01220185
0.56197953 0.16640271 -0.011575329
0.56197327 0.16727102 -0.011588365
0.56196707 0.16813931 -0.0116014
0.56196082 0.1690076 -0.011614434
0.56195456 0.16987589 -0.011627469
0.5619483 0.1707442 -0.011640504
0.56194204 0.17161247 -0.011653539
0.56193584 0.17248076 -0.011666574
0.56192958 0.17334907 -0.011679609
0.56192333 0.17421736 -0.011692644
0.56191707 0.17508563 -0.011705679
0.56191081 0.17595392 -0.011718714
0.56190455 0.17682223 -0.011731748
0.56189835 0.17769052 -0.011744783
0.56111759 0.17884791 -0.012397734
0.56111133 0.17971781 -0.012410793
0.56110507 0.18058769 -0.012423851
0.56109881 0.18145758 -0.01243691
0.56109256 0.18232745 -0.012449969
0.5610863 0.18319735 -0.012463028
0.56108004 0.18406723 -0.012476087
0.56107378 0.18493712 -0.012489145
0.56106752 0.18580702 -0.012502204
0.56106126 0.1866769 -0.012515263
0.561055 0.18754677 -0.012528322
0.56104875 0.18841666 -0.012541381
0.56104249 0.18928656 -0.01255444
0.56181085 0.18984663 -0.011927272
0.56180459 0.19071493 -0.011940308
0.56179839 0.19158322 -0.011953343
0.56179214 0.19245152 -0.011966377
0.56178588 0.19331981 -0.011979412
0.56177962 0.1941881 -0.011992447
0.56177336 0.19505641 -0.012005482
0.5617671 0.1959247 -0.012018518
0.56253564 0.19647042 -0.011391136
0.56252939 0.19733712 -0.011404146
0.56252313 0.19820383 -0.011417158
0.56251693 0.19907053 -0.011430169
0.56251067 0.19993722 -0.01144318
0.56250447 0.20080394 -0.011456191
0.56249821 0.20167063 -0.011469202
0.56249195 0.20253733 -0.011482213
0.56248575 0.20340402 -0.011495224
0.5624795 0.20427074 -0.011508235
0.56247324 0.20513743 -0.011521246
0.56246704 0.20600413 -0.011534257
0.56323564 0.20652916 -0.010906564
0.56322944 0.20739426 -0.010919551
0.56322324 0.20825937 -0.010932539
0.56321698 0.20912448 -0.010945525
0.56321079 0.20998959 -0.010958512
0.56320453 0.21085469 -0.0109715
0.56319833 0.2117198 -0.010984487
0.56319207 0.21258491 -0.010997473
0.56318587 0.21345001 -0.011010461
0.56317967 0.21431512 -0.011023448
0.56317341 0.21518022 -0.011036435
0.56316721 0.21604535 -0.011049422
0.56316096 0.21691045 -0.011062409
0.56315476 0.21777555 -0.011075396
0.5631485 0.21864066 -0.011088383
0.5631423 0.21950577 -0.011101371
0.5631361 0.22037087 -0.011114357
0.56312984 0.22123598 -0.011127344
0.56312364 0.22210109 -0.011140332
0.56311738 0.22296619 -0.011153319
0.56311119 0.22383128 -0.011166306
0.56310493 0.22469638 -0.011179293
0.56309873 0.22556151 -0.01119228
0.56309253 0.22642662 -0.011205267
0.56308627 0.22729172 -0.011218254
0.56308007 0.22815683 -0.011231242
0.56307381 0.22902194 -0.011244228
0.56384277 0.22950236 -0.010615867
0.56383657 0.23036587 -0.01062883
0.56383038 0.23122939 -0.010641793
0.56382418 0.2320929 -0.010654756
0.56381792 0.23295641 -0.010667719
0.56381172 0.23381995 -0.010680683
0.56380552 0.23468345 -0.010693646
0.56379932 0.23554696 -0.010706609
0.56379306 0.23641047 -0.010719572
0.56378686 0.23727399 -0.010732535
0.56378067 0.2381375 -0.010745498
0.56377447 0.23900102 -0.010758461
0.56376821 0.23986454 -0.010771425
0.56376201 0.24072804 -0.010784388
0.56375581 0.24159154 -0.010797351
0.56297421 0.24286364 -0.011452022
0.56296802 0.24372876 -0.011465009
0.56296176 0.24459386 -0.011477997
0.56295556 0.24545896 -0.011490983
0.56294936 0.24632408 -0.01150397
0.5629431 0.24718918 -0.011516958
0.5629369 0.24805428 -0.011529945
0.56293064 0.24891938 -0.011542931
0.56292444 0.24978451 -0.011555919
0.56291819 0.25064963 -0.011568906
0.56291199 0.25151473 -0.011581893
0.56290579 0.25237983 -0.01159488
0.56289953 0.25324494 -0.011607868
0.56289333 0.25411004 -0.011620854
0.56288707 0.25497514 -0.011633841
0.56288087 0.25584024 -0.011646829
0.56287462 0.25670534 -0.011659816
0.56286842 0.25757048 -0.011672803
0.56286222 0.25843558 -0.01168579
0.56285596 0.25930068 -0.011698777
0.56284976 0.26016578 -0.011711764
0.5628435 0.26103088 -0.011724751
0.5628373 0.26189601 -0.011737738
0.56283104 0.26276112 -0.011750725
0.56282485 0.26362622 -0.011763712
0.56281865 0.26449132 -0.0117767
0.56281239 0.26535645 -0.011789687
0.56280619 0.26622155 -0.011802673
0.56279993 0.26708665 -0.011815661
0.56201804 0.26840654 -0.01247105
0.56201178 0.26927325 -0.012484062
0.56200558 0.27013993 -0.012497072
0.56199932 0.27100664 -0.012510083
0.56199306 0.27187335 -0.012523094
0.56198686 0.27274004 -0.012536105
0.56198061 0.27360675 -0.012549116
0.56197435 0.27447346 -0.012562127
0.56196815 0.27534014 -0.012575138
0.56118613 0.27667597 -0.013230766
0.56117988 0.27754426 -0.013243801
0.56117362 0.27841255 -0.013256836
0.56116736 0.27928084 -0.013269871
0.5611611 0.28014913 -0.013282905
0.56115484 0.28101745 -0.013295941
0.56114864 0.28188574 -0.013308976
0.56036651 0.2832343 -0.013964795
0.56036025 0.28410417 -0.013977854
0.56035399 0.28497407 -0.013990913
0.56034774 0.28584397 -0.014003972
0.56034148 0.28671384 -0.014017031
0.56033522 0.28758374 -0.01403009
0.56032896 0.28845361 -0.014043148
0.5603227 0.28932354 -0.014056208
0.56031644 0.29019338 -0.014069266
0.56031018 0.29106325 -0.014082325
0.56289005 -0.09974286 -0.0095349606
0.56288379 -0.09887138 -0.0095480429
0.56287754 -0.097999901 -0.0095611261
0.56287128 -0.097128414 -0.0095742093
0.56286502 -0.096256942 -0.0095872916
0.5628587 -0.095385462 -0.0096003748
0.56285244 -0.094513975 -0.0096134571
0.56207627 -0.09385208 -0.010260218
0.56206995 -0.092979006 -0.010273324
0.56206369 -0.09210594 -0.010286432
0.56205744 -0.091232866 -0.010299538
0.56205112 -0.090359792 -0.010312645
0.56204486 -0.089486718 -0.010325751
0.56203854 -0.088613637 -0.010338858
0.56203228 -0.087740578 -0.010351964
0.56202602 -0.086867496 -0.010365072
0.56201971 -0.08599443 -0.010378178
0.56201345 -0.085121349 -0.010391285
0.56200713 -0.084248282 -0.010404391
0.56123084 -0.083565667 -0.011051464
0.56122452 -0.082691006 -0.011064595
0.5612182 -0.081816338 -0.011077725
0.56121194 -0.08094167 -0.011090856
0.56120563 -0.080067009 -0.011103987
0.56119937 -0.07919234 -0.011117117
0.56119305 -0.078317679 -0.011130247
0.56118673 -0.077443004 -0.011143378
0.56118047 -0.076568343 -0.011156509
0.56117415 -0.075693682 -0.011169639
0.5611679 -0.074819006 -0.01118277
0.56116158 -0.073944345 -0.011195901
0.56115532 -0.073069669 -0.011209032
0.561149 -0.072195016 -0.011222161
0.56114268 -0.071320347 -0.011235292
0.56190664 -0.070279114 -0.010614098
0.56190038 -0.06940604 -0.010627205
0.56189406 -0.068532974 -0.010640312
0.5618878 -0.067659892 -0.010653418
0.56188154 -0.066786818 -0.010666525
0.56187522 -0.065913752 -0.010679631
0.56186897 -0.065040678 -0.010692739
0.56263298 -0.064012192 -0.010071354
0.56262672 -0.063140705 -0.010084437
0.56262046 -0.062269237 -0.010097519
0.56261414 -0.061397754 -0.010110603
0.56260788 -0.060526267 -0.010123685
0.56337208 -0.05950734 -0.0095021185
0.56336582 -0.058637448 -0.0095151775
0.56412995 -0.057623304 -0.0088935774
0.56489408 -0.056612335 -0.0082719298
0.56565827 -0.05560457 -0.0076502338
0.56719291 -0.054460485 -0.0063937218
0.56795716 -0.05346068 -0.0057719061
0.56949186 -0.052327763 -0.0045152651
0.57025623 -0.051335908 -0.003893292
0.57179105 -0.050214142 -0.0026364829
0.57255536 -0.049230263 -0.0020144286
0.57254928 -0.048379499 -0.0020272005
0.57331365 -0.047400404 -0.0014050738
0.57407808 -0.046424482 -0.00078286236
0.574072 -0.045576904 -0.00079558638
0.57406592 -0.044729318 -0.0008083104
0.57405978 -0.04388174 -0.00082103437
0.5740537 -0.043034159 -0.00083375833
0.57481819 -0.0420678 -0.00021144041
0.57481211 -0.041221816 -0.00022414044
0.57480603 -0.040375825 -0.00023684055
0.5747999 -0.039529838 -0.00024954064
0.57479382 -0.03868385 -0.0002622407
0.57478774 -0.037837863 -0.0002749408
0.57478166 -0.036991876 -0.00028764084
0.57477558 -0.036145888 -0.00030034094
0.5747695 -0.035299893 -0.00031304109
0.57476342 -0.03445391 -0.00032574116
0.57475734 -0.033607919 -0.00033844126
0.5747512 -0.032761931 -0.00035114135
0.57474512 -0.031915944 -0.00036384139
0.57473904 -0.031069955 -0.00037654149
0.57473296 -0.030223966 -0.00038924161
0.57472688 -0.02937798 -0.00040194165
0.5747208 -0.028531987 -0.00041464181
0.57471472 -0.027685998 -0.0004273419
0.57470864 -0.026840013 -0.00044004194
0.5747025 -0.025994023 -0.00045274207
0.57469642 -0.025148036 -0.00046544211
0.57469034 -0.024302047 -0.0004781422
0.57468426 -0.023456058 -0.00049084233
0.57467818 -0.022610072 -0.00050354237
0.5746721 -0.021764079 -0.00051624252
0.57466602 -0.02091809 -0.00052894262
0.57465994 -0.020072104 -0.00054164266
0.5746538 -0.019226115 -0.00055434275
0.57464772 -0.018380126 -0.00056704285
0.57464164 -0.017534139 -0.00057974295
0.57463557 -0.016688149 -0.00059244304
0.57462949 -0.015842162 -0.00060514308
0.57462341 -0.014996174 -0.00061784318
0.57461733 -0.014150185 -0.00063054328
0.57461125 -0.013304195 -0.00064324337
0.57460511 -0.012458208 -0.00065594347
0.57459903 -0.011612219 -0.00066864357
0.57459295 -0.010766231 -0.00068134366
0.57458687 -0.0099202413 -0.00069404376
0.57458079 -0.0090742521 -0.00070674386
0.57457471 -0.0082282647 -0.00071944389
0.57456863 -0.0073822755 -0.00073214399
0.57456255 -0.0065362882 -0.00074484409
0.57455641 -0.005690299 -0.00075754419
0.57532144 -0.0047956407 -0.0001341506
0.57531536 -0.0039512441 -0.0001468268
0.57530928 -0.0031068488 -0.00015950296
0.5753032 -0.0022624545 -0.00017217912
0.57529712 -0.0014180584 -0.00018485531
0.57529104 -0.00057366421 -0.00019753147
0.57528496 0.00027073183 -0.00021020764
0.57527888 0.001115127 -0.00022288381
0.5752728 0.001959522 -0.00023555999
0.57603794 0.0028382493 0.00038807277
0.57603186 0.003681052 0.0003754205
0.57602578 0.0045238528 0.00036276827
0.57601976 0.0053666551 0.000350116
0.57601368 0.0062094578 0.00033746375
0.5760076 0.00705226 0.0003248115
0.57600152 0.0078950617 0.00031215925
0.5759955 0.008737864 0.00029950697
0.57598943 0.0095806662 0.00028685472
0.57598335 0.010423468 0.00027420247
0.57597727 0.011266271 0.00026155022
0.5751999 0.012092266 -0.00038767405
0.57519382 0.012936661 -0.00040035023
0.57518774 0.013781057 -0.0004130264
0.57595307 0.01463748 0.00021094119
0.57594699 0.015480281 0.00019828894
0.57594091 0.016323084 0.00018563669
0.57593483 0.017165884 0.00017298444
0.57592881 0.018008687 0.00016033217
0.57592273 0.018851491 0.00014767991
0.57591665 0.019694293 0.00013502766
0.57591057 0.020537095 0.00012237541
0.57590455 0.021379896 0.00010972316
0.57589847 0.022222698 9.7070893e-05
0.57589239 0.0230655 8.4418643e-05
0.57588631 0.023908302 7.1766393e-05
0.57588029 0.024751104 5.9114143e-05
0.57587421 0.025593907 4.6461875e-05
0.57586813 0.026436709 3.3809625e-05
0.57586205 0.027279511 2.1157361e-05
0.57585603 0.028122313 8.5051242e-06
0.57584995 0.028965116 -4.1471408e-06
0.57584387 0.029807918 -1.6799406e-05
0.57583779 0.03065072 -2.9451643e-05
0.57583177 0.031493522 -4.2103908e-05
0.57582569 0.032336324 -5.4756143e-05
0.57504803 0.033202149 -0.00070457836
0.57504195 0.034046546 -0.00071725453
0.57503587 0.034890939 -0.00072993065
0.57425815 0.035763137 -0.0013798486
0.57348043 0.036638521 -0.002029815
0.57270265 0.037517093 -0.0026798663
0.57192487 0.038398847 -0.0033299283
0.57114708 0.03928379 -0.0039800373
0.56959754 0.040207691 -0.0052675563
0.56881964 0.041100599 -0.0059178239
0.56727004 0.04203565 -0.0072055096
0.56649214 0.042936526 -0.0078558587
0.56571418 0.043840587 -0.0085062934
0.56493622 0.044747837 -0.0091567375
0.5641582 0.045658272 -0.009807229
0.564152 0.046524972 -0.0098202405
0.56414574 0.047391668 -0.0098332511
0.56413949 0.048258372 -0.0098462626
0.56413329 0.049125072 -0.0098592732
0.56412703 0.049991772 -0.0098722838
0.56412083 0.050858472 -0.0098852953
0.56411457 0.051725172 -0.0098983059
0.56410831 0.052591871 -0.0099113174
0.56410211 0.053458571 -0.009924328
0.56409585 0.054325275 -0.0099373395
0.5640896 0.055191971 -0.00995035
0.5640834 0.056058671 -0.0099633615
0.56407714 0.056925371 -0.0099763721
0.56407094 0.057792071 -0.0099893836
0.56406468 0.058658771 -0.010002394
0.56405842 0.059525475 -0.010015406
0.56405222 0.060392175 -0.010028416
0.56404597 0.061258875 -0.010041428
0.56326777 0.062201168 -0.010692398
0.56326151 0.063069463 -0.010705433
0.56248325 0.064016536 -0.011356475
0.56247699 0.064886428 -0.011369534
0.56169868 0.065838292 -0.012020687
0.56169242 0.066709772 -0.012033769
0.5609141 0.067666404 -0.012684954
0.56090784 0.068539478 -0.012698061
0.56012946 0.069500893 -0.013349319
0.56012315 0.070375554 -0.01336245
0.56011689 0.071250223 -0.01337558
0.56011057 0.072124891 -0.013388711
0.56010431 0.072999559 -0.013401842
0.56009799 0.07387422 -0.013414972
0.56009167 0.074748889 -0.013428102
0.56008542 0.075623557 -0.013441233
0.55930698 0.076599307 -0.014092706
0.55930066 0.07747557 -0.01410586
0.55929434 0.078351825 -0.014119015
0.55928802 0.079228081 -0.014132169
0.55928171 0.080104351 -0.014145324
0.55927545 0.080980606 -0.014158478
0.55926913 0.081856869 -0.014171633
0.55926281 0.082733124 -0.014184788
0.56002879 0.083495557 -0.013559408
0.56002247 0.084370218 -0.013572539
0.56078845 0.08512786 -0.012947088
0.56155443 0.085882321 -0.01232159
0.56154817 0.086753801 -0.012334673
0.56231427 0.08750347 -0.011709064
0.56230801 0.088373363 -0.011722123
0.56307411 0.089118257 -0.011096481
0.56306785 0.089986555 -0.011109516
0.56306159 0.090854853 -0.011122551
0.56305534 0.091723137 -0.011135586
0.56304908 0.092591435 -0.011148621
0.56304282 0.093459725 -0.011161656
0.56303662 0.094328023 -0.011174691
0.56303036 0.095196314 -0.011187726
0.5630241 0.096064612 -0.01120076
0.56301785 0.09693291 -0.011213795
0.56301159 0.097801194 -0.01122683
0.56300539 0.098669492 -0.011239866
0.56299913 0.099537775 -0.011252901
0.56299287 0.10040607 -0.011265935
0.56298661 0.10127436 -0.01127897
0.56220788 0.10229155 -0.011931065
0.56220162 0.10316142 -0.011944124
0.56142277 0.1041834 -0.012596328
0.56141651 0.10505488 -0.012609411
0.56063771 0.10608161 -0.013261649
0.55985886 0.10711154 -0.013913935
0.55908 0.10814464 -0.014566269
0.55907369 0.1090209 -0.014579423
0.55752212 0.11022042 -0.015871117
0.5567432 0.1112631 -0.016523594
0.55673689 0.11214414 -0.016536821
0.55673051 0.11302517 -0.016550047
0.55595154 0.11407422 -0.017202621
0.55594522 0.11495685 -0.01721587
0.55516618 0.11601067 -0.017868515
0.55515981 0.11689489 -0.017881788
0.55515343 0.11777912 -0.017895063
0.55591977 0.11848738 -0.017268872
0.55514073 0.11954757 -0.017921612
0.55590707 0.12025265 -0.017295372
0.55590075 0.12113527 -0.017308623
0.55589437 0.12201791 -0.017321872
0.55666077 0.1227166 -0.016695537
0.55742723 0.12341212 -0.016069153
0.55742091 0.12429156 -0.016082356
0.55818743 0.12498228 -0.015455862
0.55895388 0.12566984 -0.014829359
0.55894756 0.12654608 -0.014842513
0.55971408 0.12722886 -0.014215939
0.55970782 0.12810352 -0.014229069
0.5597015 0.12897819 -0.0142422
0.55969524 0.12985285 -0.014255331
0.56046182 0.13052766 -0.013628636
0.5604555 0.13140073 -0.013641742
0.56044924 0.13227379 -0.013654849
0.56044292 0.13314688 -0.013667956
0.56043667 0.13401994 -0.013681062
0.56043041 0.13489302 -0.013694169
0.56042409 0.13576609 -0.013707276
0.56041783 0.13663916 -0.013720383
0.56041151 0.13751224 -0.013733489
0.56040525 0.13838531 -0.013746596
0.560399 0.13925838 -0.013759702
0.56039268 0.14013144 -0.013772809
0.56038642 0.14100453 -0.013785916
0.5603801 0.14187759 -0.013799023
0.56114686 0.1425285 -0.01317197
0.5611406 0.14339998 -0.013185052
0.56113434 0.14427146 -0.013198135
0.56112808 0.14514296 -0.013211218
0.56112182 0.14601441 -0.013224301
0.5611155 0.1468859 -0.013237383
0.56110924 0.14775738 -0.013250466
0.56110299 0.14862886 -0.013263549
0.56109673 0.14950034 -0.013276632
0.56109047 0.15037182 -0.013289714
0.56108415 0.1512433 -0.013302797
0.56107789 0.15211479 -0.013315881
0.56107163 0.15298627 -0.013328963
0.56106538 0.15385775 -0.013342046
0.56105912 0.1547292 -0.013355128
0.56182605 0.15535463 -0.012727655
0.56181979 0.15622452 -0.012740714
0.56181353 0.15709437 -0.012753772
0.56180727 0.15796426 -0.012766831
0.56180102 0.15883416 -0.01277989
0.56179476 0.15970404 -0.012792949
0.5617885 0.16057393 -0.012806008
0.56178224 0.16144383 -0.012819067
0.56254929 0.1620549 -0.012191416
0.56254303 0.16292319 -0.012204451
0.56253678 0.16379148 -0.012217485
0.56330389 0.16439618 -0.011589739
0.56329763 0.16526288 -0.011602749
0.56329143 0.16612957 -0.01161576
0.56328517 0.16699629 -0.011628771
