# .PCD v0.7 - Point Cloud Data file format
VERSION 0.7
FIELDS x y z
SIZE 4 4 4
TYPE F F F
COUNT 1 1 1
WIDTH 1327
HEIGHT 1
VIEWPOINT 0 0 0 1 0 0 0
POINTS 1327
DATA ascii
0.52126068 0.12805128 -0.011224012
0.52124465 0.12901194 -0.011232126
0.52122861 0.12997261 -0.011240238
0.52121258 0.13093328 -0.011248352
0.52038765 0.13211913 -0.011853401
0.52037162 0.13308139 -0.011861527
0.52035552 0.13404365 -0.011869653
0.52033949 0.13500591 -0.01187778
0.52032346 0.13596816 -0.011885907
0.52030742 0.13693042 -0.011894033
0.52029139 0.13789268 -0.01190216
0.52108443 0.1386186 -0.011313258
0.52106845 0.13957925 -0.01132137
0.52105242 0.14053991 -0.011329484
0.52103639 0.14150058 -0.011337597
0.52102035 0.14246124 -0.011345711
0.52181363 0.1431776 -0.010756727
0.5217976 0.14413667 -0.010764827
0.52178162 0.14509574 -0.010772927
0.52176565 0.1460548 -0.010781026
0.52174968 0.14701387 -0.010789126
0.52173364 0.14797294 -0.010797226
0.52171767 0.14893204 -0.010805326
0.52170169 0.14989109 -0.010813425
0.52168566 0.15085016 -0.010821525
0.52166969 0.15180923 -0.010829625
0.52165371 0.15276831 -0.010837724
0.52163768 0.15372737 -0.010845824
0.5216217 0.15468644 -0.010853924
0.52160573 0.15564553 -0.010862025
0.5215897 0.1566046 -0.010870124
0.52157372 0.15756367 -0.010878224
0.52155775 0.15852273 -0.010886324
0.52154171 0.15948181 -0.010894423
0.52152574 0.16044088 -0.010902523
0.52150977 0.16139995 -0.010910623
0.52230358 0.16208284 -0.010321322
0.52228767 0.16304031 -0.010329408
0.52227169 0.16399777 -0.010337494
0.52225572 0.16495526 -0.010345581
0.52223974 0.16591275 -0.010353667
0.52303368 0.16658607 -0.0097643202
0.52301776 0.16754195 -0.0097723929
0.52300185 0.16849786 -0.0097804656
0.52298588 0.16945373 -0.0097885393
0.52296996 0.1704096 -0.009796612
0.52376407 0.17107339 -0.0092071844
0.52374816 0.17202769 -0.0092152441
0.52373224 0.17298198 -0.0092233028
0.52371633 0.17393626 -0.0092313625
0.52370042 0.17489058 -0.0092394222
0.5236845 0.17584486 -0.0092474809
0.52366859 0.17679913 -0.0092555406
0.52365267 0.17775342 -0.0092636002
0.52363676 0.17870773 -0.0092716599
0.52362084 0.17966202 -0.0092797186
0.52441525 0.18030827 -0.008690143
0.5243994 0.18126096 -0.0086981896
0.52438349 0.18221368 -0.0087062353
0.52436763 0.18316637 -0.008714281
0.52435172 0.18411906 -0.0087223267
0.52433586 0.18507178 -0.0087303733
0.52431995 0.18602446 -0.008738419
0.52430409 0.18697715 -0.0087464647
0.52428818 0.18792985 -0.0087545114
0.52427226 0.18888256 -0.0087625571
0.52425641 0.18983527 -0.0087706028
0.52424049 0.19078796 -0.0087786485
0.52422464 0.19174066 -0.0087866951
0.52420872 0.19269335 -0.0087947408
0.52419287 0.19364604 -0.0088027865
0.52417696 0.19459875 -0.0088108322
0.5249719 0.19521791 -0.0082209939
0.52495605 0.19616902 -0.0082290256
0.52494019 0.1971201 -0.0082370583
0.52492428 0.19807123 -0.008245091
0.52490842 0.19902232 -0.0082531236
0.52489257 0.19997342 -0.0082611563
0.52568763 0.20058145 -0.0076712575
0.52567178 0.20153096 -0.0076792766
0.52565598 0.20248048 -0.0076872958
0.52564013 0.20342998 -0.0076953145
0.52643532 0.20403005 -0.0071053491
0.52641952 0.20497796 -0.0071133547
0.52640373 0.20592587 -0.0071213604
0.52638793 0.20687379 -0.007129366
0.52637208 0.20782171 -0.0071373712
0.52635628 0.20876963 -0.0071453769
0.52634048 0.20971754 -0.0071533825
0.52632469 0.21066546 -0.0071613882
0.52549762 0.21197559 -0.0077674864
0.52548182 0.21292509 -0.0077755051
0.52546597 0.21387461 -0.0077835242
0.52545011 0.21482414 -0.0077915434
0.52543432 0.21577364 -0.0077995621
0.52541846 0.21672316 -0.0078075812
0.52540261 0.21767266 -0.0078156004
0.52538681 0.21862219 -0.0078236191
0.52618241 0.21919674 -0.0072334385
0.52616662 0.22014466 -0.0072414442
0.52615082 0.2210926 -0.0072494498
0.52613497 0.2220405 -0.007257455
0.52611917 0.22298841 -0.0072654607
0.52610338 0.22393632 -0.0072734663
0.52608758 0.22488426 -0.007281472
0.52607179 0.22583218 -0.0072894776
0.52605593 0.22678009 -0.0072974833
0.52604014 0.22772802 -0.0073054889
0.52602434 0.22867593 -0.0073134941
0.52600855 0.22962385 -0.0073214998
0.52599275 0.23057176 -0.0073295054
0.5259769 0.23151968 -0.0073375111
0.5259611 0.23246761 -0.0073455167
0.52594531 0.23341551 -0.0073535223
0.52592951 0.23436345 -0.007361528
0.52591372 0.23531136 -0.0073695336
0.52589786 0.2362593 -0.0073775393
0.52588207 0.2372072 -0.0073855445
0.52586627 0.23815514 -0.0073935501
0.52585047 0.23910305 -0.0074015558
0.52583468 0.24005094 -0.0074095614
0.52581882 0.24099888 -0.0074175671
0.52580303 0.24194679 -0.0074255727
0.52578723 0.24289472 -0.0074335784
0.52577144 0.24384263 -0.0074415836
0.52575564 0.24479057 -0.0074495897
0.52573979 0.24573848 -0.0074575949
0.52572399 0.24668638 -0.0074656005
0.5257082 0.24763431 -0.0074736062
0.5256924 0.24858221 -0.0074816118
0.52567661 0.24953015 -0.0074896174
0.52566075 0.25047806 -0.0074976226
0.52564496 0.25142601 -0.0075056287
0.52481681 0.25280461 -0.0081123048
0.52480096 0.25375414 -0.0081203245
0.5247851 0.25470361 -0.0081283432
0.52476931 0.25565317 -0.0081363618
0.52394098 0.25703976 -0.0087431055
0.52392513 0.25799084 -0.0087511381
0.52390927 0.25894195 -0.0087591708
0.52389342 0.25989306 -0.0087672034
0.5238775 0.26084414 -0.0087752361
0.52386165 0.26179528 -0.0087832687
0.52303314 0.26319304 -0.0093901418
0.52301723 0.26414573 -0.0093981875
0.52300131 0.26509842 -0.0094062332
0.52298546 0.26605114 -0.0094142789
0.52296954 0.26700383 -0.0094223255
0.52295369 0.26795653 -0.0094303712
0.52293777 0.26890922 -0.0094384169
0.52292192 0.26986194 -0.0094464626
0.52290601 0.27081463 -0.0094545092
0.52289015 0.27176732 -0.0094625549
0.52287424 0.27272004 -0.0094706006
0.52285838 0.27367273 -0.0094786463
0.52284247 0.27462539 -0.009486693
0.52282661 0.27557811 -0.0094947387
0.52362376 0.27606186 -0.0089037558
0.52360791 0.27701294 -0.0089117885
0.52359205 0.27796406 -0.0089198211
0.5235762 0.27891517 -0.0089278538
0.52356035 0.27986628 -0.0089358855
0.52354449 0.28081736 -0.0089439182
0.52352858 0.28176847 -0.0089519508
0.52432597 0.2822395 -0.0083608953
0.52431011 0.283189 -0.008368914
0.52429426 0.28413853 -0.0083769336
0.52509171 0.28460315 -0.0077858241
0.52507591 0.28555104 -0.0077938293
0.52506012 0.28649899 -0.0078018354
0.52585769 0.28695726 -0.0072106738
0.52584189 0.28790361 -0.0072186659
0.5258261 0.28884989 -0.0072266576
0.52566302 -0.099622317 -0.010047025
0.52564704 -0.098661646 -0.010055139
0.52563101 -0.097700991 -0.010063251
0.52561498 -0.09674032 -0.010071365
0.52559894 -0.095779657 -0.010079478
0.52558297 -0.094818994 -0.010087592
0.52556694 -0.093858331 -0.010095704
0.52474916 -0.093045257 -0.010698842
0.52473313 -0.092083 -0.010706969
0.52471709 -0.091120742 -0.010715095
0.52470106 -0.090158485 -0.010723222
0.52468503 -0.089196227 -0.010731349
0.52466893 -0.08823397 -0.010739475
0.5246529 -0.087271713 -0.010747602
0.52463686 -0.086309455 -0.010755729
0.52462083 -0.085347198 -0.010763856
0.52460474 -0.084384933 -0.010771982
0.5245887 -0.083422683 -0.010780109
0.52457267 -0.082460418 -0.010788236
0.52455664 -0.081498168 -0.010796363
0.5245406 -0.080535911 -0.010804489
0.52452451 -0.079573654 -0.010812616
0.52450848 -0.078611404 -0.010820743
0.52449244 -0.077649131 -0.010828869
0.52447641 -0.076686881 -0.010836996
0.52526253 -0.075605713 -0.010249856
0.52524656 -0.074645042 -0.010257969
0.52523053 -0.073684379 -0.010266082
0.52521449 -0.072723716 -0.010274195
0.52519846 -0.071763054 -0.010282309
0.52518249 -0.070802391 -0.010290422
0.52516645 -0.06984172 -0.010298535
0.52515042 -0.068881057 -0.010306648
0.52513438 -0.067920394 -0.010314762
0.52511835 -0.066959739 -0.010322874
0.52510238 -0.065999068 -0.010330988
0.52508634 -0.065038405 -0.010339101
0.52507031 -0.064077742 -0.010347215
0.52505428 -0.063117079 -0.010355327
0.5250383 -0.062156409 -0.010363441
0.52502227 -0.061195746 -0.010371554
0.52500623 -0.060235083 -0.010379667
0.5249902 -0.05927442 -0.01038778
0.52497423 -0.058313757 -0.010395894
0.52495819 -0.057353094 -0.010404007
0.52494216 -0.056392431 -0.01041212
0.52492613 -0.055431768 -0.010420233
0.52491009 -0.054471098 -0.010428347
0.52489412 -0.053510435 -0.01043646
0.52487808 -0.052549772 -0.010444573
0.52486205 -0.051589109 -0.010452687
0.52484602 -0.050628446 -0.0104608
0.52483004 -0.049667779 -0.010468913
0.52481401 -0.048707116 -0.010477026
0.52479798 -0.04774645 -0.01048514
0.52478194 -0.046785787 -0.010493252
0.52476597 -0.045825124 -0.010501366
0.52474993 -0.044864457 -0.010509479
0.5247339 -0.043903794 -0.010517593
0.52471787 -0.042943131 -0.010525705
0.52470189 -0.041982468 -0.010533819
0.52468586 -0.041021802 -0.010541932
0.52466983 -0.040061139 -0.010550045
0.52465379 -0.039100476 -0.010558158
0.52463776 -0.038139809 -0.010566272
0.52462178 -0.037179146 -0.010574385
0.52460575 -0.036218483 -0.010582498
0.52458972 -0.03525782 -0.010590611
0.52457368 -0.034297153 -0.010598725
0.52455771 -0.03333649 -0.010606837
0.52534509 -0.032328602 -0.01001908
0.52532905 -0.03136953 -0.010027179
0.52531308 -0.030410459 -0.01003528
0.52529711 -0.029451389 -0.01004338
0.52528107 -0.028492318 -0.01005148
0.5252651 -0.027533246 -0.010059579
0.52605271 -0.026536509 -0.0094716912
0.52603674 -0.025579032 -0.0094797779
0.52602077 -0.024621554 -0.0094878636
0.52600485 -0.023664076 -0.0094959503
0.52598888 -0.022706598 -0.009504036
0.5259729 -0.02174912 -0.0095121227
0.52595693 -0.020791642 -0.0095202094
0.52594095 -0.019834166 -0.0095282951
0.52672875 -0.018851768 -0.0089403223
0.52671283 -0.017895883 -0.008948395
0.52669686 -0.01694 -0.0089564687
0.52668095 -0.015984114 -0.0089645414
0.52666503 -0.015028229 -0.0089726141
0.52664906 -0.014072345 -0.0089806868
0.52663314 -0.01311646 -0.0089887595
0.52661717 -0.012160575 -0.0089968322
0.52660125 -0.011204691 -0.0090049058
0.52658528 -0.010248806 -0.0090129785
0.52656937 -0.009292922 -0.0090210512
0.52655345 -0.0083370367 -0.0090291239
0.52653748 -0.0073811519 -0.0090371966
0.52652156 -0.0064252666 -0.0090452693
0.52650559 -0.0054693827 -0.009053343
0.52648968 -0.0045134979 -0.0090614157
0.5264737 -0.0035576138 -0.0090694884
0.52645779 -0.0026017288 -0.0090775611
0.52644187 -0.0016458447 -0.0090856338
0.5264259 -0.00068995875 -0.0090937074
0.52640998 0.00026592534 -0.0091017801
0.52639401 0.0012218104 -0.0091098528
0.5263781 0.0021776943 -0.0091179255
0.52636212 0.0031335803 -0.0091259982
0.52634621 0.0040894644 -0.0091340709
0.52633029 0.0050453483 -0.0091421446
0.52631432 0.0060012327 -0.0091502173
0.5262984 0.0069571165 -0.00915829
0.52628243 0.0079130027 -0.0091663627
0.52626652 0.008868888 -0.0091744354
0.52625054 0.0098247724 -0.0091825081
0.52623463 0.010780657 -0.0091905817
0.52621871 0.011736543 -0.0091986544
0.52620274 0.012692426 -0.0092067271
0.52618682 0.013648311 -0.0092147999
0.52697557 0.014573353 -0.0086263428
0.52695966 0.015527647 -0.0086344024
0.52694374 0.016481938 -0.0086424612
0.52692783 0.017436231 -0.0086505208
0.52691191 0.018390521 -0.0086585805
0.526896 0.019344814 -0.0086666401
0.52688009 0.020299105 -0.0086746989
0.52686417 0.021253394 -0.0086827585
0.52684826 0.022207689 -0.0086908182
0.52602738 0.02320716 -0.0092955288
0.52601147 0.024163043 -0.0093036015
0.52599555 0.025118927 -0.0093116742
0.52597958 0.026074812 -0.0093197469
0.52596366 0.027030695 -0.0093278196
0.52594769 0.027986582 -0.0093358932
0.52593178 0.028942468 -0.0093439659
0.5259158 0.029898351 -0.0093520386
0.52589989 0.030854234 -0.0093601113
0.52588397 0.03181012 -0.009368184
0.525868 0.032766003 -0.0093762567
0.52585208 0.033721887 -0.0093843304
0.52583611 0.03467777 -0.0093924031
0.5258202 0.035633661 -0.0094004758
0.52660954 0.036522064 -0.0088117095
0.52659363 0.037476353 -0.0088197682
0.52657771 0.038430646 -0.0088278279
0.5265618 0.039384935 -0.0088358875
0.52654588 0.040339228 -0.0088439463
0.52652997 0.041293517 -0.0088520059
0.52651411 0.042247809 -0.0088600656
0.5264982 0.043202102 -0.0088681253
0.52648228 0.044156395 -0.008876184
0.52646637 0.045110688 -0.0088842437
0.52645046 0.046064977 -0.0088923033
0.52643454 0.047019266 -0.008900363
0.52722424 0.047886956 -0.0083114207
0.52720833 0.048839662 -0.0083194673
0.52719247 0.049792357 -0.008327513
0.52637088 0.050836436 -0.0089325998
0.52635497 0.051790729 -0.0089406595
0.52633905 0.052745018 -0.0089487191
0.52632314 0.053699307 -0.0089567788
0.52630723 0.054653596 -0.0089648375
0.52629131 0.055607896 -0.0089728972
0.5262754 0.056562185 -0.0089809569
0.52625948 0.057516474 -0.0089890156
0.52624357 0.058470771 -0.0089970753
0.52622765 0.059425063 -0.0090051349
0.52621174 0.060379345 -0.0090131946
0.52619582 0.061333641 -0.0090212533
0.52617991 0.062287938 -0.009029313
0.526164 0.063242219 -0.0090373727
0.52614808 0.06419652 -0.0090454323
0.52532607 0.06526608 -0.0096507343
0.5253101 0.066221967 -0.009658807
0.52529418 0.067177854 -0.0096668806
0.52527821 0.068133734 -0.0096749533
0.5252623 0.069089621 -0.009683026
0.52524632 0.070045501 -0.0096910987
0.52523041 0.071001396 -0.0096991714
0.52521449 0.071957275 -0.0097072441
0.52519852 0.072913162 -0.0097153177
0.5251826 0.073869042 -0.0097233905
0.52516663 0.074824929 -0.0097314632
0.52515072 0.075780809 -0.0097395359
0.52513474 0.076736704 -0.0097476086
0.52511883 0.077692583 -0.0097556813
0.52510291 0.07864847 -0.0097637549
0.52508694 0.079604357 -0.0097718276
0.52507102 0.080560237 -0.0097799003
0.52505505 0.081516124 -0.009787973
0.52503914 0.082472004 -0.0097960457
0.52421659 0.083573438 -0.010401618
0.52420062 0.084530905 -0.010409703
0.52418464 0.085488394 -0.01041779
0.52416867 0.086445875 -0.010425877
0.5241527 0.087403342 -0.010433963
0.52413672 0.088360831 -0.010442049
0.52331394 0.089473411 -0.011047751
0.52329797 0.090432495 -0.011055851
0.52328193 0.091391556 -0.011063951
0.52326596 0.092350632 -0.011072051
0.52324998 0.0933097 -0.01108015
0.52323401 0.094268769 -0.01108825
0.52321798 0.095227845 -0.01109635
0.523202 0.096186914 -0.01110445
0.52318603 0.097145982 -0.011112549
0.52316999 0.098105051 -0.011120649
0.52315402 0.099064127 -0.011128749
0.52313805 0.1000232 -0.011136848
0.52312201 0.10098226 -0.011144948
0.52310604 0.10194135 -0.011153048
0.52309006 0.10290041 -0.011161148
0.52307403 0.10385948 -0.011169247
0.52305806 0.10481855 -0.011177348
0.52304208 0.10577763 -0.011185448
0.52302605 0.10673669 -0.011193547
0.52301008 0.10769577 -0.011201647
0.5229941 0.10865483 -0.011209747
0.52297807 0.10961391 -0.011217847
0.52296209 0.11057298 -0.011225946
0.52294612 0.11153205 -0.011234046
0.52373755 0.11229777 -0.010644207
0.52372164 0.11325524 -0.010652293
0.52370566 0.11421272 -0.01066038
0.52368969 0.11517021 -0.010668466
0.52367371 0.11612768 -0.010676553
0.52365774 0.11708517 -0.010684638
0.52364177 0.11804264 -0.010692725
0.52362579 0.11900012 -0.010700812
0.52360982 0.1199576 -0.010708897
0.5235939 0.12091506 -0.010716984
0.52357793 0.12187255 -0.010725071
0.52356195 0.12283002 -0.010733156
0.52354598 0.12378751 -0.010741243
0.52353001 0.12474498 -0.010749329
0.52351403 0.12570247 -0.010757416
0.52349806 0.12665993 -0.010765502
0.52348208 0.12761742 -0.010773588
0.52265823 0.12879533 -0.011379842
0.52264225 0.12975439 -0.011387941
0.52262622 0.13071348 -0.011396041
0.52261025 0.13167255 -0.011404141
0.52259427 0.13263161 -0.011412241
0.52257824 0.13359067 -0.01142034
0.52256227 0.13454975 -0.011428441
0.52254629 0.13550884 -0.011436541
0.52253026 0.1364679 -0.01144464
0.52251428 0.13742696 -0.01145274
0.52249831 0.13838604 -0.01146084
0.52248228 0.13934511 -0.011468939
0.5224663 0.14030418 -0.011477039
0.52325857 0.1410221 -0.010886797
0.52324259 0.14197959 -0.010894882
0.52322662 0.14293706 -0.010902969
0.5232107 0.14389452 -0.010911056
0.52319473 0.14485201 -0.010919142
0.52398711 0.1455604 -0.010328855
0.52397114 0.14651628 -0.010336928
0.52395523 0.14747216 -0.010345001
0.52393925 0.14842805 -0.010353073
0.52392334 0.14938395 -0.010361146
0.52390736 0.15033981 -0.010369219
0.52308297 0.15155435 -0.010975746
0.523067 0.15251184 -0.010983832
0.52305102 0.15346931 -0.010991919
0.52303505 0.15442678 -0.011000005
0.52301908 0.15538429 -0.011008091
0.5230031 0.15634175 -0.011016178
0.52298713 0.15729922 -0.011024264
0.52297115 0.15825669 -0.01103235
0.52295524 0.1592142 -0.011040437
0.52293926 0.16017166 -0.011048523
0.52373207 0.16085455 -0.01045802
0.52371609 0.16181044 -0.010466093
0.52370018 0.16276632 -0.010474166
0.5236842 0.1637222 -0.01048224
0.52447718 0.16439712 -0.0098916693
0.52446127 0.16535142 -0.0098997289
0.52444535 0.16630572 -0.0099077886
0.52442944 0.16726001 -0.0099158483
0.52522248 0.16792698 -0.0093252109
0.52520663 0.16887966 -0.0093332566
0.52519071 0.16983235 -0.0093413033
0.52517486 0.17078505 -0.009349349
0.52515894 0.17173776 -0.0093573947
0.52514309 0.17269047 -0.0093654413
0.52512717 0.17364316 -0.009373487
0.52511126 0.17459585 -0.0093815327
0.52590466 0.17524846 -0.0087907389
0.5258888 0.17619956 -0.0087987706
0.52587295 0.17715065 -0.0088068033
0.52585709 0.17810178 -0.0088148359
0.52584118 0.17905287 -0.0088228686
0.52582532 0.18000399 -0.0088309012
0.52580947 0.18095508 -0.0088389339
0.52579361 0.18190619 -0.0088469665
0.52577776 0.18285729 -0.0088549983
0.5257619 0.1838084 -0.0088630309
0.52574605 0.18475951 -0.0088710636
0.52573019 0.18571062 -0.0088790962
0.52571434 0.18666172 -0.0088871289
0.52569848 0.18761282 -0.0088951606
0.52568263 0.18856393 -0.0089031933
0.52566671 0.18951502 -0.0089112259
0.52565086 0.19046614 -0.0089192586
0.525635 0.19141725 -0.0089272913
0.52561915 0.19236836 -0.0089353239
0.52560329 0.19331945 -0.0089433556
0.52558744 0.19427057 -0.0089513883
0.52638131 0.19488814 -0.0083603328
0.52636552 0.19583765 -0.0083683524
0.52634966 0.19678715 -0.0083763711
0.52633381 0.19773668 -0.0083843907
0.52631801 0.19868618 -0.0083924094
0.52711207 0.19929419 -0.0078012748
0.52709621 0.2002421 -0.00780928
0.52708042 0.20119004 -0.0078172861
0.52706462 0.20213796 -0.0078252917
0.52785879 0.20273799 -0.0072340895
0.527843 0.20368433 -0.0072420817
0.52782726 0.20463066 -0.0072500738
0.52781147 0.20557697 -0.007258066
0.52779567 0.2065233 -0.0072660581
0.52777988 0.20746964 -0.0072740503
0.52776414 0.20841596 -0.0072820424
0.52774835 0.20936228 -0.0072900346
0.52773255 0.2103086 -0.0072980262
0.52771676 0.21125492 -0.0073060188
0.52689075 0.21256505 -0.0079133529
0.52687496 0.21351297 -0.0079213586
0.5268591 0.21446089 -0.0079293642
0.52765363 0.21504024 -0.0073379874
0.5276379 0.21598656 -0.0073459796
0.5276221 0.21693288 -0.0073539712
0.52760631 0.21787922 -0.0073619639
0.52759051 0.21882555 -0.007369956
0.52757478 0.21977186 -0.0073779477
0.52755898 0.2207182 -0.0073859403
0.52754319 0.22166452 -0.0073939324
0.52752739 0.22261083 -0.0074019241
0.52751166 0.22355716 -0.0074099163
0.52749586 0.2245035 -0.0074179089
0.52748007 0.22544982 -0.0074259005
0.52746427 0.22639614 -0.0074338927
0.52744853 0.22734249 -0.0074418853
0.52743274 0.2282888 -0.007449877
0.52741694 0.22923513 -0.0074578691
0.52740115 0.23018144 -0.0074658613
0.52738541 0.23112777 -0.0074738534
0.52736962 0.2320741 -0.0074818456
0.52735382 0.23302042 -0.0074898377
0.52733803 0.23396675 -0.0074978299
0.52732229 0.23491308 -0.007505822
0.5273065 0.23585941 -0.0075138141
0.5272907 0.23680574 -0.0075218063
0.52727491 0.23775207 -0.0075297984
0.52725917 0.23869839 -0.0075377906
0.52724338 0.23964472 -0.0075457827
0.52722758 0.24059105 -0.0075537749
0.52721179 0.24153736 -0.007561767
0.52719605 0.24248369 -0.0075697592
0.52718025 0.24342999 -0.0075777513
0.52716446 0.24437635 -0.0075857434
0.52714866 0.24532267 -0.0075937356
0.52713293 0.24626897 -0.0076017277
0.52711713 0.2472153 -0.0076097199
0.52710134 0.24816166 -0.007617712
0.52708554 0.24910796 -0.0076257037
0.52706981 0.25005427 -0.0076336958
0.52705401 0.25100064 -0.0076416885
0.52703822 0.25194693 -0.0076496801
0.52702242 0.25289327 -0.0076576723
0.52619523 0.2542735 -0.0082655987
0.52617943 0.25522143 -0.0082736043
0.52616364 0.25616935 -0.00828161
0.52614778 0.25711724 -0.0082896156
0.52532047 0.25850543 -0.0088976091
0.52530462 0.25945497 -0.0089056278
0.52528882 0.26040447 -0.0089136474
0.52527297 0.26135397 -0.0089216661
0.52525711 0.2623035 -0.0089296848
0.52524132 0.263253 -0.0089377044
0.52441376 0.26465234 -0.0095457938
0.52439791 0.26560348 -0.0095538264
0.52438205 0.26655456 -0.0095618581
0.5243662 0.26750565 -0.0095698908
0.52435035 0.26845676 -0.0095779235
0.52433449 0.26940787 -0.0095859561
0.52431864 0.27035898 -0.0095939878
0.52430278 0.27131006 -0.0096020205
0.52428687 0.2722612 -0.0096100532
0.52427101 0.27321228 -0.0096180858
0.52425516 0.2741634 -0.0096261185
0.5250513 0.27464712 -0.0090339324
0.52503544 0.27559668 -0.009041952
0.52501965 0.27654615 -0.0090499707
0.52500379 0.27749568 -0.0090579893
0.52498794 0.27844521 -0.009066009
0.52497214 0.27939472 -0.0090740277
0.52576846 0.27986732 -0.0084817493
0.5257526 0.28081521 -0.008489755
0.52573681 0.28176317 -0.0084977606
0.52572101 0.28271106 -0.0085057663
0.52651745 0.28317568 -0.0079134209
0.52650166 0.28412202 -0.0079214126
0.52648592 0.28506833 -0.0079294052
0.52647012 0.28601471 -0.0079373978
0.52726668 0.28647137 -0.0073449844
0.52725095 0.28741607 -0.0073529631
0.52723521 0.28836083 -0.0073609417
0.52706933 -0.099459782 -0.010196707
0.5270533 -0.098500706 -0.010204807
0.52703732 -0.097541645 -0.010212908
0.52702135 -0.096582562 -0.010221007
0.52700531 -0.095623493 -0.010229107
0.52698934 -0.094664425 -0.010237207
0.52697337 -0.093705349 -0.010245306
0.52695733 -0.09274628 -0.010253406
0.52694136 -0.091787212 -0.010261506
0.5261246 -0.090972535 -0.010865893
0.52610856 -0.090011872 -0.010874007
0.52609253 -0.089051209 -0.01088212
0.52607656 -0.088090546 -0.010890233
0.52606052 -0.087129876 -0.010898346
0.52604449 -0.086169221 -0.01090646
0.52602845 -0.085208543 -0.010914573
0.52601242 -0.084247887 -0.010922686
0.52599645 -0.083287217 -0.010930799
0.52598041 -0.082326561 -0.010938913
0.52596438 -0.081365891 -0.010947025
0.52594835 -0.080405228 -0.010955139
0.52593237 -0.079444565 -0.010963252
0.52591634 -0.078483902 -0.010971365
0.5259003 -0.077523232 -0.010979478
0.52668548 -0.07644207 -0.010391102
0.5266695 -0.075483002 -0.010399202
0.52665347 -0.074523933 -0.010407302
0.52663749 -0.073564857 -0.010415401
0.52662152 -0.072605789 -0.010423501
0.52660549 -0.07164672 -0.010431601
0.52658951 -0.070687652 -0.0104397
0.52657354 -0.069728576 -0.0104478
0.52655751 -0.068769507 -0.0104559
0.52654153 -0.067810431 -0.010464001
0.52652556 -0.066851363 -0.0104721
0.52650952 -0.065892294 -0.0104802
0.52649355 -0.064933226 -0.0104883
0.52647758 -0.06397415 -0.010496399
0.52646154 -0.063015081 -0.010504499
0.52644557 -0.062056005 -0.010512599
0.52642959 -0.061096936 -0.010520699
0.52641356 -0.060137864 -0.010528798
0.52639759 -0.059178796 -0.010536898
0.52638161 -0.058219723 -0.010544998
0.52636558 -0.057260655 -0.010553097
0.5263496 -0.056301583 -0.010561197
0.52633363 -0.055342514 -0.010569297
0.52631766 -0.054383438 -0.010577396
0.52630162 -0.05342437 -0.010585497
0.52628565 -0.052465297 -0.010593597
0.52626967 -0.051506229 -0.010601697
0.52625364 -0.050547156 -0.010609796
0.52623767 -0.049588088 -0.010617896
0.52622169 -0.048629012 -0.010625996
0.5270077 -0.047597233 -0.010037168
0.52699172 -0.046639755 -0.010045254
0.52697575 -0.045682278 -0.01005334
0.52695978 -0.0447248 -0.010061426
0.5269438 -0.043767322 -0.010069513
0.52692789 -0.042809844 -0.010077599
0.52691191 -0.041852366 -0.010085685
0.52689594 -0.040894888 -0.010093772
0.52687997 -0.039937411 -0.010101858
0.52686399 -0.038979933 -0.010109944
0.52684802 -0.038022451 -0.010118031
0.52683204 -0.037064977 -0.010126117
0.52681607 -0.036107499 -0.010134203
0.52680016 -0.035150021 -0.01014229
0.52678418 -0.034192543 -0.010150376
0.52676821 -0.033235066 -0.010158462
0.52675223 -0.032277588 -0.010166548
0.52673626 -0.03132011 -0.010174635
0.52672029 -0.030362632 -0.010182722
0.52670431 -0.029405154 -0.010190807
0.52749085 -0.028406832 -0.0096017318
0.52747494 -0.027450947 -0.0096098045
0.52745897 -0.026495062 -0.0096178772
0.52744305 -0.025539178 -0.0096259499
0.52742714 -0.024583293 -0.0096340226
0.52741116 -0.023627408 -0.0096420962
0.52739525 -0.022671524 -0.0096501689
0.52818197 -0.021685947 -0.0090609854
0.52816606 -0.020731656 -0.0090690441
0.52815014 -0.019777365 -0.0090771038
0.52813423 -0.018823072 -0.0090851635
0.52811831 -0.017868781 -0.0090932231
0.5281024 -0.016914489 -0.0091012819
0.52808648 -0.015960198 -0.0091093415
0.52807057 -0.015005906 -0.0091174012
0.52805465 -0.014051614 -0.0091254599
0.52803874 -0.013097323 -0.0091335196
0.52802283 -0.012143032 -0.0091415793
0.52800691 -0.01118874 -0.0091496389
0.527991 -0.010234449 -0.0091576977
0.52797508 -0.0092801573 -0.0091657573
0.52795917 -0.0083258655 -0.009173817
0.52794325 -0.0073715732 -0.0091818767
0.52792734 -0.0064172815 -0.0091899354
0.52791142 -0.0054629906 -0.0091979951
0.52789551 -0.0045086988 -0.0092060547
0.52787966 -0.0035544082 -0.0092141135
0.52786374 -0.0026001155 -0.0092221731
0.52784783 -0.0016458245 -0.0092302328
0.52783191 -0.00069153274 -0.0092382925
0.527816 0.00026275811 -0.0092463512
0.52780008 0.0012170508 -0.0092544109
0.52778417 0.0021713406 -0.0092624705
0.52776825 0.0031256343 -0.0092705302
0.52775234 0.0040799263 -0.0092785889
0.52773643 0.0050342162 -0.0092866486
0.52852398 0.0059719984 -0.0086970627
0.52850807 0.0069246981 -0.0087051084
0.52849215 0.0078773974 -0.0087131551
0.5284763 0.0088300956 -0.0087212007
0.52846038 0.009782793 -0.0087292464
0.52844453 0.01073549 -0.0087372921
0.52842861 0.011688191 -0.0087453388
0.52841276 0.01264089 -0.0087533845
0.52839684 0.013593587 -0.0087614302
0.52838099 0.014546284 -0.0087694768
0.52836508 0.015498985 -0.0087775225
0.52834922 0.016451681 -0.0087855682
0.52833331 0.017404381 -0.0087936139
0.52831745 0.018357078 -0.0088016605
0.52830154 0.019309776 -0.0088097062
0.52828562 0.020262476 -0.0088177519
0.52826977 0.021215176 -0.0088257976
0.52825385 0.022167871 -0.0088338442
0.528238 0.023120571 -0.0088418899
0.52822208 0.024073271 -0.0088499356
0.52820623 0.025025966 -0.0088579822
0.52819031 0.025978666 -0.0088660279
0.52817446 0.026931366 -0.0088740736
0.52815855 0.027884064 -0.0088821193
0.52814269 0.028836764 -0.0088901659
0.52812678 0.029789461 -0.0088982116
0.52811092 0.030742159 -0.0089062573
0.52809501 0.031694859 -0.008914304
0.52807909 0.032647554 -0.0089223497
0.52806324 0.033600256 -0.0089303954
0.52804732 0.03455295 -0.0089384411
0.52803147 0.035505652 -0.0089464877
0.52801555 0.036458354 -0.0089545334
0.5279997 0.037411049 -0.0089625791
0.52798378 0.038363747 -0.0089706248
0.52796793 0.039316446 -0.0089786714
0.52795202 0.040269144 -0.0089867171
0.52874064 0.041146383 -0.0083965827
0.52872479 0.042097487 -0.0084046153
0.52870893 0.043048598 -0.0084126471
0.52869308 0.043999702 -0.0084206797
0.52867717 0.044950806 -0.0084287124
0.52866131 0.045901909 -0.008436745
0.52864546 0.046853013 -0.0084447777
0.5286296 0.047804121 -0.0084528103
0.52861375 0.048755221 -0.0084608421
0.52859789 0.049706332 -0.0084688747
0.52858204 0.05065744 -0.0084769074
0.52856618 0.05160854 -0.00848494
0.52855033 0.052559651 -0.0084929727
0.52853447 0.053510752 -0.0085010044
0.52851862 0.054461855 -0.0085090371
0.5285027 0.055412963 -0.0085170697
0.52768195 0.056465011 -0.0091234986
0.52766609 0.057417717 -0.0091315443
0.52765018 0.058370419 -0.00913959
0.52763426 0.059323113 -0.0091476366
0.52761841 0.060275812 -0.0091556823
0.52760249 0.061228506 -0.009163728
0.52758664 0.062181208 -0.0091717737
0.52757072 0.063133903 -0.0091798203
0.52755487 0.064086609 -0.009187866
0.52753896 0.065039307 -0.0091959117
0.5275231 0.065991998 -0.0092039574
0.52750719 0.066944696 -0.009212004
0.52749133 0.067897402 -0.0092200497
0.52747542 0.068850093 -0.0092280954
0.52745956 0.069802798 -0.009236142
0.52744365 0.070755497 -0.0092441877
0.52742773 0.071708187 -0.0092522334
0.52741188 0.072660893 -0.0092602791
0.52739596 0.073613591 -0.0092683258
0.52738011 0.07456629 -0.0092763714
0.52736419 0.075518981 -0.0092844171
0.52734834 0.076471686 -0.0092924628
0.52733243 0.077424385 -0.0093005095
0.52731657 0.078377083 -0.0093085552
0.52649516 0.079468966 -0.009915282
0.52647924 0.080423243 -0.0099233417
0.52646333 0.081377544 -0.0099314013
0.52644742 0.082331829 -0.0099394601
0.5264315 0.083286121 -0.0099475197
0.52641559 0.084240414 -0.0099555794
0.525594 0.08534345 -0.010562402
0.52557808 0.08629933 -0.010570475
0.52556211 0.087255217 -0.010578548
0.52554619 0.088211097 -0.01058662
0.52553028 0.089166984 -0.010594694
0.5255143 0.090122864 -0.010602767
0.52549839 0.091078751 -0.010610839
0.52548242 0.092034638 -0.010618912
0.5254665 0.092990525 -0.010626985
0.52545053 0.093946405 -0.010635057
0.52543461 0.094902292 -0.010643131
0.5254187 0.095858172 -0.010651204
0.52540272 0.096814066 -0.010659277
0.52538681 0.097769938 -0.010667349
0.52537084 0.098725833 -0.010675422
0.52535492 0.099681713 -0.010683495
0.52533895 0.1006376 -0.010691568
0.52532303 0.10159349 -0.010699641
0.52530712 0.10254937 -0.010707714
0.52529114 0.10350525 -0.010715786
0.52527523 0.10446113 -0.010723859
0.52525926 0.10541702 -0.010731932
0.52524334 0.1063729 -0.010740005
0.52522737 0.10732879 -0.010748078
0.52521145 0.10828468 -0.010756151
0.52519554 0.10924055 -0.010764224
0.52517956 0.11019646 -0.010772296
0.52516365 0.11115233 -0.01078037
0.52514768 0.11210822 -0.010788443
0.52513176 0.1130641 -0.010796515
0.52511579 0.11401999 -0.010804588
0.52509987 0.11497587 -0.010812661
0.52508396 0.11593176 -0.010820733
0.52506799 0.11688764 -0.010828806
0.52505207 0.11784353 -0.01083688
0.52584273 0.11859491 -0.010245718
0.52502018 0.1197553 -0.010853025
0.52500421 0.12071117 -0.010861098
0.52579498 0.12145779 -0.010269896
0.52577907 0.12241207 -0.010277956
0.52576315 0.12336637 -0.010286015
0.52494049 0.12453471 -0.01089339
0.52492452 0.12549061 -0.010901462
0.5249086 0.12644647 -0.010909535
0.52489263 0.12740237 -0.010917608
0.52487671 0.12835824 -0.01092568
0.5248608 0.12931414 -0.010933754
0.52484483 0.13027003 -0.010941827
0.52482891 0.1312259 -0.010949899
0.52400601 0.13240859 -0.011557395
0.52399004 0.13336606 -0.011565481
0.52397406 0.13432355 -0.011573568
0.52395809 0.13528104 -0.011581654
0.52394211 0.1362385 -0.01158974
0.52392614 0.13719597 -0.011597826
0.52391016 0.13815346 -0.011605913
0.52389419 0.13911095 -0.011613999
0.52468544 0.13982888 -0.011022556
0.52466947 0.14078474 -0.011030628
0.52465355 0.14174065 -0.011038701
0.52463764 0.14269653 -0.011046774
0.52462167 0.14365241 -0.011054846
0.52541304 0.14436078 -0.010463322
0.52539712 0.14531507 -0.010471381
0.52538121 0.14626937 -0.010479441
0.52536529 0.14722365 -0.010487501
0.52534938 0.14817795 -0.010495559
0.52533346 0.14913225 -0.010503619
0.52531755 0.15008654 -0.010511679
0.52530164 0.15104081 -0.010519737
0.52528572 0.15199512 -0.010527797
0.52446228 0.15321127 -0.011135575
0.52444631 0.15416713 -0.011143648
0.52443039 0.15512303 -0.011151721
0.52441448 0.1560789 -0.011159793
0.52439851 0.1570348 -0.011167867
0.52438259 0.15799068 -0.01117594
0.52517432 0.15867516 -0.010584213
0.52515841 0.15962945 -0.010592273
0.52514249 0.16058373 -0.010600332
0.52512658 0.16153803 -0.010608392
0.52511066 0.16249232 -0.010616451
0.52590263 0.16316724 -0.010024645
0.52588671 0.16411993 -0.010032691
0.52587086 0.16507263 -0.010040737
0.52585495 0.16602534 -0.010048782
0.52664709 0.16669226 -0.009456872
0.52663124 0.16764338 -0.0094649047
0.52661538 0.16859448 -0.0094729373
0.52659947 0.16954559 -0.00948097
0.52658361 0.17049669 -0.0094890017
0.52656776 0.17144781 -0.0094970344
0.5265519 0.17239891 -0.009505067
0.52653605 0.17334999 -0.0095130997
0.52652019 0.17430112 -0.0095211323
0.52731252 0.17495213 -0.0089291241
0.52729666 0.17590165 -0.0089371437
0.52728087 0.17685115 -0.0089451624
0.52726501 0.17780067 -0.008953182
0.52724922 0.17875019 -0.0089612007
0.52723336 0.17969969 -0.0089692194
0.52721751 0.18064919 -0.008977239
0.52720171 0.18159872 -0.0089852577
0.52718586 0.18254824 -0.0089932764
0.52717 0.18349774 -0.009001296
0.52715421 0.18444727 -0.0090093147
0.52713835 0.18539676 -0.0090173343
0.5271225 0.18634628 -0.009025353
0.5271067 0.18729578 -0.0090333717
0.52709085 0.18824531 -0.0090413913
0.52707499 0.18919481 -0.00904941
0.5270592 0.19014433 -0.0090574287
0.52704334 0.19109385 -0.0090654483
0.52702749 0.19204336 -0.009073467
0.52782035 0.19266252 -0.0084811887
0.52780455 0.19361041 -0.0084891943
0.52778876 0.19455835 -0.0084972
0.52777296 0.19550626 -0.0085052056
0.52775717 0.19645418 -0.0085132113
0.52855015 0.19706379 -0.0079208529
0.52853441 0.19801012 -0.0079288445
0.52851862 0.19895644 -0.0079368372
0.52850282 0.19990276 -0.0079448288
0.52848703 0.2008491 -0.0079528214
0.52928025 0.20144914 -0.0073603815
0.52926445 0.20239386 -0.0073683602
0.52924871 0.20333861 -0.0073763388
0.52923298 0.20428334 -0.0073843175
0.52921718 0.20522806 -0.0073922961
0.52920145 0.20617279 -0.0074002747
0.52918571 0.20711754 -0.0074082538
0.52916998 0.20806228 -0.0074162325
0.52915418 0.20900698 -0.0074242107
0.52913845 0.20995171 -0.0074321893
0.52912271 0.21089646 -0.0074401684
0.52910691 0.2118412 -0.0074481471
0.52909118 0.21278591 -0.0074561257
0.52907544 0.21373066 -0.0074641043
0.52905965 0.2146754 -0.007472083
0.52904391 0.21562013 -0.0074800616
0.52902818 0.21656485 -0.0074880403
0.52901238 0.2175096 -0.0074960189
0.52899665 0.21845433 -0.0075039975
0.52898091 0.21939905 -0.0075119762
0.52896512 0.2203438 -0.0075199553
0.52894938 0.22128852 -0.0075279339
0.52893364 0.22223325 -0.0075359126
0.52891791 0.22317797 -0.0075438912
0.52971178 0.22373818 -0.0069510802
0.52969605 0.22468132 -0.0069590453
0.52968031 0.22562446 -0.0069670109
0.52966458 0.22656761 -0.006974976
0.52964884 0.22751074 -0.0069829412
0.52963316 0.22845387 -0.0069909063
0.52961743 0.22939701 -0.0069988715
0.52960169 0.23034017 -0.0070068371
0.52958596 0.23128331 -0.0070148022
0.52876031 0.23262532 -0.0076236781
0.52874458 0.23357005 -0.0076316567
0.52872884 0.23451477 -0.0076396354
0.52871311 0.23545951 -0.007647614
0.52869731 0.23640423 -0.0076555926
0.52868158 0.23734897 -0.0076635713
0.52866584 0.23829372 -0.0076715499
0.52865005 0.23923844 -0.0076795286
0.52863431 0.24018319 -0.0076875077
0.52861857 0.24112791 -0.0076954858
0.52860278 0.24207266 -0.0077034649
0.52939725 0.24260098 -0.0071103848
0.52938151 0.24354412 -0.0071183499
0.52936578 0.24448726 -0.007126315
0.52935004 0.2454304 -0.0071342806
0.52933431 0.24637353 -0.0071422458
0.52931857 0.24731667 -0.0071502109
0.52930284 0.24825981 -0.007158176
0.52928716 0.24920295 -0.0071661412
0.52846104 0.25057524 -0.0077752727
0.52844524 0.25151998 -0.0077832513
0.52842951 0.25246468 -0.00779123
0.52841377 0.25340942 -0.0077992086
0.52758753 0.25478965 -0.0084083723
0.5275718 0.25573599 -0.0084163649
0.527556 0.25668231 -0.0084243566
0.52754021 0.25762865 -0.0084323492
0.52752441 0.25857496 -0.0084403409
0.52669805 0.25996476 -0.009049586
0.52668226 0.26091269 -0.0090575917
0.52666646 0.26186061 -0.0090655973
0.52665067 0.26280853 -0.009073603
0.52663481 0.26375642 -0.0090816077
0.52661902 0.26470435 -0.0090896143
0.52660322 0.26565227 -0.009097619
0.52658743 0.26660019 -0.0091056246
0.52657163 0.26754811 -0.0091136303
0.52655578 0.26849604 -0.0091216359
0.52653998 0.26944396 -0.0091296416
0.52652419 0.27039185 -0.0091376472
0.52650839 0.2713398 -0.0091456529
0.5264926 0.2722877 -0.0091536585
0.52647674 0.27323562 -0.0091616642
0.52646095 0.27418354 -0.0091696698
0.52644515 0.27513146 -0.0091776755
0.52642936 0.27607939 -0.0091856811
0.52641356 0.27702728 -0.0091936858
0.52720881 0.27750149 -0.0086001838
0.52719301 0.27844784 -0.0086081764
0.52717727 0.27939415 -0.0086161681
0.52716148 0.28034043 -0.0086241597
0.52714568 0.28128681 -0.0086321523
0.52712989 0.28223312 -0.008640145
0.52792537 0.28269613 -0.0080465479
0.52790964 0.28364089 -0.0080545265
0.5278939 0.2845856 -0.0080625052
0.52787811 0.28553039 -0.0080704838
0.52786237 0.28647509 -0.0080784624
0.52865803 0.28692853 -0.0074847504
0.5286423 0.28787169 -0.0074927155
0.52847362 -0.099297248 -0.010343881
0.52845764 -0.098339766 -0.010351968
0.52844167 -0.097382292 -0.010360055
0.52842569 -0.096424811 -0.01036814
0.52840972 -0.095467329 -0.010376227
0.52839375 -0.094509855 -0.010384313
0.52837777 -0.093552373 -0.0103924
0.52836186 -0.092594899 -0.010400486
0.52834588 -0.091637425 -0.010408572
0.52832991 -0.090679944 -0.010416659
0.52831393 -0.089722469 -0.010424745
0.52829796 -0.088764988 -0.010432831
0.52748209 -0.08794713 -0.011038518
0.52746612 -0.086988062 -0.011046617
0.52745008 -0.086028993 -0.011054717
0.52743411 -0.085069917 -0.011062817
0.52741814 -0.084110841 -0.011070917
0.52740216 -0.08315178 -0.011079017
0.52738613 -0.082192704 -0.011087117
0.52737015 -0.081233628 -0.011095216
0.52735418 -0.08027456 -0.011103316
0.52733815 -0.079315491 -0.011111416
0.52732217 -0.078356422 -0.011119516
0.52810639 -0.077275254 -0.010529867
0.52809042 -0.076317772 -0.010537953
0.52807444 -0.075360298 -0.01054604
0.52805847 -0.074402824 -0.010554126
0.5280425 -0.073445342 -0.010562212
0.52802652 -0.072487868 -0.010570299
0.52801055 -0.071530387 -0.010578385
0.52799457 -0.070572913 -0.010586471
0.52797866 -0.069615431 -0.010594557
0.52876306 -0.068550207 -0.01000481
0.52874714 -0.06759432 -0.010012884
0.52873117 -0.06663844 -0.010020956
0.52871525 -0.065682553 -0.010029029
0.52869928 -0.064726673 -0.010037102
0.52868336 -0.063770786 -0.010045175
0.52866739 -0.062814899 -0.010053247
0.52865148 -0.061859012 -0.010061321
0.52863556 -0.060903125 -0.010069394
0.52861959 -0.059947241 -0.010077466
0.52860367 -0.058991358 -0.010085539
0.5285877 -0.058035474 -0.010093612
0.52857178 -0.057079591 -0.010101684
0.52855581 -0.056123704 -0.010109758
0.5285399 -0.05516782 -0.010117831
0.52852398 -0.054211933 -0.010125903
0.52850801 -0.05325605 -0.010133976
0.52849209 -0.052300166 -0.010142049
0.52847612 -0.051344283 -0.010150122
0.5284602 -0.050388396 -0.010158195
0.52844423 -0.049432512 -0.010166268
0.52842832 -0.048476625 -0.010174341
0.5284124 -0.047520742 -0.010182413
0.52839643 -0.046564858 -0.010190486
0.52838051 -0.045608975 -0.010198559
0.52836454 -0.044653088 -0.010206632
0.52834862 -0.043697204 -0.010214705
0.52833265 -0.042741317 -0.010222778
0.52831674 -0.041785434 -0.01023085
0.52830082 -0.04082955 -0.010238923
0.52828485 -0.039873663 -0.010246996
0.52826893 -0.03891778 -0.010255069
0.52825296 -0.037961897 -0.010263142
0.52823704 -0.037006009 -0.010271215
0.52822107 -0.036050126 -0.010279288
0.52820516 -0.035094243 -0.01028736
0.52818924 -0.034138355 -0.010295433
0.52817327 -0.033182472 -0.010303507
0.52815735 -0.032226589 -0.010311579
0.52894282 -0.031225085 -0.009721294
0.52892691 -0.030270794 -0.0097293537
0.52891099 -0.029316502 -0.0097374124
0.52889508 -0.028362211 -0.0097454721
0.52887917 -0.02740792 -0.0097535318
0.52886325 -0.026453627 -0.0097615905
0.52884734 -0.025499336 -0.0097696502
0.52883142 -0.024545046 -0.0097777098
0.52961713 -0.023557881 -0.0091873035
0.52960128 -0.022605183 -0.0091953492
0.52958536 -0.021652484 -0.0092033949
0.52956951 -0.020699786 -0.0092114415
0.52955359 -0.019747088 -0.0092194872
0.52953768 -0.018794389 -0.0092275329
0.52952182 -0.017841691 -0.0092355795
0.52950591 -0.016888993 -0.0092436252
0.52949005 -0.015936295 -0.0092516709
0.52947414 -0.014983595 -0.0092597166
0.52945828 -0.014030897 -0.0092677632
0.52944237 -0.013078199 -0.0092758089
0.52942652 -0.0121255 -0.0092838546
0.5294106 -0.011172802 -0.0092919003
0.53019679 -0.010209534 -0.0087012565
0.53018093 -0.0092584295 -0.0087092891
0.53016508 -0.0083073229 -0.0087173218
0.52934706 -0.0073620076 -0.009324085
0.52933121 -0.0064093089 -0.0093321307
0.52931529 -0.0054566115 -0.0093401764
0.5301016 -0.0045029027 -0.0087494515
0.53008574 -0.0035517975 -0.0087574841
0.53006989 -0.002600692 -0.0087655168
0.53005403 -0.0016495876 -0.0087735485
0.53003818 -0.0006984814 -0.0087815812
0.53002232 0.00025262305 -0.0087896138
0.53000647 0.0012037293 -0.0087976465
0.52999061 0.0021548327 -0.0088056792
0.52997476 0.0031059401 -0.0088137118
0.52995884 0.0040570456 -0.0088217435
0.52994299 0.005008149 -0.0088297762
0.52992713 0.0059592542 -0.0088378089
0.52991128 0.0069103595 -0.0088458415
0.52989542 0.0078614652 -0.0088538742
0.52987957 0.00881257 -0.0088619068
0.52986372 0.0097636757 -0.0088699386
0.52984786 0.01071478 -0.0088779712
0.52983201 0.011665886 -0.0088860039
0.52981615 0.012616992 -0.0088940365
0.5298003 0.013568095 -0.0089020692
0.52978438 0.014519201 -0.0089101009
0.52976853 0.015470308 -0.0089181336
0.52975267 0.016421411 -0.0089261662
0.52973682 0.017372517 -0.0089341989
0.52972096 0.018323623 -0.0089422315
0.52970511 0.019274727 -0.0089502642
0.52968925 0.020225832 -0.0089582959
0.5296734 0.021176938 -0.0089663286
0.52965754 0.022128044 -0.0089743612
0.52964169 0.023079149 -0.0089823939
0.52962583 0.024030253 -0.0089904265
0.52960992 0.024981359 -0.0089984592
0.52959406 0.025932465 -0.0090064909
0.52957821 0.026883567 -0.0090145236
0.52956235 0.027834676 -0.0090225562
0.5295465 0.02878578 -0.0090305889
0.52953064 0.029736886 -0.0090386216
0.52951479 0.030687992 -0.0090466542
0.52949893 0.031639095 -0.0090546859
0.52948308 0.032590199 -0.0090627186
0.52946723 0.033541303 -0.0090707513
0.52945137 0.034492411 -0.0090787839
0.52943546 0.035443518 -0.0090868166
0.5294196 0.036394622 -0.0090948492
0.52940375 0.03734573 -0.009102881
0.52938789 0.03829683 -0.0091109136
0.52937204 0.039247938 -0.0091189463
0.53015959 0.040125176 -0.0085276114
0.53014374 0.041074686 -0.008535631
0.53012794 0.042024199 -0.0085436497
0.53011209 0.042973712 -0.0085516684
0.53009623 0.043923225 -0.008559688
0.53008044 0.044872735 -0.0085677067
0.53006458 0.045822252 -0.0085757263
0.53004879 0.046771761 -0.008583745
0.53003293 0.04772127 -0.0085917637
0.53001708 0.048670784 -0.0085997833
0.53000128 0.049620293 -0.008607802
0.52998543 0.050569814 -0.0086158207
0.52996957 0.051519323 -0.0086238403
0.52995378 0.052468836 -0.008631859
0.52913415 0.053514518 -0.0092394333
0.5291183 0.054465618 -0.009247466
0.52910244 0.055416726 -0.0092554986
0.52908653 0.056367829 -0.0092635313
0.52907068 0.057318937 -0.009271564
0.52905482 0.058270048 -0.0092795966
0.52903897 0.059221148 -0.0092876283
0.52902311 0.060172249 -0.009295661
0.52900726 0.06112336 -0.0093036937
0.5289914 0.062074468 -0.0093117263
0.52897555 0.063025571 -0.009319759
0.52895969 0.063976683 -0.0093277916
0.52894384 0.064927772 -0.0093358234
0.52892798 0.065878883 -0.009343856
0.52891207 0.066829987 -0.0093518887
0.52889621 0.067781091 -0.0093599213
0.52888036 0.068732195 -0.009367954
0.5288645 0.069683306 -0.0093759866
0.52884865 0.07063441 -0.0093840184
0.52883279 0.071585514 -0.009392051
0.52881694 0.072536625 -0.0094000837
0.52880108 0.073487729 -0.0094081163
0.52878523 0.074438833 -0.009416149
0.52876937 0.075389929 -0.0094241807
0.52875352 0.07634104 -0.0094322134
0.5287376 0.077292144 -0.009440246
0.52872175 0.078243248 -0.0094482787
0.52870589 0.079194359 -0.0094563114
0.52869004 0.080145456 -0.009464344
0.52786958 0.081238948 -0.010072358
0.52785373 0.082191646 -0.010080404
0.52783781 0.083144344 -0.01008845
0.5278219 0.084097035 -0.010096496
0.52780604 0.085049741 -0.010104542
0.52779013 0.086002439 -0.010112588
0.52696955 0.08710707 -0.01072066
0.52695364 0.088061355 -0.01072872
0.52693772 0.089015648 -0.010736779
0.52692181 0.089969948 -0.010744839
0.52690589 0.090924226 -0.010752898
0.52688998 0.091878526 -0.010760957
0.52687407 0.092832819 -0.010769017
0.52685815 0.093787104 -0.010777076
0.52684224 0.094741404 -0.010785135
0.52682632 0.095695689 -0.010793195
0.52681041 0.096649982 -0.010801255
0.52679449 0.097604275 -0.010809314
0.52677858 0.098558567 -0.010817373
0.52676266 0.09951286 -0.010825433
0.52674675 0.10046715 -0.010833493
0.52673084 0.10142145 -0.010841551
0.52671492 0.10237573 -0.010849611
0.52669901 0.10333002 -0.010857671
0.52668309 0.10428431 -0.010865729
0.52666718 0.10523861 -0.010873789
0.52665126 0.10619289 -0.010881849
0.52663535 0.10714719 -0.010889908
0.52661943 0.10810148 -0.010897967
0.52660352 0.10905577 -0.010906027
0.52658761 0.11001007 -0.010914086
0.52657169 0.11096435 -0.010922145
0.52655578 0.11191865 -0.010930205
0.52653986 0.11287294 -0.010938264
0.52652395 0.11382723 -0.010946324
0.52731353 0.11458339 -0.010353967
0.52729768 0.11553609 -0.010362012
0.52728176 0.11648879 -0.010370059
0.52726591 0.11744148 -0.010378105
0.52724999 0.11839419 -0.01038615
0.52723414 0.11934687 -0.010394196
0.52721822 0.12029958 -0.010402243
0.52720237 0.12125228 -0.010410288
0.52718645 0.12220498 -0.010418334
0.52717054 0.12315769 -0.01042638
0.52715468 0.12411038 -0.010434426
0.52713877 0.12506308 -0.010442472
0.52712291 0.12601577 -0.010450518
0.527107 0.12696847 -0.010458563
0.52709115 0.12792116 -0.01046661
0.52626938 0.1290959 -0.011075274
0.52625346 0.1300502 -0.011083334
0.52623755 0.13100448 -0.011091393
0.52622163 0.13195878 -0.011099452
0.52620572 0.13291305 -0.011107512
0.5261898 0.13386735 -0.011115571
0.52617389 0.13482165 -0.011123631
0.52615798 0.13577594 -0.01113169
0.52614206 0.13673022 -0.01113975
0.52612615 0.13768452 -0.011147809
0.52611023 0.13863881 -0.011155868
0.52609432 0.13959309 -0.011163928
0.5260784 0.14054739 -0.011171987
0.52606249 0.14150169 -0.011180047
0.52604657 0.14245597 -0.011188106
0.52683693 0.14316434 -0.010595345
0.52682108 0.14411704 -0.010603391
0.52680516 0.14506975 -0.010611437
0.52678931 0.14602242 -0.010619483
0.52677339 0.14697513 -0.010627529
0.52675748 0.14792784 -0.010635575
0.52674162 0.14888054 -0.010643621
0.52672571 0.14983323 -0.010651667
0.52670985 0.15078592 -0.010659712
0.52669394 0.15173863 -0.010667759
0.52667809 0.15269132 -0.010675805
0.52666217 0.15364403 -0.01068385
0.52664632 0.15459673 -0.010691897
0.5266304 0.15554942 -0.010699943
0.52661455 0.15650213 -0.010707988
0.52659863 0.1574548 -0.010716034
0.52658278 0.15840752 -0.010724081
0.52656686 0.15936022 -0.010732126
0.52655101 0.16031291 -0.010740172
0.5273419 0.16098942 -0.010147106
0.52732605 0.16194052 -0.010155139
0.52731019 0.16289161 -0.010163171
0.52729434 0.16384271 -0.010171204
0.52727848 0.16479382 -0.010179236
0.52806956 0.16546077 -0.0095861256
0.5280537 0.16641028 -0.0095941443
0.52803791 0.1673598 -0.009602163
0.52802205 0.16830932 -0.0096101826
0.5280062 0.16925882 -0.0096182013
0.5279904 0.17020833 -0.00962622
0.52878165 0.17086414 -0.0090330159
0.5287658 0.17181206 -0.0090410216
0.52875 0.17275997 -0.0090490263
0.52873421 0.1737079 -0.0090570319
0.52871841 0.1746558 -0.0090650376
0.52870262 0.17560372 -0.0090730432
0.52868676 0.17655163 -0.0090810489
0.52867097 0.17749956 -0.0090890545
0.52865517 0.17844748 -0.0090970602
0.52863938 0.17939539 -0.0091050658
0.52862358 0.18034332 -0.0091130715
0.52860773 0.18129125 -0.0091210771
0.52859193 0.18223916 -0.0091290828
0.52857614 0.18318707 -0.0091370884
0.52856034 0.18413499 -0.0091450941
0.52854455 0.18508291 -0.0091530997
0.52852869 0.18603082 -0.0091611044
0.5285129 0.18697874 -0.0091691101
0.5284971 0.18792668 -0.0091771157
0.5284813 0.18887459 -0.0091851214
0.52846551 0.18982251 -0.009193127
0.52844965 0.19077043 -0.0092011327
0.5292415 0.19138958 -0.0086076185
0.52922577 0.1923359 -0.0086156102
0.52920997 0.19328223 -0.0086236028
0.52919418 0.19422856 -0.0086315945
0.52917838 0.19517489 -0.0086395871
0.52997041 0.19578446 -0.00804599
0.52995467 0.19672921 -0.0080539696
0.52993894 0.19767395 -0.0080619482
0.52992314 0.19861867 -0.0080699269
0.52990741 0.1995634 -0.0080779055
0.53069961 0.20016342 -0.0074841944
0.53068388 0.20110656 -0.00749216
0.5306682 0.2020497 -0.0075001251
0.53065246 0.20299286 -0.0075080902
0.53063673 0.20393598 -0.0075160554
0.53062099 0.20487912 -0.0075240205
0.53060526 0.20582226 -0.0075319856
0.53058952 0.20676541 -0.0075399512
0.53057379 0.20770855 -0.0075479164
0.53055811 0.20865166 -0.0075558815
0.53054237 0.2095948 -0.0075638467
0.53052664 0.21053796 -0.0075718118
0.5305109 0.21148109 -0.0075797774
0.53049517 0.21242423 -0.0075877425
0.53047943 0.21336737 -0.0075957077
0.5304637 0.21431051 -0.0076036728
0.53044802 0.21525365 -0.0076116379
0.53043228 0.21619679 -0.0076196031
