# .PCD v0.7 - Point Cloud Data file format
VERSION 0.7
FIELDS x y z
SIZE 4 4 4
TYPE F F F
COUNT 1 1 1
WIDTH 1354
HEIGHT 1
VIEWPOINT 0 0 0 1 0 0 0
POINTS 1354
DATA ascii
0.32500863 0.088183351 -0.016300172
0.3250002 0.089354351 -0.016317751
0.32499176 0.090525351 -0.016335331
0.32498333 0.091696352 -0.016352911
0.32497492 0.092867352 -0.01637049
0.32496649 0.09403836 -0.016388068
0.32495806 0.09520936 -0.016405648
0.32494965 0.09638036 -0.016423227
0.32494122 0.097551353 -0.016440807
0.32493278 0.098722361 -0.016458385
0.32492435 0.099893361 -0.016475964
0.32491595 0.10106436 -0.016493544
0.32490751 0.10223536 -0.016511124
0.32489908 0.10340635 -0.016528701
0.32489067 0.10457737 -0.016546281
0.32488224 0.10574837 -0.016563861
0.32487381 0.10691936 -0.01658144
0.32486537 0.10809037 -0.01659902
0.32485697 0.10926137 -0.016616598
0.32484853 0.11043237 -0.016634177
0.32394323 0.11172664 -0.017132929
0.32393479 0.11289924 -0.017150532
0.32392636 0.11407183 -0.017168134
0.32391793 0.11524443 -0.017185738
0.32390949 0.11641703 -0.017203342
0.32390106 0.11758962 -0.017220944
0.32389262 0.11876222 -0.017238548
0.32388419 0.1199348 -0.01725615
0.32387576 0.12110741 -0.017273754
0.32386732 0.12227999 -0.017291358
0.32385886 0.12345259 -0.01730896
0.32385042 0.12462519 -0.017326564
0.32384199 0.12579778 -0.017344167
0.32383355 0.12697038 -0.017361769
0.32382512 0.12814297 -0.017379373
0.32381669 0.12931556 -0.017396975
0.3247053 0.13033938 -0.016933024
0.32469687 0.13151039 -0.016950604
0.32468843 0.13268138 -0.016968183
0.32468003 0.13385239 -0.016985763
0.3246716 0.1350234 -0.017003341
0.32466316 0.13619438 -0.01702092
0.32465476 0.13736539 -0.0170385
0.32464632 0.13853639 -0.01705608
0.32463789 0.1397074 -0.017073657
0.32462946 0.14087839 -0.017091237
0.32551813 0.14188471 -0.016627036
0.32550973 0.14305413 -0.016644591
0.32550132 0.14422353 -0.016662147
0.32549289 0.14539292 -0.016679702
0.32548448 0.14656234 -0.016697258
0.32547608 0.14773174 -0.016714813
0.32457048 0.1490754 -0.017214293
0.32456207 0.15024641 -0.01723187
0.32455364 0.15141742 -0.01724945
0.3245452 0.15258841 -0.01726703
0.32453677 0.15375941 -0.017284609
0.32452837 0.1549304 -0.017302187
0.32451993 0.15610141 -0.017319767
0.3245115 0.1572724 -0.017337346
0.32450309 0.15844341 -0.017354926
0.32449466 0.15961441 -0.017372504
0.32448623 0.16078542 -0.017390084
0.32447779 0.16195643 -0.017407663
0.32446939 0.16312742 -0.017425243
0.32446095 0.16429842 -0.017442822
0.32445252 0.16546941 -0.0174604
0.32444412 0.16664042 -0.01747798
0.32533303 0.16761169 -0.017013254
0.32532462 0.16878109 -0.017030809
0.32531619 0.1699505 -0.017048365
0.32530779 0.1711199 -0.017065918
0.32529938 0.17228931 -0.017083474
0.32529095 0.17345871 -0.017101029
0.32617998 0.17441884 -0.016636146
0.32617158 0.17558664 -0.016653677
0.32616317 0.17675446 -0.016671209
0.32615477 0.17792226 -0.01668874
0.32614636 0.17909008 -0.016706273
0.32613796 0.1802579 -0.016723804
0.32612956 0.18142571 -0.016741335
0.32612115 0.18259354 -0.016758867
0.32611275 0.18376134 -0.016776398
0.32700187 0.18470551 -0.016311264
0.32699347 0.18587174 -0.016328771
0.32698509 0.18703797 -0.01634628
0.32697669 0.1882042 -0.016363787
0.32696831 0.18937041 -0.016381294
0.32695991 0.19053663 -0.016398801
0.32695153 0.19170284 -0.016416309
0.32694313 0.19286907 -0.016433816
0.3278324 0.1937989 -0.015968442
0.32782403 0.19496351 -0.015985925
0.32781565 0.19612814 -0.016003409
0.32780728 0.19729279 -0.016020892
0.3277989 0.1984574 -0.016038375
0.3277905 0.19962204 -0.01605586
0.32778212 0.20078665 -0.016073342
0.32867146 0.20170376 -0.015607814
0.32866308 0.20286679 -0.015625274
0.32865471 0.20402981 -0.015642734
0.32864636 0.20519285 -0.015660193
0.32863799 0.2063559 -0.015677653
0.32862961 0.20751894 -0.015695112
0.32862124 0.20868196 -0.015712572
0.32861286 0.20984501 -0.015730033
0.32950228 0.21074775 -0.015264276
0.32949394 0.21190919 -0.015281712
0.3294856 0.21307063 -0.015299147
0.32947722 0.21423209 -0.015316583
0.32946888 0.21539351 -0.015334019
0.3294605 0.21655495 -0.015351455
0.32945216 0.21771641 -0.01536889
0.32944378 0.21887785 -0.015386326
0.32943544 0.22003929 -0.015403762
0.32942709 0.22120072 -0.015421197
0.32941872 0.22236218 -0.015438633
0.32941037 0.2235236 -0.015456068
0.329402 0.22468506 -0.015473505
0.32939366 0.22584651 -0.015490941
0.32938531 0.22700794 -0.015508376
0.32937694 0.22816937 -0.015525811
0.32847062 0.22961658 -0.016026845
0.32846224 0.23077965 -0.016044306
0.32845387 0.23194267 -0.016061764
0.32844552 0.23310569 -0.016079225
0.32843715 0.23426874 -0.016096683
0.32842878 0.23543176 -0.016114144
0.3284204 0.23659481 -0.016131602
0.32841203 0.23775783 -0.016149063
0.32840368 0.23892088 -0.016166523
0.32839531 0.2400839 -0.016183982
0.32838693 0.24124694 -0.016201442
0.32837856 0.24241 -0.016218901
0.32837018 0.24357302 -0.016236361
0.32836184 0.24473605 -0.01625382
0.32835346 0.24589908 -0.01627128
0.32834509 0.24706212 -0.016288741
0.32833672 0.24822515 -0.016306199
0.32832834 0.24938819 -0.01632366
0.32832 0.25055122 -0.016341118
0.3292098 0.25139824 -0.015874526
0.32920146 0.25255966 -0.015891962
0.32919309 0.25372109 -0.015909398
0.32918474 0.25488254 -0.015926834
0.32917637 0.256044 -0.015944269
0.32916802 0.25720543 -0.015961705
0.32915968 0.25836685 -0.015979141
0.3291513 0.25952831 -0.015996575
0.32914296 0.26068974 -0.016014012
0.32913458 0.26185119 -0.016031448
0.32912624 0.26301265 -0.016048884
0.32821956 0.26450765 -0.016550634
0.32821119 0.26567069 -0.016568094
0.32820284 0.26683372 -0.016585553
0.32819447 0.26799676 -0.016603014
0.32818609 0.26915979 -0.016620472
0.32727936 0.27066433 -0.017122356
0.32727095 0.27182901 -0.017139839
0.32726258 0.27299359 -0.017157324
0.32725421 0.27415824 -0.017174806
0.32724583 0.27532288 -0.017192289
0.32813588 0.27613798 -0.016725231
0.3281275 0.27730104 -0.016742691
0.32811916 0.27846408 -0.01676015
0.32811078 0.27962711 -0.01677761
0.32810241 0.28079015 -0.016795069
0.32809404 0.28195316 -0.016812529
0.32808566 0.28311619 -0.016829988
0.32897583 0.28391859 -0.016362727
0.32896745 0.28508005 -0.016380161
0.32806057 0.2866053 -0.016882367
0.32805219 0.28776833 -0.016899828
0.32804382 0.2889314 -0.016917286
0.32803547 0.29009444 -0.016934747
0.3280271 0.29125744 -0.016952205
0.32801872 0.29242051 -0.016969666
0.32801035 0.29358351 -0.016987124
0.32800198 0.29474655 -0.017004585
0.32799363 0.29590958 -0.017022043
0.32798526 0.29707262 -0.017039504
0.32707822 0.29861543 -0.017541962
0.32706985 0.29978007 -0.017559445
0.32706147 0.30094469 -0.017576929
0.3270531 0.30210933 -0.017594412
0.32704473 0.30327395 -0.017611895
0.32703632 0.30443856 -0.017629379
0.32702795 0.30560321 -0.017646862
0.32701957 0.30676782 -0.017664347
0.32790995 0.30753991 -0.01719664
0.32790157 0.30870298 -0.017214101
0.3278932 0.30986601 -0.017231559
0.32788482 0.31102905 -0.01724902
0.32787648 0.31219208 -0.017266478
0.32876688 0.31295463 -0.016798619
0.32875854 0.31411609 -0.016816055
0.32875019 0.31527752 -0.01683349
0.32874182 0.31643897 -0.016850926
0.32873347 0.3176004 -0.016868362
0.32962397 0.31835341 -0.016400369
0.32961562 0.31951323 -0.016417781
0.32960728 0.32067311 -0.016435193
0.32959893 0.32183293 -0.016452605
0.32959059 0.3229928 -0.016470017
0.32958224 0.32415268 -0.016487429
0.3295739 0.3253125 -0.016504841
0.32956555 0.32647234 -0.016522253
0.33045614 0.32721099 -0.016054032
0.33044782 0.32836926 -0.01607142
0.33043948 0.3295275 -0.01608881
0.33133018 0.33025977 -0.015620468
0.33132187 0.3314164 -0.015637832
0.33131355 0.33257309 -0.015655197
0.32887045 -0.098858342 -0.01345006
0.32886204 -0.097690538 -0.013467591
0.32885367 -0.096522719 -0.013485122
0.32884526 -0.0953549 -0.013502655
0.32883686 -0.094187088 -0.013520186
0.32882845 -0.093019269 -0.013537717
0.32882005 -0.091851465 -0.013555248
0.32881165 -0.090683639 -0.013572779
0.32880324 -0.089515828 -0.013590311
0.32879484 -0.088348016 -0.013607843
0.32878643 -0.087180197 -0.013625374
0.32788414 -0.08615838 -0.01412126
0.32787573 -0.084988967 -0.014138816
0.32786733 -0.083819561 -0.014156371
0.3278589 -0.082650147 -0.014173927
0.32785049 -0.081480749 -0.014191482
0.32694814 -0.080449358 -0.014687524
0.32693973 -0.079278357 -0.014705104
0.3269313 -0.078107357 -0.014722683
0.32692286 -0.076936364 -0.014740262
0.32602039 -0.075897016 -0.015236437
0.32601196 -0.074724421 -0.01525404
0.32600352 -0.073551826 -0.015271643
0.32599509 -0.072379231 -0.015289246
0.32598665 -0.071206644 -0.01530685
0.32597822 -0.070034042 -0.015324453
0.32596979 -0.068861447 -0.015342056
0.32596135 -0.06768886 -0.015359659
0.32595289 -0.066516265 -0.015377262
0.32594445 -0.065343671 -0.015394866
0.32593602 -0.064171068 -0.015412468
0.32592759 -0.062998474 -0.015430071
0.32591915 -0.061825886 -0.015447674
0.32591072 -0.060653292 -0.015465278
0.32590228 -0.059480693 -0.015482881
0.32589385 -0.058308106 -0.015500484
0.32677963 -0.057029344 -0.015039109
0.3267712 -0.055858333 -0.015056687
0.32676277 -0.05468734 -0.015074267
0.32675436 -0.053516336 -0.015091846
0.32674593 -0.052345335 -0.015109425
0.32673749 -0.051174335 -0.015127005
0.32672909 -0.050003335 -0.015144584
0.32672065 -0.048832335 -0.015162163
0.32671222 -0.047661334 -0.015179742
0.32670379 -0.04649033 -0.015197322
0.32758966 -0.0452291 -0.014735697
0.32758123 -0.044059694 -0.014753251
0.32667851 -0.042977326 -0.015250059
0.32667011 -0.041806329 -0.015267638
0.32666168 -0.040635329 -0.015285217
0.32665324 -0.039464325 -0.015302797
0.32753918 -0.038212657 -0.014841028
0.3266364 -0.03712232 -0.015337955
0.32662797 -0.03595132 -0.015355535
0.32661954 -0.03478032 -0.015373114
0.32661113 -0.033609319 -0.015390693
0.3266027 -0.032438319 -0.015408272
0.32659426 -0.031267319 -0.015425852
0.32658583 -0.030096317 -0.01544343
0.32568291 -0.028993243 -0.015940562
0.32567447 -0.02782065 -0.015958166
0.32566604 -0.026648058 -0.01597577
0.32565761 -0.025475461 -0.015993372
0.32564917 -0.024302864 -0.016010975
0.32564074 -0.023130273 -0.016028577
0.3256323 -0.021957681 -0.016046181
0.32651845 -0.020728309 -0.015584065
0.32651001 -0.019557308 -0.015601643
0.32650158 -0.018386306 -0.015619223
0.32649317 -0.017215304 -0.015636802
0.32648474 -0.016044304 -0.015654381
0.32737088 -0.014824497 -0.015192134
0.32736248 -0.013655091 -0.01520969
0.32735404 -0.012485679 -0.015227245
0.32734564 -0.011316273 -0.015244801
0.32733724 -0.010146866 -0.015262355
0.3273288 -0.0089774579 -0.015279911
0.3273204 -0.0078080501 -0.015297466
0.32731199 -0.0066386424 -0.015315021
0.32730356 -0.0054692347 -0.015332577
0.32729515 -0.004299826 -0.015350132
0.32728675 -0.0031304189 -0.015367688
0.32638362 -0.001992292 -0.015865332
0.32637519 -0.00082129193 -0.015882911
0.32636678 0.00034970907 -0.015900491
0.32635835 0.0015207101 -0.015918069
0.32634991 0.0026917111 -0.015935648
0.32634151 0.0038627121 -0.015953228
0.32633308 0.0050337133 -0.015970808
0.32632464 0.0062047145 -0.015988387
0.32631621 0.0073757158 -0.016005965
0.3263078 0.0085467165 -0.016023545
0.3254045 0.0097023668 -0.016521467
0.32539606 0.010874962 -0.016539069
0.32628253 0.012059719 -0.016076282
0.32537919 0.01322015 -0.016574275
0.32537073 0.014392744 -0.016591879
0.32536229 0.015565339 -0.016609482
0.32535386 0.016737932 -0.016627084
0.32534543 0.017910527 -0.016644688
0.32533699 0.019083122 -0.01666229
0.32443365 0.020254703 -0.017160438
0.32442519 0.021428892 -0.017178064
0.32441676 0.022603078 -0.017195692
0.32351333 0.023781035 -0.017693924
0.32350487 0.024956815 -0.017711574
0.3234964 0.026132597 -0.017729225
0.32348797 0.027308377 -0.017746875
0.3234795 0.028484158 -0.017764527
0.32347104 0.029659936 -0.017782178
0.32346258 0.03083572 -0.017799828
0.32345411 0.032011498 -0.01781748
0.3243407 0.033170767 -0.017354336
0.32433227 0.034344953 -0.017371962
0.3243238 0.035519142 -0.01738959
0.32521045 0.036672033 -0.016926339
0.32520199 0.037844628 -0.016943941
0.32519355 0.039017227 -0.016961545
0.32608029 0.040163744 -0.016498184
0.32607189 0.041334745 -0.016515763
0.32606345 0.042505745 -0.016533341
0.32695016 0.043645896 -0.0160699
0.32694176 0.044815302 -0.016087454
0.32693335 0.045984708 -0.016105009
0.32692492 0.047154117 -0.016122565
0.32691652 0.048323527 -0.01614012
0.32690811 0.049492933 -0.016157676
0.32689968 0.050662339 -0.016175231
0.32689127 0.051831748 -0.016192786
0.32598764 0.053044755 -0.016691554
0.3259792 0.054215759 -0.016709134
0.32597077 0.055386756 -0.016726714
0.32596233 0.056557756 -0.016744293
0.32595393 0.05772876 -0.016761873
0.3259455 0.058899757 -0.016779451
0.32593706 0.060070761 -0.01679703
0.32592863 0.061241761 -0.01681461
0.32592022 0.062412761 -0.01683219
0.32591179 0.063583769 -0.016849767
0.32590336 0.064754769 -0.016867347
0.32589495 0.06592577 -0.016884927
0.32588652 0.06709677 -0.016902506
0.32587808 0.068267763 -0.016920084
0.32586965 0.06943877 -0.016937664
0.32675666 0.070542268 -0.016473671
0.32674822 0.071711682 -0.016491227
0.32673982 0.072881088 -0.016508782
0.32673141 0.074050501 -0.016526338
0.32672298 0.075219907 -0.016543893
0.32671458 0.076389313 -0.016561449
0.32760164 0.077481665 -0.0160973
0.32759324 0.078649476 -0.016114831
0.32758483 0.079817295 -0.016132362
0.32757643 0.080985107 -0.016149893
0.32756805 0.082152925 -0.016167425
0.32755965 0.083320744 -0.016184956
0.32755125 0.084488556 -0.016202487
0.32754284 0.085656367 -0.016220018
0.32753444 0.086824179 -0.016237549
0.32752603 0.087991998 -0.016255081
0.32751763 0.089159809 -0.016272614
0.32750922 0.090327621 -0.016290145
0.32750082 0.091495447 -0.016307676
0.32749242 0.092663258 -0.016325207
0.32748401 0.09383107 -0.016342739
0.32747561 0.094998881 -0.01636027
0.3274672 0.0961667 -0.016377801
0.3274588 0.097334512 -0.016395332
0.32745039 0.09850233 -0.016412864
0.32744199 0.099670142 -0.016430395
0.32743359 0.10083796 -0.016447928
0.32742518 0.10200577 -0.016465459
0.32741678 0.10317358 -0.01648299
0.3274084 0.10434141 -0.016500521
0.3274 0.10550922 -0.016518053
0.32739159 0.10667703 -0.016535584
0.32738319 0.10784484 -0.016553115
0.32737479 0.10901266 -0.016570646
0.32647055 0.11030214 -0.017070552
0.32646215 0.11147155 -0.017088108
0.32645375 0.11264095 -0.017105661
0.32644531 0.11381035 -0.017123217
0.32643691 0.11497977 -0.017140772
0.3264285 0.11614919 -0.017158328
0.32642007 0.11731859 -0.017175883
0.32641166 0.118488 -0.017193438
0.32640326 0.1196574 -0.017210994
0.32639483 0.12082681 -0.017228549
0.32638642 0.12199622 -0.017246105
0.32637802 0.12316562 -0.01726366
0.32636958 0.12433504 -0.017281216
0.32636118 0.12550443 -0.017298771
0.32635278 0.12667386 -0.017316326
0.32634434 0.12784326 -0.017333882
0.32633594 0.12901267 -0.017351437
0.32632753 0.13018207 -0.017368991
0.3263191 0.13135149 -0.017386546
0.32631069 0.13252088 -0.017404102
0.32719833 0.13353677 -0.016938806
0.32718992 0.13470459 -0.016956337
0.32718152 0.13587239 -0.016973868
0.32717311 0.13704021 -0.016991399
0.32716471 0.13820803 -0.01700893
0.32715631 0.13937585 -0.017026464
0.3271479 0.14054365 -0.017043995
0.3271395 0.14171147 -0.017061526
0.32713109 0.14287928 -0.017079057
0.32712269 0.14404711 -0.017096588
0.32711428 0.14521493 -0.01711412
0.32710588 0.14638273 -0.017131651
0.32709748 0.14755055 -0.017149182
0.3270891 0.14871836 -0.017166713
0.3270807 0.14988618 -0.017184244
0.32707229 0.15105399 -0.017201778
0.32706389 0.15222181 -0.017219309
0.32705548 0.15338963 -0.01723684
0.32704708 0.15455744 -0.017254371
0.32703868 0.15572526 -0.017271902
0.32703027 0.15689306 -0.017289434
0.32702187 0.15806088 -0.017306965
0.32701346 0.15922868 -0.017324496
0.32700506 0.16039652 -0.017342027
0.32699665 0.16156434 -0.017359558
0.32698825 0.16273214 -0.01737709
0.32697985 0.16389996 -0.017394621
0.32697144 0.16506776 -0.017412152
0.32696304 0.16623558 -0.017429685
0.32695463 0.16740339 -0.017447216
0.32784262 0.16836989 -0.016981166
0.32783422 0.16953611 -0.016998673
0.32782584 0.17070232 -0.017016182
0.32781744 0.17186855 -0.017033689
0.32780904 0.17303477 -0.017051196
0.32780066 0.174201 -0.017068703
0.32779226 0.17536722 -0.017086212
0.32778388 0.17653345 -0.017103719
0.32777548 0.17769966 -0.017121226
0.3277671 0.17886588 -0.017138733
0.32865524 0.17981483 -0.016672406
0.32864687 0.18097948 -0.016689891
0.32863849 0.18214411 -0.016707374
0.32863012 0.18330872 -0.016724857
0.32951826 0.18424971 -0.016258424
0.32950991 0.18541275 -0.016275885
0.32950154 0.1865758 -0.016293345
0.32949317 0.18773884 -0.016310804
0.32948479 0.18890186 -0.016328264
0.32947642 0.19006489 -0.016345723
0.33036467 0.19099475 -0.015879136
0.3303563 0.1921562 -0.01589657
0.33034796 0.19331764 -0.015914006
0.33033961 0.19447906 -0.015931442
0.33033124 0.1956405 -0.015948879
0.33032289 0.19680198 -0.015966313
0.33121121 0.19772065 -0.015499546
0.33120286 0.19888049 -0.015516958
0.33119452 0.20004034 -0.015534369
0.33118618 0.2012002 -0.015551781
0.33117783 0.20236005 -0.015569193
0.33116949 0.20351988 -0.015586605
0.33116114 0.20467974 -0.015604017
0.3311528 0.2058396 -0.015621429
0.33114445 0.20699944 -0.015638841
0.33113611 0.20815928 -0.015656251
0.33202454 0.20906048 -0.015189234
0.3320162 0.21021871 -0.015206622
0.33200788 0.21137697 -0.01522401
0.33199954 0.21253522 -0.015241398
0.3319912 0.21369348 -0.015258785
0.33198288 0.21485174 -0.015276173
0.33197454 0.21600997 -0.015293561
0.33196619 0.21716827 -0.015310949
0.33195788 0.21832651 -0.015328337
0.33194953 0.21948476 -0.015345724
0.33194122 0.220643 -0.015363112
0.33193287 0.22180127 -0.015380501
0.33192453 0.22295953 -0.015397889
0.33191621 0.22411777 -0.015415276
0.33190787 0.22527604 -0.015432664
0.33189952 0.22643429 -0.015450052
0.33189121 0.22759256 -0.01546744
0.33098587 0.22903655 -0.015969664
0.33097753 0.23019642 -0.015987076
0.33096918 0.23135625 -0.016004488
0.33096084 0.23251611 -0.0160219
0.3309525 0.23367597 -0.016039312
0.33094415 0.2348358 -0.016056724
0.33093581 0.23599565 -0.016074136
0.33092746 0.2371555 -0.016091548
0.33091912 0.23831536 -0.01610896
0.33091077 0.23947521 -0.01612637
0.33090243 0.24063504 -0.016143782
0.33089408 0.2417949 -0.016161194
0.33088574 0.24295476 -0.016178606
0.33087739 0.24411459 -0.016196018
0.33086905 0.24527444 -0.01621343
0.3308607 0.2464343 -0.016230842
0.33085236 0.24759413 -0.016248254
0.33174118 0.24844114 -0.015780421
0.33173287 0.2495994 -0.015797809
0.33172452 0.25075766 -0.015815198
0.33171618 0.2519159 -0.015832584
0.33260512 0.25275493 -0.015364597
0.33259681 0.25391161 -0.015381961
0.33258849 0.25506827 -0.015399325
0.33258018 0.2562249 -0.015416688
0.33167452 0.25770718 -0.015919525
0.33166617 0.25886545 -0.015936913
0.33165786 0.26002371 -0.015954301
0.33164951 0.26118195 -0.015971689
0.33074385 0.26267219 -0.016474606
0.3307355 0.26383203 -0.016492018
0.33072716 0.26499188 -0.01650943
0.33071882 0.2661517 -0.016526842
0.33071047 0.26731157 -0.016544254
0.33070213 0.26847142 -0.016561667
0.3297964 0.2699728 -0.017064763
0.32978806 0.27113423 -0.017082199
0.32977968 0.27229568 -0.017099636
0.32977134 0.27345711 -0.01711707
0.32976297 0.27461854 -0.017134506
0.32975462 0.27578002 -0.017151942
0.33064371 0.27659038 -0.016683549
0.33063537 0.27775022 -0.016700961
0.33062702 0.27891007 -0.016718373
0.33061868 0.28006992 -0.016735785
0.33061033 0.28122973 -0.016753195
0.33060199 0.28238958 -0.016770607
0.33059365 0.28354946 -0.016788019
0.3305853 0.2847093 -0.016805431
0.33057696 0.28586915 -0.016822843
0.33056861 0.28702897 -0.016840255
0.33056027 0.28818884 -0.016857667
0.33055192 0.28934869 -0.016875079
0.33054358 0.29050854 -0.016892491
0.33053523 0.29166842 -0.016909903
0.33052689 0.29282823 -0.016927313
0.33051854 0.29398808 -0.016944725
0.3305102 0.29514793 -0.016962137
0.33050185 0.29630777 -0.016979549
0.32959583 0.29784739 -0.017483221
0.33048517 0.29862747 -0.017014373
0.33047682 0.29978734 -0.017031785
0.33046848 0.30094719 -0.017049197
0.33046013 0.30210701 -0.017066607
0.33045179 0.30326688 -0.017084019
0.33044344 0.30442676 -0.017101431
0.33043507 0.30558658 -0.017118843
0.33042672 0.30674642 -0.017136255
0.33041838 0.30790627 -0.017153667
0.33041003 0.30906612 -0.017171079
0.33040169 0.31022599 -0.017188491
0.33129117 0.31098694 -0.016719367
0.33128282 0.3121452 -0.016736755
0.33127448 0.31330344 -0.016754143
0.33126616 0.31446171 -0.016771531
0.33125782 0.31561998 -0.016788919
0.33124948 0.31677821 -0.016806306
0.33213907 0.31752801 -0.016336977
0.33213076 0.31868467 -0.016354343
0.33212242 0.31984136 -0.016371707
0.3321141 0.32099801 -0.01638907
0.33210579 0.32215464 -0.016406434
0.33209747 0.32331133 -0.016423799
0.33208913 0.32446799 -0.016441163
0.33208081 0.32562464 -0.016458526
0.33297047 0.32636014 -0.01598902
0.33296216 0.32751518 -0.01600636
0.33295384 0.32867026 -0.016023701
0.33294553 0.32982534 -0.01604104
0.33383521 0.33055285 -0.015571403
0.33472493 0.33127719 -0.01510173
0.33471665 0.33242908 -0.015119022
0.33049586 -0.099869587 -0.013869467
0.33138031 -0.098539829 -0.013407606
0.33137193 -0.097375199 -0.013425089
0.33136356 -0.096210569 -0.013442573
0.33046231 -0.095204689 -0.013939497
0.33134678 -0.093881316 -0.013477541
0.33133841 -0.092716686 -0.013495023
0.33133003 -0.091552056 -0.013512507
0.33132166 -0.090387426 -0.013529991
0.33042035 -0.089373596 -0.014027034
0.33041197 -0.088207372 -0.014044542
0.33040357 -0.08704114 -0.014062049
0.33039519 -0.08587493 -0.014079557
0.33038679 -0.084708706 -0.014097064
0.33037838 -0.083542481 -0.014114572
0.33037001 -0.082376257 -0.014132079
0.3294687 -0.081349671 -0.0146293
0.32946029 -0.080181859 -0.014646832
0.32945189 -0.079014041 -0.014664363
0.32944348 -0.077846222 -0.014681894
0.32854208 -0.076811664 -0.015179223
0.32853368 -0.075642265 -0.015196779
0.32852525 -0.074472852 -0.015214334
0.32851684 -0.073303439 -0.01523189
0.32850844 -0.072134033 -0.015249444
0.3285 -0.070964627 -0.015267
0.3284916 -0.069795221 -0.015284555
0.32848319 -0.068625808 -0.01530211
0.3275817 -0.067576922 -0.015799655
0.32846636 -0.066287003 -0.015337221
0.32845795 -0.06511759 -0.015354777
0.32844952 -0.063948177 -0.015372331
0.32844111 -0.062778771 -0.015389887
0.32843271 -0.061609365 -0.015407442
0.32842427 -0.060439955 -0.015424998
0.32841587 -0.05927055 -0.015442553
0.32840747 -0.05810114 -0.015460108
0.32929224 -0.056825563 -0.014997459
0.32928383 -0.055657744 -0.01501499
0.32927543 -0.054489929 -0.015032522
0.32926702 -0.053322114 -0.015050054
0.32925862 -0.052154303 -0.015067585
0.32925022 -0.050986487 -0.015085116
0.32924181 -0.049818676 -0.015102647
0.32923341 -0.048650861 -0.015120178
0.329225 -0.047483049 -0.015137711
0.3292166 -0.046315227 -0.015155242
0.33010149 -0.045057174 -0.014692318
0.33009309 -0.043890949 -0.014709826
0.32919139 -0.042811785 -0.015207835
0.32918298 -0.041643973 -0.015225368
0.32917458 -0.040476158 -0.015242899
0.32916617 -0.039308347 -0.01526043
0.32915777 -0.038140528 -0.015277961
0.3291494 -0.036972709 -0.015295492
0.32914099 -0.035804898 -0.015313024
0.32913259 -0.034637082 -0.015330556
0.32912418 -0.033469271 -0.015348087
0.32911578 -0.032301452 -0.015365618
0.32821393 -0.031204762 -0.015863881
0.32820553 -0.030035354 -0.015881436
0.32819709 -0.028865946 -0.015898991
0.32818869 -0.027696539 -0.015916547
0.32818028 -0.026527131 -0.015934102
0.32817185 -0.025357723 -0.015951656
0.32816344 -0.024188315 -0.015969211
0.32815504 -0.023018908 -0.015986767
0.32814661 -0.0218495 -0.016004322
0.3281382 -0.020680089 -0.016021878
0.32902333 -0.019455492 -0.015558464
0.32901493 -0.018287679 -0.015575995
0.32900652 -0.017119862 -0.015593526
0.32899812 -0.015952049 -0.015611058
0.32898974 -0.014784235 -0.015628589
0.32987493 -0.013569196 -0.01516502
0.32986653 -0.012402971 -0.015182527
0.32985815 -0.011236751 -0.015200035
0.32984975 -0.010070531 -0.015217542
0.32984135 -0.0089043071 -0.01523505
0.32983297 -0.0077380878 -0.015252557
0.32982457 -0.0065718647 -0.015270065
0.32981619 -0.0054056435 -0.015287572
0.32980779 -0.0042394223 -0.01530508
0.3289057 -0.0031060879 -0.015803903
0.3288973 -0.0019382725 -0.015821435
0.32888889 -0.00077045895 -0.015838966
0.32888049 0.00039735553 -0.015856497
0.32887208 0.0015651709 -0.015874028
0.32886368 0.0027329854 -0.015891559
0.32885528 0.0039007999 -0.015909091
0.32884687 0.0050686146 -0.015926622
0.32883847 0.0062364293 -0.015944155
0.32883009 0.007404244 -0.015961686
0.32882169 0.0085720588 -0.015979217
0.32881328 0.009739873 -0.015996749
0.32880488 0.010907688 -0.01601428
0.32879648 0.012075502 -0.016031811
0.32878807 0.013243318 -0.016049342
0.32788578 0.014402144 -0.016548537
0.32787737 0.015571551 -0.016566092
0.32786897 0.016740959 -0.016583648
0.32786053 0.017910367 -0.016601203
0.32785213 0.019079775 -0.016618758
0.32784373 0.020249182 -0.016636314
0.32694134 0.02141916 -0.017135676
0.32693294 0.02259016 -0.017153254
0.32603049 0.023764919 -0.017652726
0.32602203 0.024937512 -0.017670328
0.32601359 0.026110109 -0.017687932
0.32600516 0.027282702 -0.017705536
0.32599673 0.028455297 -0.017723138
0.32598829 0.029627889 -0.017740741
0.32597986 0.030800484 -0.017758343
0.32597142 0.031973079 -0.017775947
0.32596299 0.033145674 -0.017793551
0.32684866 0.034300171 -0.017329047
0.32684025 0.035471171 -0.017346626
0.32772592 0.036620893 -0.016882088
0.32771751 0.037790298 -0.016899643
0.32770908 0.038959708 -0.016917199
0.3285948 0.040103056 -0.016452564
0.3285864 0.041270867 -0.016470095
0.328578 0.042438682 -0.016487626
0.32856959 0.043606497 -0.016505158
0.32945538 0.04474188 -0.016040392
0.32944697 0.045908101 -0.016057901
0.32943857 0.047074322 -0.016075408
0.32943019 0.048240546 -0.016092915
0.32942179 0.049406763 -0.016110422
0.32941341 0.050572984 -0.016127931
0.32851079 0.051781196 -0.016627878
0.32850239 0.052949015 -0.016645409
0.32849398 0.05411683 -0.01666294
0.32848558 0.055284645 -0.016680472
0.32847717 0.056452461 -0.016698003
0.32846877 0.057620272 -0.016715534
0.32846037 0.058788091 -0.016733067
0.32845196 0.059955902 -0.016750598
0.32844356 0.061123718 -0.01676813
0.32843515 0.062291529 -0.016785661
0.32842675 0.063459352 -0.016803192
0.32841834 0.064627163 -0.016820723
0.32840994 0.065794982 -0.016838254
0.32840154 0.066962793 -0.016855786
0.32839313 0.068130605 -0.016873317
0.32838473 0.069298416 -0.016890848
0.32927075 0.070398748 -0.016425557
0.32926238 0.071564972 -0.016443064
0.32925397 0.072731197 -0.016460571
0.32924557 0.073897421 -0.01647808
0.32923719 0.075063638 -0.016495587
0.32922879 0.076229855 -0.016513094
0.32922041 0.07739608 -0.016530601
0.32921201 0.078562304 -0.01654811
0.33009821 0.079648286 -0.016082589
0.33008984 0.080812916 -0.016100073
0.33008143 0.081977546 -0.016117556
0.32917845 0.083227187 -0.01661814
0.32917005 0.084393412 -0.016635647
0.32916167 0.085559629 -0.016653154
0.32915327 0.086725853 -0.016670661
0.3291449 0.08789207 -0.01668817
0.32913649 0.089058295 -0.016705677
0.33002278 0.090129942 -0.016239941
0.33001441 0.091294572 -0.016257424
0.33000603 0.092459194 -0.016274909
0.32999766 0.093623832 -0.016292391
0.32998925 0.094788454 -0.016309876
0.32998088 0.095953077 -0.016327359
0.32997251 0.097117715 -0.016344842
0.32996413 0.098282337 -0.016362326
0.32995576 0.099446967 -0.016379809
0.32994738 0.1006116 -0.016397294
0.32993898 0.10177623 -0.016414776
0.3299306 0.10294085 -0.016432259
0.32992223 0.10410548 -0.016449744
0.32991385 0.10527011 -0.016467227
0.32990548 0.10643474 -0.016484711
0.32989708 0.10759937 -0.016502194
0.3298887 0.10876399 -0.016519679
0.32898545 0.11005028 -0.01702081
0.32897705 0.1112165 -0.017038319
0.32896867 0.11238272 -0.017055826
0.32896027 0.11354893 -0.017073333
0.3289519 0.11471517 -0.01709084
0.32804862 0.11601102 -0.017592104
0.32804021 0.11717882 -0.017609635
0.32803184 0.11834664 -0.017627167
0.32802343 0.11951445 -0.017644698
0.32801503 0.12068227 -0.017662229
0.32800663 0.12185007 -0.01767976
0.32799822 0.12301789 -0.017697293
0.32798982 0.12418572 -0.017714825
0.32887638 0.12521116 -0.017248409
0.32886797 0.12637739 -0.017265916
0.3288596 0.1275436 -0.017283423
0.32885119 0.12870982 -0.01730093
0.32884279 0.12987605 -0.017318439
0.32883441 0.13104227 -0.017335946
0.32882601 0.13220848 -0.017353453
0.32881764 0.13337471 -0.01737096
0.32880923 0.13454093 -0.017388469
0.32880086 0.13570715 -0.017405976
0.3296876 0.13671507 -0.016939282
0.32967922 0.13787968 -0.016956767
0.32967085 0.13904433 -0.01697425
0.32966244 0.14020896 -0.016991735
0.32965407 0.14137359 -0.017009217
0.32964569 0.14253822 -0.0170267
0.32963732 0.14370283 -0.017044185
0.32962894 0.14486746 -0.017061668
0.32962057 0.14603209 -0.017079152
0.32961217 0.14719673 -0.017096635
0.32960379 0.14836136 -0.017114118
0.32959542 0.14952599 -0.017131602
0.32958704 0.15069062 -0.017149085
0.32957867 0.15185523 -0.01716657
0.32957029 0.15301988 -0.017184053
0.32956189 0.15418449 -0.017201535
0.32955351 0.15534912 -0.01721902
0.32954514 0.15651375 -0.017236503
0.32953677 0.15767838 -0.017253987
0.32952839 0.158843 -0.01727147
0.32951999 0.16000764 -0.017288955
0.32951161 0.16117227 -0.017306438
0.32950324 0.16233689 -0.017323921
0.32949486 0.16350152 -0.017341405
0.32948649 0.16466615 -0.017358888
0.32947811 0.16583078 -0.017376373
0.32946971 0.16699541 -0.017393855
0.32946134 0.16816004 -0.017411338
0.32945296 0.16932467 -0.017428823
0.33034 0.17028479 -0.016961426
0.33033162 0.17144783 -0.016978886
0.33032325 0.17261085 -0.016996345
0.33031487 0.1737739 -0.017013805
0.33030653 0.17493694 -0.017031265
0.33029816 0.17609997 -0.017048724
0.33028978 0.17726299 -0.017066184
0.33028141 0.17842603 -0.017083643
0.33116856 0.17937183 -0.016616045
0.33116019 0.18053328 -0.016633479
0.33115184 0.18169472 -0.016650915
0.33203903 0.18263413 -0.016183209
0.33203068 0.18379398 -0.016200621
0.33202231 0.18495382 -0.016218031
0.33201396 0.18611369 -0.016235443
0.33200562 0.18727353 -0.016252855
0.33199728 0.18843338 -0.016270267
0.33288455 0.18936165 -0.015802404
0.33287621 0.1905199 -0.015819792
0.33286789 0.19167817 -0.015837179
0.33285955 0.19283642 -0.015854567
0.33285123 0.19399466 -0.015871955
0.33284289 0.19515291 -0.015889343
0.33283454 0.19631119 -0.015906733
0.33372197 0.19722669 -0.01543864
0.33371362 0.19838333 -0.015456004
0.33370531 0.19954 -0.015473368
0.33369699 0.20069668 -0.015490732
0.33368868 0.20185333 -0.015508096
0.33368033 0.20300998 -0.015525459
0.33367202 0.20416665 -0.015542824
0.3336637 0.20532332 -0.015560187
0.33365539 0.20647998 -0.015577552
0.33454284 0.20737956 -0.015109258
0.33453453 0.20853464 -0.015126598
0.33452621 0.20968971 -0.015143938
0.33451793 0.21084477 -0.015161279
0.33450961 0.21199985 -0.015178619
0.3345013 0.21315493 -0.015195958
0.33449298 0.21430998 -0.015213299
0.33448467 0.21546505 -0.015230639
0.33447635 0.21662013 -0.015247979
0.33446804 0.2177752 -0.015265319
0.33445975 0.21893026 -0.015282659
0.33445144 0.22008532 -0.015299998
0.33444312 0.22124042 -0.015317339
0.33443481 0.22239546 -0.015334679
0.33442649 0.22355053 -0.015352019
0.33441818 0.22470562 -0.015369359
0.33440986 0.22586069 -0.015386699
0.33350557 0.2272999 -0.015890103
0.33349726 0.22845656 -0.015907466
0.33348891 0.22961323 -0.015924832
0.3334806 0.23076989 -0.015942195
0.33347228 0.23192655 -0.015959559
0.33346397 0.23308322 -0.015976923
0.33345562 0.23423988 -0.015994286
0.33344731 0.23539653 -0.016011652
0.33343899 0.23655319 -0.016029015
0.33343068 0.23770986 -0.016046379
0.33342233 0.23886652 -0.016063742
0.33341402 0.24002318 -0.016081106
0.33430183 0.24087659 -0.01561212
0.33429351 0.24203163 -0.015629459
0.3342852 0.24318671 -0.0156468
0.33427688 0.24434178 -0.01566414
0.33426857 0.24549685 -0.015681479
0.33426028 0.24665193 -0.01569882
0.33425197 0.24780698 -0.01571616
0.33424366 0.24896204 -0.015733499
0.33423534 0.25011712 -0.01575084
0.33422703 0.2512722 -0.01576818
0.33421871 0.25242725 -0.015785521
0.3342104 0.25358236 -0.01580286
0.33420211 0.25473741 -0.0158202
0.3341938 0.25589246 -0.015837541
0.33418548 0.25704753 -0.01585488
0.33417717 0.25820261 -0.01587222
0.33416885 0.25935769 -0.015889561
0.33326423 0.2608431 -0.016393658
0.33325589 0.26199979 -0.016411021
0.33324757 0.26315644 -0.016428387
0.33323926 0.26431307 -0.01644575
0.33323094 0.26546976 -0.016463114
0.33232617 0.26696476 -0.016967392
0.33231786 0.26812303 -0.016984781
0.33230951 0.26928127 -0.017002167
0.33230117 0.27043954 -0.017019557
0.33229285 0.2715978 -0.017036945
0.33228451 0.27275601 -0.017054331
0.33227617 0.27391428 -0.01707172
0.33226785 0.27507257 -0.017089108
0.33225951 0.27623078 -0.017106496
0.3331477 0.27703637 -0.016636753
0.33313939 0.27819306 -0.016654117
0.33313107 0.27934968 -0.016671481
0.33312273 0.28050637 -0.016688846
0.33311442 0.28166303 -0.01670621
0.3331061 0.28281969 -0.016723573
0.33309779 0.28397635 -0.016740937
0.33308944 0.285133 -0.016758302
0.33308113 0.28628966 -0.016775666
0.33307281 0.28744635 -0.016793029
0.33306447 0.28860298 -0.016810393
0.33305615 0.28975967 -0.016827757
0.33304784 0.29091635 -0.016845122
0.33303952 0.29207298 -0.016862486
0.33303118 0.29322964 -0.016879849
0.33302286 0.2943863 -0.016897213
0.33301455 0.29554299 -0.016914576
0.33300623 0.29669964 -0.016931942
0.33299789 0.29785627 -0.016949305
0.33298957 0.29901296 -0.016966669
0.33298126 0.30016962 -0.016984032
0.33297294 0.30132627 -0.017001396
0.3329646 0.30248293 -0.01701876
0.33295628 0.30363959 -0.017036125
0.33294797 0.30479628 -0.017053489
0.33293965 0.30595294 -0.017070852
0.33382809 0.30671552 -0.016600503
0.33381981 0.30787057 -0.016617842
0.33381149 0.30902565 -0.016635183
0.33380318 0.31018069 -0.016652523
0.33379486 0.3113358 -0.016669862
0.33378655 0.31249085 -0.016687203
0.33377823 0.3136459 -0.016704543
0.33376992 0.31480101 -0.016721884
0.3337616 0.31595609 -0.016739223
0.33375332 0.31711113 -0.016756563
0.333745 0.31826618 -0.016773902
0.33373669 0.31942126 -0.016791243
0.33372837 0.32057634 -0.016808582
0.33372006 0.32173142 -0.016825924
0.3346087 0.3224701 -0.016355215
0.33460039 0.32362357 -0.01637253
0.3345921 0.32477704 -0.016389847
0.33458379 0.32593051 -0.016407162
0.33547246 0.32666123 -0.015936323
0.33546418 0.32781309 -0.015953613
0.33545589 0.32896498 -0.015970906
0.33634463 0.32968932 -0.015499982
0.33633634 0.33083963 -0.015517251
0.33632806 0.33198988 -0.015534518
0.33721691 0.33270785 -0.015063461
0.33300275 -0.099547848 -0.013823308
0.33299437 -0.098384805 -0.013840768
0.33387777 -0.097059831 -0.013377598
0.33297762 -0.096058734 -0.013875687
0.33296925 -0.094895698 -0.013893147
0.3329609 -0.09373267 -0.013910607
0.33295253 -0.092569627 -0.013928066
0.33294415 -0.091406606 -0.013945526
0.33293578 -0.090243556 -0.013962985
0.33292741 -0.089080535 -0.013980445
0.33291906 -0.087917492 -0.013997905
0.33291069 -0.086754449 -0.014015364
0.33290231 -0.085591428 -0.014032824
0.33289394 -0.084428377 -0.014050283
0.33288559 -0.083265357 -0.014067743
0.33198527 -0.082243547 -0.014566132
0.33197689 -0.081078924 -0.014583616
0.33196852 -0.079914294 -0.014601099
0.33196014 -0.078749664 -0.014618582
0.33195174 -0.077585042 -0.014636066
0.33105132 -0.076553687 -0.015134623
0.33104292 -0.075387463 -0.01515213
0.33103454 -0.074221238 -0.015169638
0.33102614 -0.073055021 -0.015187145
0.33101776 -0.071888797 -0.015204653
0.33100936 -0.07072258 -0.01522216
0.33100098 -0.069556355 -0.015239668
0.33010051 -0.068512253 -0.015738403
0.3300921 -0.067344435 -0.015755935
0.3300837 -0.066176623 -0.015773466
0.3309674 -0.064891472 -0.015309698
0.33095902 -0.063725248 -0.015327205
0.33095062 -0.062559031 -0.015344713
0.33094224 -0.061392803 -0.01536222
0.33093384 -0.060226586 -0.015379728
0.33092543 -0.059060365 -0.015397235
0.33091706 -0.057894144 -0.015414743
0.33090866 -0.056727927 -0.01543225
0.33090028 -0.055561699 -0.015449758
0.33089188 -0.054395478 -0.015467265
0.33177578 -0.053127848 -0.01500322
0.33176741 -0.051963221 -0.015020704
0.33175901 -0.050798588 -0.015038188
0.33175063 -0.049633965 -0.015055671
0.33174226 -0.048469335 -0.015073155
0.33173388 -0.047304709 -0.015090638
0.33172551 -0.046140071 -0.015108122
0.3317171 -0.044975448 -0.015125605
0.33170873 -0.043810818 -0.015143089
0.33170035 -0.042646192 -0.015160573
0.33169198 -0.041481566 -0.015178056
0.33168361 -0.040316936 -0.015195539
0.33167523 -0.039152309 -0.015213023
0.33166683 -0.037987683 -0.015230507
0.33165845 -0.036823049 -0.01524799
0.33165008 -0.035658419 -0.015265474
0.3316417 -0.034493797 -0.015282957
0.33163333 -0.033329166 -0.015300441
0.33073246 -0.032237273 -0.015799906
0.33072406 -0.031071048 -0.015817415
0.33071566 -0.029904826 -0.015834922
0.33070728 -0.028738605 -0.015852429
0.33069888 -0.027572386 -0.015869936
0.3306905 -0.026406163 -0.015887445
0.3306821 -0.025239941 -0.015904952
0.33067372 -0.02407372 -0.015922459
0.33066532 -0.022907497 -0.015939966
0.33065692 -0.021741278 -0.015957475
0.33064854 -0.020575056 -0.015974982
0.33064014 -0.019408833 -0.015992489
0.33152437 -0.018189 -0.015527727
0.331516 -0.01702437 -0.015545211
0.33150762 -0.015859742 -0.015562694
0.33149925 -0.014695115 -0.015580177
0.33149087 -0.013530488 -0.015597661
0.33148247 -0.012365858 -0.015615145
0.33236673 -0.01115718 -0.015150241
0.33235839 -0.0099941455 -0.0151677
0.33235002 -0.0088311099 -0.01518516
0.33234164 -0.0076680747 -0.015202619
0.33233327 -0.00650504 -0.015220079
0.33143219 -0.0053780903 -0.015720045
0.33142382 -0.0042134612 -0.01573753
0.33141544 -0.0030488335 -0.015755013
0.33140707 -0.0018842046 -0.015772497
0.3313987 -0.00071957748 -0.01578998
0.33139032 0.00044505138 -0.015807463
0.33138192 0.0016096793 -0.015824948
0.33137354 0.0027743073 -0.01584243
0.33136517 0.0039389357 -0.015859915
0.33135679 0.0051035634 -0.015877398
0.33134842 0.0062681925 -0.015894882
0.33134001 0.0074328203 -0.015912365
0.33133164 0.0085974485 -0.015929848
0.33132327 0.0097620767 -0.015947333
0.33131489 0.010926705 -0.015964815
0.33130652 0.012091333 -0.0159823
0.33040521 0.013245367 -0.016482698
0.33128974 0.014420589 -0.016017266
0.33128136 0.015585218 -0.01603475
0.33038002 0.016744031 -0.016535221
0.33037162 0.017910253 -0.016552728
0.33036324 0.019076476 -0.016570235
0.3294619 0.020241661 -0.017070789
0.3294535 0.021409476 -0.01708832
0.32944509 0.022577291 -0.017105851
0.32943669 0.023745105 -0.017123383
0.32853529 0.024918258 -0.017624043
0.32852688 0.026087666 -0.017641598
0.32851848 0.027257074 -0.017659154
0.32851005 0.028426481 -0.017676709
0.32850164 0.029595889 -0.017694265
0.32849324 0.030765297 -0.01771182
0.3284848 0.031934705 -0.017729376
0.3284764 0.033104114 -0.017746931
0.32936108 0.034255438 -0.017281165
0.32935268 0.035423253 -0.017298697
0.33023736 0.036569797 -0.016832847
0.33022898 0.037736017 -0.016850354
0.33022058 0.038902238 -0.016867863
0.33110538 0.040042412 -0.016401904
0.33109701 0.041207038 -0.016419388
0.33108863 0.042371664 -0.016436871
0.33197343 0.043505467 -0.015970843
0.33196506 0.044668503 -0.015988303
0.33195668 0.045831531 -0.016005762
0.33194834 0.046994567 -0.016023222
0.33193997 0.048157606 -0.016040681
0.33193159 0.049320642 -0.016058141
0.33192322 0.050483674 -0.016075602
0.33102161 0.05168869 -0.016576739
0.33101323 0.052853324 -0.016594224
0.33100483 0.054017946 -0.016611706
0.33099645 0.055182576 -0.016629191
0.33098808 0.056347206 -0.016646674
0.3309797 0.057511833 -0.016664159
0.33097133 0.058676463 -0.016681641
0.33096293 0.059841089 -0.016699124
0.33095455 0.061005715 -0.016716609
0.33094618 0.062170345 -0.016734092
0.3309378 0.063334979 -0.016751576
0.33092943 0.064499602 -0.016769059
0.33092105 0.065664232 -0.016786542
0.33091265 0.066828862 -0.016804026
0.33090428 0.067993484 -0.016821509
0.33178934 0.069092236 -0.016354956
0.33178097 0.070255272 -0.016372414
0.3317726 0.0714183 -0.016389875
0.33176422 0.072581343 -0.016407333
0.33175585 0.073744379 -0.016424794
0.33264098 0.074833564 -0.015958084
0.3326326 0.075995013 -0.01597552
0.33262426 0.077156447 -0.015992954
0.33261591 0.078317888 -0.016010391
0.33260754 0.079479329 -0.016027827
0.33259919 0.08064077 -0.016045263
0.33259082 0.081802219 -0.016062697
0.33168891 0.083048657 -0.01656447
0.3325741 0.084125102 -0.01609757
0.33256575 0.085286543 -0.016115006
0.33255741 0.086447984 -0.01613244
0.33254904 0.087609425 -0.016149877
0.33254069 0.088770866 -0.016167313
0.33253232 0.089932315 -0.016184747
0.33163032 0.091189906 -0.016686687
0.33162197 0.092352934 -0.016704148
0.3316136 0.09351597 -0.016721608
0.33249891 0.09457808 -0.01625449
0.33249053 0.095739521 -0.016271926
0.33248219 0.096900962 -0.016289363
0.33247384 0.098062396 -0.016306799
0.33246547 0.099223845 -0.016324233
0.33245713 0.10038529 -0.016341669
0.33244875 0.10154673 -0.016359106
0.33244041 0.10270817 -0.01637654
0.33243206 0.10386961 -0.016393976
0.33242369 0.10503106 -0.016411413
0.33241534 0.10619249 -0.016428849
0.33151317 0.1074724 -0.016931122
0.33150482 0.10863543 -0.016948583
0.33149645 0.10979847 -0.016966043
0.33148807 0.11096149 -0.016983502
0.3314797 0.11212453 -0.017000962
0.33147132 0.11328756 -0.017018421
0.33146298 0.1144506 -0.017035881
0.33056071 0.11574325 -0.017538335
0.33055234 0.11690787 -0.017555818
0.33054397 0.1180725 -0.017573303
0.33053556 0.11923712 -0.017590785
0.33052719 0.12040175 -0.01760827
0.33051881 0.12156638 -0.017625753
0.33051044 0.12273102 -0.017643236
0.33050206 0.12389565 -0.01766072
0.33049366 0.12506026 -0.017678203
0.33048528 0.12622491 -0.017695688
0.33047691 0.12738952 -0.01771317
0.33046854 0.12855415 -0.017730653
0.33135417 0.12957005 -0.017262856
0.33134583 0.13073309 -0.017280316
0.33133745 0.13189612 -0.017297775
0.33132908 0.13305916 -0.017315235
0.3313207 0.13422219 -0.017332694
0.33131233 0.13538523 -0.017350154
0.33130398 0.13654828 -0.017367614
0.33129561 0.1377113 -0.017385073
0.33128724 0.13887434 -0.017402533
0.33217299 0.13987429 -0.016934484
0.33216462 0.14103575 -0.016951919
0.33215627 0.14219721 -0.016969355
0.33214793 0.14335863 -0.016986791
0.33213955 0.14452007 -0.017004227
0.33213121 0.14568152 -0.017021662
0.33212283 0.14684297 -0.017039098
0.33211449 0.1480044 -0.017056534
0.33210614 0.14916584 -0.01707397
0.33209777 0.1503273 -0.017091405
0.33208942 0.15148872 -0.017108841
0.33208105 0.15265018 -0.017126277
0.33207271 0.15381162 -0.017143713
0.33206436 0.15497306 -0.017161148
0.33205599 0.15613449 -0.017178584
0.33204764 0.15729593 -0.01719602
0.33203927 0.15845738 -0.017213454
0.33203092 0.15961882 -0.017230891
0.33202258 0.16078027 -0.017248327
0.3320142 0.16194171 -0.017265763
0.33200586 0.16310315 -0.017283197
0.33199748 0.16426459 -0.017300634
0.33198914 0.16542603 -0.01731807
0.33198076 0.16658747 -0.017335506
0.33197242 0.16774891 -0.017352941
0.33196408 0.16891035 -0.017370377
0.3319557 0.1700718 -0.017387813
0.33194736 0.17123325 -0.017405249
0.33193898 0.17239468 -0.017422684
0.33193064 0.17355612 -0.01744012
0.33281675 0.17450671 -0.01697134
0.33280841 0.17566656 -0.016988752
0.33280006 0.17682639 -0.017006164
0.33279172 0.17798625 -0.017023576
0.33367789 0.17892888 -0.016554678
0.33366957 0.18008712 -0.016572066
0.33366123 0.18124539 -0.016589453
0.33454749 0.18218161 -0.016120423
0.33453918 0.18333827 -0.016137786
0.33453086 0.18449494 -0.01615515
0.33452252 0.1856516 -0.016172513
0.3345142 0.18680826 -0.016189879
0.33540049 0.18773495 -0.01572074
0.33539218 0.18889001 -0.015738081
0.33538386 0.19004509 -0.015755421
0.33537555 0.19120015 -0.01577276
0.33536723 0.19235523 -0.015790101
0.33535895 0.19351029 -0.015807441
0.33535063 0.19466536 -0.01582478
0.33534232 0.19582044 -0.015842121
0.335334 0.1969755 -0.01585946
0.33532569 0.19813058 -0.015876802
0.33531737 0.19928563 -0.015894141
0.33530906 0.20044072 -0.01591148
0.3361955 0.20134668 -0.015442021
0.33618721 0.20250016 -0.015459337
0.3361789 0.20365362 -0.015476652
0.33617061 0.20480712 -0.015493969
0.3361623 0.20596057 -0.015511286
0.33615401 0.20711406 -0.015528602
0.3361457 0.20826754 -0.015545918
0.33613741 0.20942101 -0.015563234
0.3361291 0.21057448 -0.01558055
0.33612081 0.21172796 -0.015597866
0.3361125 0.21288145 -0.015615182
0.33610421 0.21403491 -0.015632499
0.3360959 0.21518838 -0.015649814
0.33608761 0.21634188 -0.015667131
0.3360793 0.21749534 -0.015684446
0.33607101 0.21864881 -0.015701763
0.3360627 0.21980229 -0.015719078
0.33605441 0.22095577 -0.015736395
0.3360461 0.22210924 -0.015753711
0.33603781 0.22326273 -0.015771028
0.3360295 0.22441621 -0.015788343
0.33602121 0.22556968 -0.01580566
0.3360129 0.22672315 -0.015822975
0.33600461 0.22787662 -0.015840292
0.3359963 0.22903012 -0.015857607
0.33598801 0.23018357 -0.015874924
0.3359797 0.23133704 -0.015892239
0.33597142 0.23249054 -0.015909556
0.3359631 0.23364401 -0.015926873
0.33595482 0.23479748 -0.015944188
0.3359465 0.23595096 -0.015961505
0.33593822 0.23710445 -0.015978821
0.3359299 0.23825791 -0.015996138
0.33592162 0.23941137 -0.016013453
0.3359133 0.24056488 -0.01603077
0.33590502 0.24171834 -0.016048085
0.33679187 0.24256536 -0.015577752
0.33678359 0.24371724 -0.015595044
0.3367753 0.24486913 -0.015612336
0.33676702 0.24602102 -0.015629629
0.33675873 0.24717289 -0.015646921
0.33675045 0.24832477 -0.015664212
0.33674216 0.24947666 -0.015681505
0.33673385 0.25062853 -0.015698798
0.33672556 0.25178042 -0.015716089
0.33671728 0.25293231 -0.015733382
0.33670899 0.2540842 -0.015750675
0.33670071 0.25523606 -0.015767965
0.33669242 0.25638795 -0.015785258
0.33668414 0.25753984 -0.015802551
0.33578053 0.25902048 -0.016307827
0.33577222 0.26017395 -0.016325144
0.33576393 0.26132745 -0.016342459
0.33486027 0.26281443 -0.016847843
0.33485198 0.26396951 -0.016865183
0.33484367 0.26512456 -0.016882524
0.33483535 0.26627964 -0.016899863
0.33482704 0.26743472 -0.016917203
0.33481872 0.26858976 -0.016934544
0.33481041 0.26974487 -0.016951883
0.33480209 0.27089992 -0.016969224
0.33479378 0.27205497 -0.016986564
0.33478549 0.27321005 -0.017003903
0.33477718 0.27436513 -0.017021244
0.33476886 0.27552021 -0.017038584
0.33476055 0.27667528 -0.017055925
0.33564773 0.2774761 -0.016584886
0.33563942 0.27862957 -0.016602201
0.33563113 0.27978304 -0.016619518
0.33562282 0.28093651 -0.016636834
0.33561453 0.28208998 -0.016654151
0.33560625 0.28324348 -0.016671466
0.33559793 0.28439695 -0.016688783
0.33558965 0.28555042 -0.016706098
0.33558133 0.28670391 -0.016723415
0.33557305 0.28785735 -0.01674073
0.33556473 0.28901082 -0.016758047
0.33555645 0.29016435 -0.016775362
0.33554813 0.29131779 -0.016792679
0.33553985 0.29247126 -0.016809994
0.33553153 0.29362476 -0.016827311
0.33552325 0.29477823 -0.016844627
0.33551493 0.2959317 -0.016861944
0.33550665 0.2970852 -0.016879259
0.33549833 0.29823866 -0.016896576
0.33549005 0.29939213 -0.016913891
0.33548173 0.3005456 -0.016931208
0.33547345 0.30169907 -0.016948523
0.33546513 0.30285257 -0.01696584
0.33545685 0.30400601 -0.016983155
0.33544853 0.30515951 -0.017000472
0.33544025 0.30631301 -0.017017789
0.33543193 0.30746645 -0.017035104
0.33542365 0.30861995 -0.017052421
0.33631116 0.30937454 -0.016580701
0.33630288 0.31052646 -0.016597992
0.33629459 0.31167835 -0.016615285
0.33628631 0.31283021 -0.016632577
0.33627802 0.3139821 -0.016649868
0.33626974 0.31513396 -0.016667161
0.33626145 0.31628585 -0.016684454
0.33625317 0.31743774 -0.016701745
0.33624485 0.31858963 -0.016719038
0.33623657 0.31974149 -0.01673633
0.33712423 0.32047859 -0.016264345
0.33711594 0.3216289 -0.016281614
0.33710769 0.32277918 -0.016298883
0.33620343 0.32434905 -0.0168055
0.33709112 0.32507974 -0.01633342
0.33708283 0.32623005 -0.016350688
0.33797061 0.32695597 -0.015878499
0.33796236 0.32810467 -0.015895743
0.3379541 0.32925338 -0.015912987
0.33884189 0.32997292 -0.015440741
0.33883363 0.33112004 -0.015457962
0.33882537 0.33226714 -0.015475182
0.33881712 0.33341426 -0.015492403
0.33970496 0.33412588 -0.015020036
0.33550557 -0.099226065 -0.013772172
0.33638802 -0.097902663 -0.013307738
0.33637971 -0.096744418 -0.013325126
0.33548054 -0.095746517 -0.013824407
0.3354722 -0.09458667 -0.013841819
0.33546385 -0.093426824 -0.01385923
0.33545551 -0.092266969 -0.013876642
0.33544716 -0.091107123 -0.013894054
0.33543882 -0.089947276 -0.013911466
0.33543047 -0.088787436 -0.013928877
0.33542213 -0.087627575 -0.013946289
0.33541378 -0.086467728 -0.013963701
0.33540544 -0.085307881 -0.013981113
