# .PCD v0.7 - Point Cloud Data file format
VERSION 0.7
FIELDS x y z
SIZE 4 4 4
TYPE F F F
COUNT 1 1 1
WIDTH 1315
HEIGHT 1
VIEWPOINT 0 0 0 1 0 0 0
POINTS 1315
DATA ascii
0.66877705 0.10163857 -0.0096610552
0.66877174 0.10237303 -0.0096720811
0.66876644 0.10310749 -0.009683107
0.66876119 0.10384195 -0.009694133
0.66875589 0.10457642 -0.0097051589
0.66875058 0.10531088 -0.0097161848
0.66874534 0.10604535 -0.0097272107
0.66874003 0.10677981 -0.0097382367
0.66873473 0.10751428 -0.0097492626
0.66872948 0.10824875 -0.0097602885
0.66872418 0.1089832 -0.0097713144
0.66871887 0.10971767 -0.0097823404
0.66871363 0.11045214 -0.0097933663
0.66870832 0.1111866 -0.0098043922
0.66870302 0.11192106 -0.0098154172
0.66869777 0.11265554 -0.0098264441
0.66869247 0.11339 -0.0098374691
0.6680032 0.11432646 -0.010600872
0.66799796 0.11506252 -0.010611922
0.66799265 0.11579858 -0.010622973
0.66798735 0.11653464 -0.010634022
0.66798204 0.11727069 -0.010645072
0.66797674 0.11800676 -0.010656122
0.66797143 0.11874281 -0.010667171
0.66796619 0.11947887 -0.010678221
0.66796088 0.12021492 -0.010689271
0.66795558 0.12095098 -0.010700321
0.66795027 0.12168704 -0.010711371
0.66794497 0.12242309 -0.01072242
0.66793966 0.12315916 -0.01073347
0.66793436 0.12389521 -0.01074452
0.66792911 0.12463127 -0.01075557
0.66792381 0.12536733 -0.01076662
0.6679185 0.12610339 -0.010777669
0.6679132 0.12683944 -0.010788719
0.66790789 0.1275755 -0.010799769
0.66790259 0.12831156 -0.010810819
0.66789728 0.12904762 -0.010821869
0.66789204 0.12978368 -0.010832919
0.66788673 0.13051973 -0.010843968
0.66788143 0.13125581 -0.010855018
0.66787612 0.13199185 -0.010866067
0.66787082 0.13272791 -0.010877118
0.66786551 0.13346396 -0.010888168
0.66854453 0.133955 -0.010146194
0.66853923 0.13468947 -0.01015722
0.66853392 0.13542393 -0.010168246
0.66852868 0.13615839 -0.010179272
0.66852337 0.13689286 -0.010190298
0.66851807 0.13762733 -0.010201324
0.66851282 0.13836178 -0.010212349
0.66850752 0.13909627 -0.010223376
0.66850221 0.13983072 -0.010234401
0.66849697 0.14056519 -0.010245427
0.66849166 0.14129965 -0.010256452
0.66848636 0.14203411 -0.010267478
0.66848111 0.14276858 -0.010278504
0.66847581 0.14350304 -0.01028953
0.6684705 0.14423752 -0.010300556
0.66846526 0.14497198 -0.010311582
0.66845995 0.14570643 -0.010322608
0.66845465 0.14644089 -0.010333634
0.6691339 0.14690167 -0.0095911874
0.6691286 0.14763452 -0.00960219
0.66912335 0.1483674 -0.0096131917
0.66911805 0.14910029 -0.0096241934
0.6691128 0.14983314 -0.0096351951
0.6691075 0.15056601 -0.0096461978
0.66910225 0.15129888 -0.0096571995
0.66909695 0.15203178 -0.0096682012
0.6690917 0.15276463 -0.0096792029
0.66908646 0.1534975 -0.0096902056
0.66908115 0.15423039 -0.0097012073
0.66907591 0.15496324 -0.009712209
0.6690706 0.15569612 -0.0097232107
0.66906536 0.15642899 -0.0097342134
0.66906005 0.15716186 -0.0097452151
0.66905481 0.15789473 -0.0097562168
0.6690495 0.1586276 -0.0097672194
0.66904426 0.15936047 -0.0097782211
0.66903895 0.16009335 -0.0097892229
0.66903371 0.16082622 -0.0098002246
0.6690284 0.16155909 -0.0098112272
0.66902316 0.16229196 -0.0098222289
0.66901785 0.16302483 -0.0098332306
0.66901261 0.16375771 -0.0098442324
0.66900736 0.16449057 -0.0098552341
0.66900206 0.16522345 -0.0098662367
0.66968155 0.16564119 -0.0091231689
0.6696763 0.16637248 -0.0091341473
0.66967106 0.16710377 -0.0091451248
0.66966575 0.16783504 -0.0091561032
0.66966051 0.1685663 -0.0091670807
0.66965526 0.16929758 -0.0091780592
0.66965002 0.17002888 -0.0091890376
0.66964471 0.17076015 -0.0092000151
0.66963947 0.17149141 -0.0092109935
0.66963422 0.1722227 -0.009221971
0.66962898 0.17295398 -0.0092329495
0.66962367 0.17368527 -0.0092439279
0.66961843 0.17441654 -0.0092549054
0.66961318 0.17514782 -0.0092658838
0.66960788 0.17587909 -0.0092768613
0.66960263 0.17661037 -0.0092878398
0.66959739 0.17734167 -0.0092988182
0.66959214 0.17807293 -0.0093097957
0.66958684 0.1788042 -0.0093207741
0.66958159 0.17953548 -0.0093317516
0.66957635 0.18026677 -0.00934273
0.66957104 0.18099804 -0.0093537075
0.6695658 0.18172932 -0.009364686
0.66956055 0.18246061 -0.0093756644
0.66955531 0.18319188 -0.0093866419
0.66955 0.18392316 -0.0093976203
0.66954476 0.18465443 -0.0094085978
0.66953951 0.18538572 -0.0094195763
0.66953427 0.18611699 -0.0094305547
0.66952896 0.18684827 -0.0094415322
0.66952372 0.18757953 -0.0094525106
0.66951847 0.18831083 -0.0094634881
0.66951317 0.18904211 -0.0094744666
0.66950792 0.18977338 -0.0094854441
0.66950268 0.19050466 -0.0094964225
0.66949743 0.19123593 -0.0095074009
0.66949213 0.19196722 -0.0095183784
0.66948688 0.19269849 -0.0095293568
0.66948164 0.19342977 -0.0095403343
0.66947639 0.19416104 -0.0095513128
0.66947109 0.19489232 -0.0095622903
0.66946584 0.19562362 -0.0095732687
0.66946059 0.1963549 -0.0095842471
0.66945529 0.19708616 -0.0095952246
0.66945004 0.19781743 -0.0096062031
0.6694448 0.19854872 -0.0096171815
0.66943955 0.19928001 -0.009628159
0.66943425 0.20001127 -0.0096391365
0.669429 0.20074256 -0.0096501149
0.66942376 0.20147383 -0.0096610934
0.66941845 0.20220511 -0.0096720709
0.66941321 0.20293638 -0.0096830493
0.66940796 0.20366767 -0.0096940277
0.66940272 0.20439894 -0.0097050052
0.66939741 0.20513022 -0.0097159836
0.66939217 0.20586149 -0.0097269611
0.66938692 0.20659278 -0.0097379396
0.66938168 0.20732406 -0.0097489171
0.66937637 0.20805533 -0.0097598955
0.66937113 0.20878662 -0.0097708739
0.66936588 0.20951788 -0.0097818514
0.66936058 0.21024917 -0.0097928299
0.67004085 0.21056657 -0.0090482552
0.6700356 0.21129623 -0.0090592094
0.67003036 0.21202591 -0.0090701636
0.67002511 0.21275561 -0.0090811178
0.67001981 0.2134853 -0.009092072
0.67001456 0.21421498 -0.0091030262
0.67000932 0.21494466 -0.0091139805
0.67000407 0.21567434 -0.0091249337
0.66999882 0.21640404 -0.009135888
0.66999358 0.21713372 -0.0091468422
0.66998833 0.2178634 -0.0091577964
0.66998309 0.21859309 -0.0091687506
0.66929221 0.21975578 -0.0099355439
0.66928697 0.22048706 -0.0099465223
0.66928166 0.22121835 -0.0099575007
0.66927642 0.22194962 -0.0099684782
0.66927117 0.2226809 -0.0099794567
0.66926587 0.22341217 -0.0099904342
0.66926062 0.22414346 -0.010001413
0.66925538 0.22487473 -0.01001239
0.66925013 0.22560601 -0.010023369
0.66924483 0.22633728 -0.010034347
0.66923958 0.22706857 -0.010045324
0.66923434 0.22779985 -0.010056303
0.66922903 0.22853112 -0.01006728
0.66853803 0.22971614 -0.010834409
0.66853273 0.23044899 -0.010845411
0.66852748 0.23118187 -0.010856413
0.66852218 0.23191474 -0.010867415
0.66851693 0.23264761 -0.010878417
0.66851163 0.23338048 -0.010889419
0.66850638 0.23411335 -0.010900421
0.66850108 0.23484623 -0.010911423
0.66849583 0.2355791 -0.010922424
0.66849059 0.23631197 -0.010933427
0.66848528 0.23704484 -0.010944429
0.66848004 0.23777771 -0.010955431
0.66847473 0.23851058 -0.010966432
0.66846949 0.23924346 -0.010977435
0.66846418 0.23997633 -0.010988437
0.66845894 0.2407092 -0.010999438
0.66845363 0.24144207 -0.011010441
0.66844839 0.24217492 -0.011021443
0.66844308 0.24290782 -0.011032444
0.66843784 0.24364069 -0.011043446
0.66843253 0.24437356 -0.011054449
0.66842729 0.24510641 -0.01106545
0.67136019 -0.099348485 -0.006469544
0.67203456 -0.098355576 -0.0057338597
0.67202932 -0.097624302 -0.0057448377
0.67202407 -0.09689302 -0.0057558157
0.67201877 -0.096161753 -0.0057667936
0.67133385 -0.095684126 -0.006524554
0.67132854 -0.09495125 -0.0065355557
0.6713233 -0.094218381 -0.0065465579
0.67131799 -0.093485512 -0.0065575596
0.67131275 -0.092752635 -0.0065685618
0.67130744 -0.092019767 -0.0065795635
0.6713022 -0.091286905 -0.0065905657
0.67129689 -0.090554021 -0.0066015678
0.67129165 -0.08982116 -0.0066125696
0.67128634 -0.089088276 -0.0066235717
0.6712811 -0.088355407 -0.0066345735
0.67127585 -0.087622546 -0.0066455752
0.67127055 -0.086889662 -0.0066565773
0.6712653 -0.0861568 -0.0066675795
0.67126 -0.085423924 -0.0066785812
0.67125475 -0.084691055 -0.0066895834
0.67124945 -0.083958186 -0.0067005851
0.6712442 -0.083225302 -0.0067115873
0.6712389 -0.082492441 -0.006722589
0.67123365 -0.081759565 -0.0067335912
0.67122835 -0.081026696 -0.0067445929
0.6712231 -0.080293827 -0.0067555951
0.6712178 -0.079560958 -0.0067665968
0.67121255 -0.078828081 -0.006777599
0.67120725 -0.078095213 -0.0067886007
0.671202 -0.077362344 -0.0067996029
0.6711967 -0.076629467 -0.0068106051
0.67119145 -0.075896598 -0.0068216068
0.67118621 -0.075163722 -0.006832609
0.6711809 -0.074430853 -0.0068436107
0.67117566 -0.073697984 -0.0068546128
0.67117035 -0.072965115 -0.0068656146
0.67116511 -0.072232239 -0.0068766167
0.6711598 -0.07149937 -0.0068876185
0.67115456 -0.070766494 -0.0068986206
0.67114925 -0.070033625 -0.0069096223
0.67114401 -0.069300756 -0.0069206245
0.6711387 -0.068567879 -0.0069316262
0.67113346 -0.067835018 -0.0069426284
0.67112815 -0.067102142 -0.0069536301
0.67112291 -0.066369273 -0.0069646323
0.6711176 -0.065636404 -0.006975634
0.67111236 -0.06490352 -0.0069866362
0.67110711 -0.064170659 -0.0069976379
0.67110181 -0.063437782 -0.0070086401
0.67109656 -0.062704913 -0.0070196423
0.67041099 -0.062152419 -0.0077785505
0.67040575 -0.061417956 -0.0077895764
0.67040044 -0.060683489 -0.0078006024
0.67039514 -0.059949022 -0.0078116283
0.67038989 -0.059214566 -0.0078226542
0.67038459 -0.058480091 -0.0078336801
0.67037928 -0.057745632 -0.0078447061
0.67037404 -0.057011168 -0.007855732
0.67036873 -0.056276701 -0.0078667579
0.67036343 -0.055542234 -0.0078777838
0.67035818 -0.054807778 -0.0078888088
0.67035288 -0.054073311 -0.0078998348
0.67034763 -0.053338837 -0.0079108607
0.67034233 -0.052604377 -0.0079218866
0.67033702 -0.051869914 -0.0079329126
0.67033178 -0.051135454 -0.0079439385
0.67032647 -0.05040098 -0.0079549644
0.67032117 -0.049666524 -0.0079659903
0.67031592 -0.048932057 -0.0079770163
0.67031062 -0.048197586 -0.0079880422
0.67030531 -0.04746313 -0.0079990681
0.67030007 -0.046728659 -0.0080100941
0.67029476 -0.045994196 -0.00802112
0.67028946 -0.045259733 -0.0080321459
0.67028421 -0.044525269 -0.0080431718
0.67027891 -0.043790802 -0.0080541978
0.6702736 -0.043056339 -0.0080652237
0.67026836 -0.042321876 -0.0080762496
0.67026305 -0.041587409 -0.0080872746
0.67025775 -0.040852949 -0.0080983005
0.6702525 -0.040118478 -0.0081093265
0.6702472 -0.039384015 -0.0081203524
0.67024189 -0.038649548 -0.0081313783
0.67023665 -0.037915088 -0.0081424043
0.67023134 -0.037180621 -0.0081534302
0.67022604 -0.036446158 -0.0081644561
0.67022079 -0.035711695 -0.008175482
0.67021549 -0.034977231 -0.008186508
0.67021018 -0.03424276 -0.0081975339
0.67020494 -0.033508301 -0.0082085598
0.67019963 -0.032773834 -0.0082195858
0.67019433 -0.032039367 -0.0082306117
0.66950834 -0.031418364 -0.0089905243
0.66950303 -0.030682309 -0.0090015735
0.66949779 -0.029946247 -0.0090126237
0.66949248 -0.029210191 -0.0090236738
0.66948718 -0.028474132 -0.009034723
0.66948187 -0.027738076 -0.0090457732
0.66947657 -0.027002014 -0.0090568224
0.66947126 -0.026265958 -0.0090678725
0.67014676 -0.025429189 -0.0083298441
0.67014152 -0.024694724 -0.00834087
0.67013621 -0.023960263 -0.008351896
0.67013091 -0.023225795 -0.0083629219
0.67012566 -0.02249133 -0.0083739478
0.67012036 -0.021756865 -0.0083849737
0.66943419 -0.021113552 -0.0091452217
0.66942888 -0.020377496 -0.0091562709
0.66942364 -0.01964144 -0.009167321
0.66941833 -0.018905381 -0.0091783702
0.66941303 -0.018169323 -0.0091894204
0.66940773 -0.017433267 -0.0092004705
0.66940242 -0.016697207 -0.0092115197
0.66939712 -0.01596115 -0.0092225699
0.66939181 -0.015225091 -0.00923362
0.66938657 -0.014489034 -0.0092446692
0.66938126 -0.013752976 -0.0092557194
0.66937596 -0.01301692 -0.0092667686
0.66937065 -0.01228086 -0.0092778187
0.66936535 -0.011544803 -0.0092888689
0.66936004 -0.010808745 -0.0092999181
0.66935474 -0.010072689 -0.0093109682
0.67003053 -0.009270967 -0.0085724136
0.67002523 -0.0085365027 -0.0085834395
0.67001992 -0.0078020389 -0.0085944654
0.67001468 -0.0070675747 -0.0086054914
0.67000937 -0.006333109 -0.0086165173
0.67000413 -0.0055986447 -0.0086275432
0.66999882 -0.0048641809 -0.0086385692
0.66999352 -0.0041297148 -0.0086495951
0.66998827 -0.0033952491 -0.008660621
0.66998297 -0.0026607851 -0.0086716469
0.66997766 -0.001926322 -0.0086826729
0.66997242 -0.0011918562 -0.0086936988
0.66996711 -0.00045739123 -0.0087047238
0.66996181 0.00027707277 -0.0087157497
0.66995656 0.0010115377 -0.0087267756
0.66995126 0.0017460018 -0.0087378016
0.66994596 0.0024804666 -0.0087488275
0.66994071 0.0032149306 -0.0087598534
0.66993541 0.0039493958 -0.0087708794
0.6699301 0.0046838606 -0.0087819053
0.66992486 0.0054183253 -0.0087929312
0.66991955 0.0061527896 -0.0088039571
0.66991425 0.0068872538 -0.0088149831
0.669909 0.0076217186 -0.008826009
0.6699037 0.0083561828 -0.0088370349
0.66989839 0.009090648 -0.0088480609
0.66989315 0.0098251123 -0.0088590868
0.66988784 0.010559577 -0.0088701127
0.66988254 0.011294042 -0.0088811386
0.66987729 0.012028506 -0.0088921646
0.66987199 0.012762971 -0.0089031905
0.66986668 0.013497435 -0.0089142155
0.66986144 0.0142319 -0.0089252414
0.66985613 0.014966365 -0.0089362673
0.66985083 0.015700828 -0.0089472933
0.66984558 0.016435293 -0.0089583192
0.66984028 0.017169759 -0.0089693451
0.66983497 0.017904224 -0.0089803711
0.66982973 0.018638687 -0.008991397
0.66982442 0.019373152 -0.0090024229
0.66981912 0.020107618 -0.0090134488
0.66981387 0.020842081 -0.0090244748
0.66980857 0.021576546 -0.0090355007
0.66980326 0.022311011 -0.0090465266
0.66979802 0.023045477 -0.0090575526
0.66979271 0.02377994 -0.0090685785
0.66978741 0.024514405 -0.0090796044
0.66978216 0.025248868 -0.0090906303
0.66977686 0.025983334 -0.0091016563
0.66977155 0.026717797 -0.0091126813
0.66976631 0.027452262 -0.0091237072
0.669761 0.028186727 -0.0091347331
0.6697557 0.028921193 -0.009145759
0.66975045 0.029655656 -0.009156785
0.66974515 0.030390119 -0.0091678109
0.6690582 0.031146549 -0.0099297566
0.6690529 0.031882606 -0.0099408068
0.66904759 0.032618664 -0.009951856
0.66904229 0.033354718 -0.0099629061
0.66903698 0.03409078 -0.0099739563
0.66903168 0.034826837 -0.0099850055
0.66902643 0.035562895 -0.0099960556
0.66902113 0.036298949 -0.010007105
0.66901582 0.037035011 -0.010018155
0.66901052 0.037771069 -0.010029205
0.66900522 0.038507126 -0.010040254
0.66899991 0.03924318 -0.010051304
0.66899461 0.039979242 -0.010062355
0.66898936 0.0407153 -0.010073404
0.66898406 0.041451357 -0.010084454
0.66897875 0.042187411 -0.010095503
0.66897345 0.042923473 -0.010106553
0.66896814 0.043659531 -0.010117603
0.66896284 0.044395588 -0.010128653
0.66895753 0.045131646 -0.010139703
0.66963416 0.045813877 -0.0093993545
0.66962892 0.046548344 -0.0094103804
0.66962361 0.047282808 -0.0094214063
0.66961831 0.048017271 -0.0094324322
0.66961306 0.048751738 -0.0094434582
0.66960776 0.049486201 -0.0094544841
0.66960245 0.050220665 -0.00946551
0.66959721 0.050955132 -0.009476536
0.6695919 0.051689591 -0.0094875619
0.6695866 0.052424062 -0.0094985878
0.66958135 0.053158525 -0.0095096137
0.66957605 0.053892989 -0.0095206397
0.66957074 0.054627452 -0.0095316647
0.6695655 0.055361919 -0.0095426906
0.67024231 0.056020249 -0.0088019595
0.670237 0.056753121 -0.0088129612
0.67023176 0.05748599 -0.0088239638
0.67022645 0.058218867 -0.0088349655
0.67022121 0.058951735 -0.0088459672
0.6702159 0.059684608 -0.0088569699
0.67021066 0.060417477 -0.0088679716
0.67020535 0.06115035 -0.0088789733
0.67020011 0.061883222 -0.008889975
0.6701948 0.062616087 -0.0089009777
0.67018956 0.063348964 -0.0089119794
0.67018425 0.06408184 -0.0089229811
0.67017901 0.064814709 -0.0089339828
0.6701737 0.065547578 -0.0089449855
0.67016846 0.066280447 -0.0089559872
0.67016321 0.067013323 -0.0089669889
0.67015791 0.067746192 -0.0089779906
0.66947037 0.068582281 -0.0097411564
0.66946507 0.069316745 -0.0097521823
0.66945976 0.070051208 -0.0097632082
0.66945451 0.070785679 -0.0097742341
0.66944921 0.071520135 -0.0097852601
0.66944391 0.072254606 -0.009796286
0.66943866 0.072989069 -0.0098073119
0.66943336 0.073723532 -0.0098183379
0.66942805 0.074458003 -0.0098293638
0.66942281 0.075192459 -0.0098403897
0.6694175 0.07592693 -0.0098514156
0.6694122 0.076661393 -0.0098624416
0.66940695 0.077395856 -0.0098734675
0.66940165 0.078130312 -0.0098844934
0.66939634 0.078864783 -0.0098955194
0.6693911 0.079599254 -0.0099065453
0.66938579 0.080333717 -0.0099175712
0.66938049 0.081068181 -0.0099285971
0.66937524 0.081802636 -0.0099396221
0.66936994 0.082537115 -0.0099506481
0.66936463 0.083271571 -0.009961674
0.66935939 0.084006034 -0.0099726999
0.66935408 0.084740505 -0.0099837258
0.66934878 0.085474968 -0.0099947518
0.66934353 0.086209431 -0.010005778
0.66933823 0.086943895 -0.010016804
0.66933292 0.087678365 -0.01002783
0.66932768 0.088412821 -0.010038855
0.66932237 0.089147292 -0.010049881
0.66931713 0.089881748 -0.010060907
0.66931182 0.090616219 -0.010071933
0.66930652 0.09135069 -0.010082959
0.66930127 0.092085145 -0.010093985
0.66929597 0.092819609 -0.010105011
0.66929066 0.09355408 -0.010116037
0.66928542 0.094288543 -0.010127063
0.66928011 0.095022999 -0.010138088
0.66927481 0.09575747 -0.010149114
0.66995227 0.096328177 -0.0094070677
0.66994697 0.097061045 -0.0094180694
0.66994172 0.097793922 -0.0094290711
0.66993642 0.098526783 -0.0094400737
0.66993117 0.099259667 -0.0094510755
0.66992587 0.099992529 -0.0094620772
0.66992062 0.1007254 -0.0094730789
0.66991532 0.10145828 -0.0094840815
0.66991007 0.10219114 -0.0094950832
0.66990483 0.10292402 -0.009506085
0.66921669 0.10383657 -0.010270399
0.66921139 0.10457105 -0.010281425
0.66920614 0.10530551 -0.010292451
0.66920084 0.10603997 -0.010303477
0.66919553 0.10677443 -0.010314503
0.66919029 0.10750891 -0.010325529
0.66918498 0.10824337 -0.010336555
0.66917968 0.10897783 -0.01034758
0.66917443 0.1097123 -0.010358606
0.66916913 0.11044676 -0.010369631
0.66916382 0.11118123 -0.010380657
0.66915858 0.11191569 -0.010391683
0.66915327 0.11265016 -0.010402709
0.66914797 0.11338463 -0.010413735
0.66914272 0.11411908 -0.010424761
0.66913742 0.11485355 -0.010435787
0.66913211 0.11558802 -0.010446813
0.66912687 0.11632248 -0.010457839
0.66912156 0.11705694 -0.010468865
0.66911626 0.11779141 -0.010479891
0.66911101 0.11852587 -0.010490917
0.66910571 0.11926034 -0.010501943
0.6691004 0.1199948 -0.010512969
0.66909516 0.12072927 -0.010523994
0.66908985 0.12146374 -0.01053502
0.66908455 0.12219819 -0.010546045
0.6690793 0.12293266 -0.010557071
0.669074 0.12366713 -0.010568097
0.66906869 0.12440159 -0.010579123
0.66906345 0.12513606 -0.010590149
0.66905814 0.12587051 -0.010601175
0.66905284 0.12660499 -0.010612201
0.66904759 0.12733945 -0.010623227
0.66904229 0.12807392 -0.010634253
0.66903698 0.12880838 -0.010645279
0.66903174 0.12954284 -0.010656305
0.66902643 0.13027731 -0.010667331
0.66902113 0.13101178 -0.010678357
0.66901588 0.13174623 -0.010689382
0.66901058 0.1324807 -0.010700408
0.66900527 0.13321516 -0.010711434
0.66900003 0.13394964 -0.01072246
0.66899472 0.1346841 -0.010733486
0.66898942 0.13541856 -0.010744511
0.66898417 0.13615301 -0.010755537
0.66966224 0.13663611 -0.010012175
0.66965693 0.13736898 -0.010023178
0.66965169 0.13810185 -0.010034179
0.66964644 0.13883471 -0.010045181
0.66964114 0.1395676 -0.010056183
0.66963589 0.14030045 -0.010067185
0.66963059 0.14103332 -0.010078187
0.66962534 0.14176621 -0.010089189
0.66962004 0.14249906 -0.010100191
0.66961479 0.14323194 -0.010111193
0.66960949 0.14396483 -0.010122195
0.66960424 0.1446977 -0.010133197
0.66959894 0.14543055 -0.010144198
0.66959369 0.14616342 -0.010155201
0.66958839 0.1468963 -0.010166203
0.67026663 0.14735389 -0.009422482
0.67026138 0.14808518 -0.0094334604
0.67025614 0.14881647 -0.0094444389
0.67025083 0.14954773 -0.0094554164
0.67024559 0.150279 -0.0094663939
0.67024034 0.15101027 -0.0094773723
0.6702351 0.15174158 -0.0094883507
0.67022979 0.15247285 -0.0094993282
0.67022455 0.15320411 -0.0095103066
0.6702193 0.1539354 -0.0095212851
0.670214 0.15466668 -0.0095322626
0.67020875 0.15539797 -0.009543241
0.67020351 0.15612923 -0.0095542185
0.67019826 0.15686052 -0.0095651969
0.67019296 0.15759179 -0.0095761744
0.67018771 0.15832306 -0.0095871529
0.67018247 0.15905435 -0.0095981313
0.67017722 0.15978563 -0.0096091088
0.67017192 0.1605169 -0.0096200872
0.67016667 0.16124818 -0.0096310647
0.67016143 0.16197945 -0.0096420432
0.67015612 0.16271074 -0.0096530207
0.67015088 0.16344202 -0.0096639991
0.67014563 0.16417329 -0.0096749775
0.67014039 0.16490458 -0.009685955
0.67013508 0.16563584 -0.0096969334
0.67012984 0.16636713 -0.0097079109
0.67012459 0.16709842 -0.0097188894
0.67011929 0.16782969 -0.0097298678
0.67079788 0.16823947 -0.0089854235
0.67079264 0.16896915 -0.0089963777
0.67078739 0.16969886 -0.0090073319
0.67078215 0.17042854 -0.0090182861
0.6707769 0.17115822 -0.0090292403
0.67077166 0.1718879 -0.0090401946
0.67076641 0.1726176 -0.0090511488
0.67076111 0.17334728 -0.0090621021
0.67075586 0.17407696 -0.0090730563
0.67075062 0.17480665 -0.0090840105
0.67074537 0.17553633 -0.0090949647
0.67074013 0.17626601 -0.0091059189
0.67073488 0.17699571 -0.0091168731
0.67072964 0.17772539 -0.0091278274
0.67072439 0.17845507 -0.0091387816
0.67071915 0.17918475 -0.0091497358
0.6707139 0.17991446 -0.00916069
0.67070866 0.18064412 -0.0091716433
0.67070341 0.1813738 -0.0091825975
0.67069811 0.1821035 -0.0091935517
0.67069286 0.18283319 -0.0092045059
0.67068762 0.18356287 -0.0092154602
0.67068237 0.18429255 -0.0092264144
0.67067713 0.18502223 -0.0092373686
0.67067188 0.18575191 -0.0092483228
0.67066664 0.18648161 -0.009259277
0.67066139 0.18721129 -0.0092702303
0.67065614 0.18794098 -0.0092811855
0.6706509 0.18867067 -0.0092921387
0.67064565 0.18940033 -0.009303093
0.67064041 0.19013004 -0.0093140472
0.6706351 0.19085972 -0.0093250014
0.67062986 0.1915894 -0.0093359556
0.67062461 0.19231908 -0.0093469098
0.67061937 0.19304879 -0.009357864
0.67061412 0.19377846 -0.0093688183
0.67060888 0.19450814 -0.0093797715
0.67060363 0.19523783 -0.0093907267
0.67059839 0.19596751 -0.00940168
0.67059314 0.19669721 -0.0094126342
0.6705879 0.19742689 -0.0094235884
0.67058265 0.19815657 -0.0094345426
0.67057741 0.19888625 -0.0094454968
0.6705721 0.19961593 -0.0094564511
0.67056686 0.20034564 -0.0094674053
0.67056161 0.20107532 -0.0094783595
0.67055637 0.201805 -0.0094893137
0.67055112 0.20253466 -0.009500267
0.67054588 0.20326437 -0.0095112212
0.67054063 0.20399405 -0.0095221754
0.67053539 0.20472373 -0.0095331296
0.67053014 0.20545343 -0.0095440838
0.6705249 0.20618311 -0.0095550381
0.67051965 0.20691279 -0.0095659923
0.67051435 0.20764247 -0.0095769465
0.6705091 0.20837216 -0.0095879007
0.67050385 0.20910184 -0.0095988549
0.67049861 0.20983152 -0.0096098091
0.67049336 0.21056123 -0.0096207634
0.67048812 0.2112909 -0.0096317166
0.67048287 0.21202058 -0.0096426709
0.67047763 0.21275026 -0.0096536251
0.67047238 0.21347997 -0.0096645793
0.67046714 0.21420965 -0.0096755335
0.67046189 0.21493933 -0.0096864877
0.67045665 0.21566901 -0.0096974419
0.67045134 0.21639869 -0.0097083962
0.6704461 0.21712838 -0.0097193504
0.67044085 0.21785806 -0.0097303037
0.67043561 0.21858776 -0.0097412588
0.67043036 0.21931744 -0.0097522121
0.67042512 0.22004713 -0.0097631663
0.67041987 0.2207768 -0.0097741205
0.67041463 0.22150649 -0.0097850747
0.67040938 0.22223617 -0.009796029
0.67040414 0.22296585 -0.0098069832
0.67039889 0.22369556 -0.0098179374
0.67039365 0.22442524 -0.0098288916
0.66970366 0.22560066 -0.010597133
0.66969836 0.22633193 -0.010608111
0.66969311 0.22706322 -0.010619089
0.66968787 0.2277945 -0.010630067
0.66968262 0.22852577 -0.010641045
0.66967732 0.22925706 -0.010652023
0.66967207 0.22998834 -0.010663001
0.66966683 0.23071961 -0.010673979
0.66966152 0.23145087 -0.010684957
0.66965628 0.23218217 -0.010695935
0.66965103 0.23291345 -0.010706914
0.66964579 0.23364472 -0.010717891
0.66964048 0.234376 -0.01072887
0.66963524 0.23510727 -0.010739847
0.66962999 0.23583856 -0.010750826
0.66962469 0.23656984 -0.010761803
0.66961944 0.23730111 -0.010772781
0.6696142 0.23803239 -0.01078376
0.66960895 0.23876366 -0.010794737
0.66960365 0.23949496 -0.010805716
0.6695984 0.24022624 -0.010816694
0.66959316 0.2409575 -0.010827672
0.66958791 0.24168877 -0.010838649
0.66958261 0.24242006 -0.010849628
0.66957736 0.24315135 -0.010860606
0.66957211 0.24388261 -0.010871584
0.66956681 0.24461389 -0.010882562
0.67249864 -0.099823482 -0.0062856562
0.67249334 -0.099092208 -0.0062966342
0.67248809 -0.098360926 -0.0063076122
0.67248285 -0.097629659 -0.0063185901
0.6724776 -0.096898369 -0.0063295686
0.6724723 -0.096167102 -0.0063405461
0.67246705 -0.095435813 -0.0063515245
0.67246181 -0.094704539 -0.0063625025
0.6724565 -0.093973264 -0.0063734804
0.67245126 -0.093241982 -0.0063844584
0.67244601 -0.092510708 -0.0063954364
0.67244077 -0.091779418 -0.0064064148
0.67243546 -0.091048151 -0.0064173928
0.67243022 -0.090316869 -0.0064283707
0.67242497 -0.089585595 -0.0064393487
0.67241973 -0.088854313 -0.0064503266
0.67241442 -0.088123031 -0.0064613051
0.67240918 -0.087391756 -0.006472283
0.67240393 -0.086660482 -0.006483261
0.67239863 -0.0859292 -0.006494239
0.67239338 -0.085197926 -0.0065052169
0.67238814 -0.084466644 -0.0065161949
0.67238289 -0.083735369 -0.0065271729
0.67237759 -0.083004087 -0.0065381513
0.67169344 -0.082497805 -0.0072975927
0.67168814 -0.081764922 -0.0073085944
0.67168289 -0.08103206 -0.0073195966
0.67235655 -0.080078974 -0.0065820632
0.6723513 -0.0793477 -0.0065930416
0.67234606 -0.078616418 -0.0066040196
0.67234075 -0.077885143 -0.0066149975
0.67233551 -0.077153862 -0.0066259755
0.67233026 -0.07642258 -0.0066369534
0.67232502 -0.075691313 -0.0066479314
0.67231971 -0.074960023 -0.0066589098
0.67231447 -0.074228756 -0.0066698878
0.67230922 -0.073497467 -0.0066808658
0.67230392 -0.0727662 -0.0066918437
0.67229867 -0.072034918 -0.0067028217
0.67229342 -0.071303636 -0.0067137997
0.67228818 -0.070572361 -0.0067247781
0.67228287 -0.069841072 -0.0067357561
0.67227763 -0.069109805 -0.006746734
0.67227238 -0.068378523 -0.006757712
0.67226714 -0.067647249 -0.00676869
0.67226183 -0.066915967 -0.0067796679
0.67225659 -0.066184692 -0.0067906459
0.67225134 -0.06545341 -0.0068016243
0.67224604 -0.064722136 -0.0068126023
0.67224079 -0.063990854 -0.0068235802
0.67155629 -0.063443147 -0.0075836433
0.67155105 -0.062710278 -0.0075946455
0.6715458 -0.061977405 -0.0076056472
0.6715405 -0.061244532 -0.0076166494
0.67153525 -0.06051166 -0.0076276511
0.67152995 -0.059778787 -0.0076386533
0.6715247 -0.059045918 -0.0076496555
0.6715194 -0.058313046 -0.0076606572
0.67151415 -0.057580173 -0.0076716593
0.67150885 -0.056847304 -0.0076826611
0.6715036 -0.056114439 -0.0076936628
0.6714983 -0.055381559 -0.007704665
0.67149305 -0.054648694 -0.0077156671
0.67148775 -0.053915817 -0.0077266688
0.6714825 -0.053182945 -0.007737671
0.6714772 -0.052450079 -0.0077486727
0.67147195 -0.051717199 -0.0077596749
0.67146671 -0.050984338 -0.0077706766
0.6714614 -0.050251458 -0.0077816788
0.67145616 -0.049518593 -0.0077926805
0.67145085 -0.048785716 -0.0078036827
0.67144561 -0.048052844 -0.0078146849
0.6714403 -0.047319978 -0.0078256866
0.67143506 -0.046587102 -0.0078366883
0.67142975 -0.045854233 -0.007847691
0.67142451 -0.045121361 -0.0078586927
0.6714192 -0.044388492 -0.0078696944
0.67141396 -0.043655619 -0.0078806961
0.67140865 -0.042922746 -0.0078916987
0.67140341 -0.042189877 -0.0079027005
0.6713981 -0.041457005 -0.0079137022
0.67139286 -0.040724132 -0.0079247039
0.67138755 -0.03999126 -0.0079357065
0.67138231 -0.039258391 -0.0079467082
0.67137706 -0.038525518 -0.00795771
0.67137176 -0.037792645 -0.0079687117
0.67136651 -0.037059776 -0.0079797143
0.67136121 -0.036326908 -0.007990716
0.67135596 -0.035594035 -0.0080017177
0.67135066 -0.034861162 -0.0080127195
0.67134541 -0.03412829 -0.0080237221
0.67066044 -0.033513673 -0.0087848138
0.67065513 -0.032779206 -0.0087958397
0.67064983 -0.032044742 -0.0088068657
0.67064458 -0.031310279 -0.0088178916
0.67063928 -0.030575814 -0.0088289175
0.67063397 -0.02984135 -0.0088399434
0.67062873 -0.029106885 -0.0088509694
0.67062342 -0.02837242 -0.0088619953
0.67061812 -0.027637953 -0.0088730212
0.67061287 -0.026903491 -0.0088840472
0.67060757 -0.026169026 -0.0088950731
0.67060226 -0.025434563 -0.0089060981
0.67059702 -0.024700098 -0.008917124
0.67059171 -0.023965636 -0.0089281499
0.67058641 -0.023231169 -0.0089391759
0.67058116 -0.022496704 -0.0089502018
0.67057586 -0.021762237 -0.0089612277
0.67057055 -0.021027772 -0.0089722537
0.67056531 -0.02029331 -0.0089832796
0.67056 -0.019558843 -0.0089943055
0.6705547 -0.018824382 -0.0090053314
0.67054945 -0.018089917 -0.0090163574
0.67054415 -0.017355453 -0.0090273833
0.67053884 -0.016620986 -0.0090384092
0.6705336 -0.015886523 -0.0090494351
0.67052829 -0.015152056 -0.0090604611
0.67052299 -0.014417592 -0.009071487
0.67051774 -0.013683128 -0.0090825129
0.67051244 -0.012948664 -0.0090935389
0.67050713 -0.012214198 -0.0091045648
0.67050189 -0.011479734 -0.0091155898
0.67049658 -0.01074527 -0.0091266157
0.67049134 -0.010010806 -0.0091376416
0.67048603 -0.0092763398 -0.0091486676
0.67116082 -0.0084777921 -0.0084087905
0.67115557 -0.0077449209 -0.0084197922
0.67115027 -0.0070120511 -0.0084307948
0.67114502 -0.0062791775 -0.0084417965
0.67113972 -0.0055463077 -0.0084527982
0.67113447 -0.004813436 -0.0084638
0.67112917 -0.0040805642 -0.0084748026
0.67112392 -0.0033476925 -0.0084858043
0.67111868 -0.0026148211 -0.008496806
0.67111337 -0.0018819511 -0.0085078077
0.67110813 -0.0011490786 -0.0085188104
0.67110282 -0.00041620689 -0.0085298121
0.67109758 0.00031666385 -0.0085408138
0.67109227 0.0010495355 -0.0085518155
0.67108703 0.0017824062 -0.0085628182
0.67108172 0.0025152778 -0.0085738199
0.67107648 0.0032481495 -0.0085848216
0.67107117 0.0039810212 -0.0085958242
0.67106593 0.004713892 -0.008606826
0.67106062 0.0054467637 -0.0086178277
0.67105538 0.0061796349 -0.0086288294
0.67105007 0.0069125062 -0.008639832
0.67104483 0.0076453774 -0.0086508337
0.67103952 0.0083782487 -0.0086618355
0.67103428 0.0091111204 -0.0086728372
0.67102903 0.0098439921 -0.0086838398
0.67102373 0.010576863 -0.0086948415
0.67101848 0.011309735 -0.0087058432
0.67033279 0.012023133 -0.0094684185
0.67032748 0.012757597 -0.0094794445
0.67032218 0.013492062 -0.0094904704
0.67031693 0.014226527 -0.0095014963
0.67031163 0.014960991 -0.0095125223
0.67030632 0.015695456 -0.0095235473
0.67030108 0.01642992 -0.0095345732
0.67029577 0.017164385 -0.0095455991
0.67029047 0.01789885 -0.009556625
0.67028522 0.018633315 -0.009567651
0.67027992 0.019367779 -0.0095786769
0.67027462 0.020102244 -0.0095897028
0.67094994 0.020837063 -0.0088488692
0.67094463 0.021569934 -0.008859871
0.67093939 0.022302805 -0.0088708727
0.67093408 0.023035677 -0.0088818744
0.67092884 0.023768548 -0.008892877
0.67092353 0.024501421 -0.0089038787
0.67091829 0.025234291 -0.0089148805
0.67091298 0.025967162 -0.0089258822
0.67090774 0.026700033 -0.0089368848
0.67090243 0.027432904 -0.0089478865
0.67089719 0.028165776 -0.0089588882
0.67089188 0.028898647 -0.0089698909
0.67020595 0.029650282 -0.009733039
0.67020065 0.030384745 -0.0097440649
0.67019534 0.031119213 -0.0097550908
0.6701901 0.03185368 -0.0097661167
0.67018479 0.032588143 -0.0097771427
0.67017949 0.033322606 -0.0097881686
0.67017424 0.034057073 -0.0097991945
0.67016894 0.034791537 -0.0098102205
0.67016363 0.035526 -0.0098212464
0.67015839 0.036260463 -0.0098322723
0.67015308 0.03699493 -0.0098432982
0.67014784 0.037729394 -0.0098543242
0.67014253 0.038463857 -0.0098653501
0.67013723 0.03919832 -0.009876376
0.67013198 0.039932787 -0.0098874019
0.67012668 0.040667251 -0.0098984279
0.67012137 0.041401714 -0.0099094538
0.67011613 0.042136181 -0.0099204797
0.67011082 0.042870644 -0.0099315047
0.67010552 0.043605112 -0.0099425307
0.67010027 0.044339575 -0.0099535566
0.67009497 0.045074038 -0.0099645825
0.67008966 0.045808505 -0.0099756084
0.67008442 0.046542969 -0.0099866344
0.67007911 0.047277436 -0.0099976603
0.67007381 0.048011899 -0.010008686
0.67074955 0.048686173 -0.0092669437
0.67074424 0.049419045 -0.0092779454
0.670739 0.050151918 -0.0092889471
0.67073369 0.050884787 -0.0092999488
0.67072845 0.05161766 -0.0093109515
0.67072314 0.052350532 -0.0093219532
0.6707179 0.053083405 -0.0093329549
0.67071259 0.053816274 -0.0093439575
0.67070735 0.054549146 -0.0093549592
0.67070204 0.055282015 -0.009365961
0.67069679 0.056014888 -0.0093769627
0.67069155 0.056747757 -0.0093879653
0.67068624 0.05748063 -0.009398967
0.670681 0.058213506 -0.0094099687
0.67067569 0.058946375 -0.0094209705
0.67067045 0.059679244 -0.0094319731
0.67066514 0.060412116 -0.0094429748
0.6706599 0.061144989 -0.0094539765
0.67065459 0.061877862 -0.0094649782
0.67064935 0.062610731 -0.0094759809
0.67064404 0.063343599 -0.0094869826
0.6706388 0.064076476 -0.0094979843
0.67063349 0.064809345 -0.009508987
0.67062825 0.065542221 -0.0095199887
0.67062294 0.06627509 -0.0095309904
0.6706177 0.067007959 -0.0095419921
0.67061239 0.067740828 -0.0095529947
0.67060715 0.068473704 -0.0095639965
0.6706019 0.069206573 -0.0095749982
0.6705966 0.069939442 -0.0095859999
0.67059135 0.070672318 -0.0095970025
0.67058605 0.071405187 -0.0096080042
0.6705808 0.072138056 -0.009619006
0.6705755 0.072870933 -0.0096300077
0.67057025 0.073603801 -0.0096410103
0.67056495 0.074336678 -0.009652012
0.6705597 0.075069539 -0.0096630137
0.6705544 0.075802416 -0.0096740164
0.67054915 0.076535285 -0.0096850181
0.67054385 0.077268161 -0.0096960198
0.6705386 0.078001022 -0.0097070215
0.6705333 0.078733899 -0.0097180242
0.67052805 0.079466775 -0.0097290259
0.67052281 0.080199644 -0.0097400276
0.6705175 0.08093252 -0.0097510293
0.67051226 0.081665382 -0.009762032
0.67050695 0.082398258 -0.0097730337
0.67050171 0.083131127 -0.0097840354
0.6704964 0.083863996 -0.0097950371
0.67049116 0.08459688 -0.0098060397
0.67048585 0.085329741 -0.0098170415
0.67048061 0.086062618 -0.0098280432
0.6704753 0.086795487 -0.0098390449
0.67047006 0.087528355 -0.0098500475
0.67046475 0.088261232 -0.0098610492
0.67045951 0.088994101 -0.009872051
0.6704542 0.089726962 -0.0098830527
0.67044896 0.090459846 -0.0098940553
0.67044365 0.091192715 -0.009905057
0.67043841 0.091925584 -0.0099160587
0.67043316 0.09265846 -0.0099270614
0.67042786 0.093391322 -0.0099380631
0.67042261 0.094124205 -0.0099490648
0.67041731 0.094857067 -0.0099600665
0.67041206 0.095589943 -0.0099710692
0.67040676 0.09632282 -0.0099820709
0.67040151 0.097055681 -0.0099930726
0.67039621 0.097788557 -0.010004075
0.67039096 0.098521426 -0.010015077
0.67038566 0.099254303 -0.010026079
0.67038041 0.099987172 -0.01003708
0.67037511 0.10072004 -0.010048082
0.67036986 0.10145292 -0.010059085
0.67036456 0.10218579 -0.010070086
0.67035931 0.10291865 -0.010081088
0.67035407 0.10365152 -0.010092091
0.67034876 0.1043844 -0.010103093
0.67034352 0.10511727 -0.010114094
0.67033821 0.10585015 -0.010125096
0.67033297 0.10658301 -0.010136099
0.67032766 0.10731588 -0.0101471
0.67032242 0.10804876 -0.010158102
0.67031711 0.10878163 -0.010169104
0.67031187 0.1095145 -0.010180106
0.67030656 0.11024737 -0.010191108
0.67030132 0.11098024 -0.01020211
0.67029601 0.11171311 -0.010213112
0.67029077 0.11244599 -0.010224114
0.67028546 0.11317886 -0.010235116
0.67028022 0.11391173 -0.010246118
0.67027491 0.1146446 -0.01025712
0.67026967 0.11537746 -0.010268122
0.67026442 0.11611035 -0.010279124
0.67025912 0.11684321 -0.010290125
0.67025387 0.11757608 -0.010301128
0.67024857 0.11830895 -0.01031213
0.67024332 0.11904182 -0.010323131
0.67023802 0.11977471 -0.010334133
0.67023277 0.12050757 -0.010345136
0.67022747 0.12124044 -0.010356138
0.67022222 0.12197331 -0.010367139
0.67021692 0.12270618 -0.010378141
0.67021167 0.12343905 -0.010389144
0.67020637 0.12417193 -0.010400145
0.67020112 0.1249048 -0.010411147
0.67019582 0.12563767 -0.01042215
0.67019057 0.12637053 -0.010433151
0.67018527 0.12710342 -0.010444153
0.67018002 0.12783629 -0.010455155
0.67017478 0.12856916 -0.010466157
0.67016947 0.12930202 -0.010477159
0.67016423 0.13003489 -0.010488161
0.67015892 0.13076778 -0.010499164
0.67015368 0.13150065 -0.010510165
0.67014837 0.1322335 -0.010521167
0.67014313 0.13296638 -0.010532169
0.67013782 0.13369925 -0.01054317
0.67013258 0.13443212 -0.010554173
0.67012727 0.13516499 -0.010565175
0.67012203 0.13589786 -0.010576176
0.67011672 0.13663074 -0.010587179
0.67011148 0.13736361 -0.010598181
0.67010617 0.13809648 -0.010609183
0.67010093 0.13882937 -0.010620184
0.67077804 0.13930449 -0.0098754764
0.67077279 0.14003575 -0.0098864539
0.67076755 0.14076702 -0.0098974323
0.67076224 0.14149833 -0.0099084107
0.670757 0.1422296 -0.0099193882
0.67075175 0.14296088 -0.0099303667
0.67074645 0.14369215 -0.0099413441
0.6707412 0.14442343 -0.0099523226
0.67073596 0.14515471 -0.009963301
0.67073071 0.14588599 -0.0099742785
0.67072541 0.14661726 -0.0099852569
0.67072016 0.14734854 -0.0099962344
0.67071491 0.14807981 -0.010007213
0.67070967 0.14881112 -0.010018191
0.67070436 0.14954238 -0.010029169
0.67138171 0.14999202 -0.0092840781
0.67137641 0.1507217 -0.0092950324
0.67137116 0.15145139 -0.0093059866
0.67136592 0.15218107 -0.0093169408
0.67136067 0.15291075 -0.0093278941
0.67135543 0.15364045 -0.0093388483
0.67135018 0.15437013 -0.0093498025
0.67134494 0.15509981 -0.0093607567
0.67133969 0.15582949 -0.0093717109
0.67133445 0.1565592 -0.0093826652
0.6713292 0.15728888 -0.0093936194
0.67132396 0.15801854 -0.0094045736
0.67131871 0.15874824 -0.0094155278
0.67131341 0.15947792 -0.009426482
0.67130816 0.16020761 -0.0094374353
0.67130291 0.16093729 -0.0094483895
0.67129767 0.16166699 -0.0094593437
0.67129242 0.16239665 -0.009470298
0.67128718 0.16312633 -0.0094812522
0.67128193 0.16385603 -0.0094922064
0.67127669 0.16458572 -0.0095031606
0.67127144 0.1653154 -0.0095141148
0.6712662 0.16604508 -0.009525069
0.67126095 0.16677478 -0.0095360233
0.67125565 0.16750446 -0.0095469765
0.6712504 0.16823414 -0.0095579308
0.67192805 0.16864075 -0.0088121695
0.6719228 0.16936885 -0.0088231005
0.67191756 0.17009695 -0.0088340305
0.67191231 0.17082503 -0.0088449605
0.67190713 0.17155313 -0.0088558914
0.67190188 0.17228122 -0.0088668214
0.67189664 0.17300932 -0.0088777514
0.67189139 0.17373741 -0.0088886814
0.67188615 0.17446549 -0.0088996114
0.6718809 0.17519358 -0.0089105414
0.67187566 0.17592166 -0.0089214724
0.67187041 0.17664978 -0.0089324024
0.67186517 0.17737786 -0.0089433324
0.67185998 0.17810595 -0.0089542624
0.67185473 0.17883404 -0.0089651933
0.67184949 0.17956215 -0.0089761233
0.67184424 0.18029024 -0.0089870533
0.671839 0.18101832 -0.0089979833
0.67183375 0.18174641 -0.0090089142
0.67182851 0.18247449 -0.0090198442
0.67182326 0.18320259 -0.0090307742
0.67181802 0.18393068 -0.0090417042
0.67181283 0.18465878 -0.0090526352
0.67180759 0.18538687 -0.0090635652
0.67180234 0.18611497 -0.0090744952
0.6717971 0.18684305 -0.0090854252
0.67179185 0.18757115 -0.0090963552
0.67178661 0.18829924 -0.0091072861
0.67178136 0.18902732 -0.0091182161
0.67177612 0.18975542 -0.0091291461
0.67177087 0.19048351 -0.0091400761
0.67176563 0.1912116 -0.0091510061
0.67176044 0.19193968 -0.0091619371
0.67175519 0.1926678 -0.0091728671
0.67174995 0.19339588 -0.0091837971
0.6717447 0.19412397 -0.0091947271
0.67173946 0.19485207 -0.009205658
0.67173421 0.19558017 -0.009216588
0.67172897 0.19630824 -0.009227518
0.67172372 0.19703633 -0.009238448
0.67171848 0.19776443 -0.009249378
0.67171329 0.19849253 -0.0092603089
0.67170805 0.19922061 -0.0092712389
0.6717028 0.19994871 -0.0092821689
0.67169756 0.2006768 -0.0092930989
0.67169231 0.20140488 -0.0093040299
0.67168707 0.20213298 -0.0093149599
0.67168182 0.20286109 -0.0093258899
0.67167658 0.20358916 -0.0093368199
0.67167133 0.20431724 -0.0093477499
0.67166615 0.20504536 -0.0093586808
0.6716609 0.20577344 -0.0093696108
0.67165565 0.20650153 -0.0093805408
0.67165041 0.20722961 -0.0093914708
0.67164516 0.20795773 -0.0094024017
0.67163992 0.20868582 -0.0094133317
0.67163467 0.2094139 -0.0094242617
0.67162943 0.210142 -0.0094351918
0.67162418 0.21087007 -0.0094461218
0.671619 0.21159817 -0.0094570527
0.67161375 0.21232626 -0.0094679827
0.67160851 0.21305436 -0.0094789127
0.67160326 0.21378244 -0.0094898427
0.67159802 0.21451055 -0.0095007727
0.67159277 0.21523863 -0.0095117036
0.67158753 0.21596673 -0.0095226336
0.67158228 0.21669482 -0.0095335636
0.67157704 0.21742292 -0.0095444936
0.67157179 0.218151 -0.0095554246
0.67156661 0.21887909 -0.0095663546
0.67156136 0.21960717 -0.0095772846
0.67155612 0.22033526 -0.0095882146
0.67155087 0.22106338 -0.0095991455
0.67154562 0.22179146 -0.0096100755
0.67154038 0.22251955 -0.0096210055
0.67085141 0.22369021 -0.010390445
0.67084616 0.22441991 -0.010401399
0.67084092 0.22514957 -0.010412353
0.67083567 0.22587925 -0.010423307
0.67083043 0.22660895 -0.010434262
0.67082518 0.22733863 -0.010445216
0.67081988 0.22806832 -0.01045617
0.67081463 0.22879802 -0.010467124
0.67080939 0.22952768 -0.010478077
0.67080414 0.23025736 -0.010489032
0.6707989 0.23098704 -0.010499986
0.67079365 0.23171675 -0.01051094
0.67078841 0.23244643 -0.010521894
0.67078316 0.23317611 -0.010532849
0.67077792 0.23390579 -0.010543803
0.67077267 0.23463549 -0.010554757
0.67076743 0.23536517 -0.010565711
0.67076218 0.23609485 -0.010576664
0.67075688 0.23682454 -0.01058762
0.67075163 0.23755422 -0.010598573
0.67074639 0.2382839 -0.010609527
0.67074114 0.2390136 -0.010620481
0.6707359 0.23974328 -0.010631436
0.67073065 0.24047296 -0.01064239
0.67004138 0.24168342 -0.011412403
0.67003614 0.24241471 -0.01142338
0.67003089 0.243146 -0.011434359
0.67002565 0.24387726 -0.011445336
0.67002034 0.24460854 -0.011456314
0.67362982 -0.099565588 -0.0061102803
0.67362458 -0.098835915 -0.0061212345
0.67361933 -0.098106228 -0.0061321887
0.67361408 -0.09737654 -0.0061431425
0.67360884 -0.09664686 -0.0061540967
0.67360353 -0.095917173 -0.0061650509
0.67359829 -0.095187485 -0.0061760051
0.67359304 -0.094457798 -0.0061869593
0.6735878 -0.093728118 -0.0061979131
0.67358255 -0.092998423 -0.0062088673
0.67357731 -0.09226875 -0.0062198215
0.67357206 -0.091539063 -0.0062307757
0.67356682 -0.090809375 -0.0062417299
0.67288375 -0.090322219 -0.0070021348
0.6728785 -0.089590944 -0.0070131128
0.67287326 -0.088859662 -0.0070240912
0.67286795 -0.08812838 -0.0070350692
0.67286271 -0.087397106 -0.0070460471
0.67285746 -0.086665832 -0.0070570251
0.67285216 -0.08593455 -0.0070680031
0.67284691 -0.085203275 -0.007078981
0.67284167 -0.084471993 -0.0070899595
0.67283642 -0.083740719 -0.0071009374
0.67283112 -0.083009437 -0.0071119154
0.67282587 -0.082278155 -0.0071228934
0.67282063 -0.08154688 -0.0071338713
0.67281538 -0.080815598 -0.0071448497
0.67281008 -0.080084324 -0.0071558277
0.67280483 -0.079353049 -0.0071668057
0.67279959 -0.078621767 -0.0071777836
0.67279428 -0.077890493 -0.0071887616
0.67278904 -0.077159211 -0.0071997396
0.67278379 -0.076427929 -0.007210718
0.67277855 -0.075696662 -0.007221696
0.67277324 -0.074965373 -0.0072326739
0.672768 -0.074234106 -0.0072436519
0.67276275 -0.073502816 -0.0072546299
0.67275745 -0.072771549 -0.0072656078
0.67343032 -0.071837567 -0.0065265372
0.67342508 -0.071107879 -0.0065374915
0.67341977 -0.070378192 -0.0065484452
0.67273641 -0.069846421 -0.0073095202
0.67273116 -0.069115154 -0.0073204981
0.67272592 -0.068383873 -0.0073314765
0.67272067 -0.067652598 -0.007342454
0.67271537 -0.066921316 -0.0073534325
0.67271012 -0.066190042 -0.0073644104
0.67270488 -0.06545876 -0.0073753884
0.67269957 -0.064727485 -0.0073863664
0.67269433 -0.063996203 -0.0073973443
0.67268908 -0.063264929 -0.0074083228
0.67268384 -0.062533647 -0.0074193007
0.67267853 -0.061802372 -0.0074302787
0.67267329 -0.061071094 -0.0074412567
0.67266804 -0.060339808 -0.0074522346
0.67266273 -0.059608534 -0.0074632126
0.67265749 -0.058877256 -0.007474191
0.67265224 -0.058145978 -0.007485169
0.672647 -0.057414699 -0.007496147
0.67264169 -0.056683421 -0.0075071249
0.67263645 -0.055952147 -0.0075181029
0.6726312 -0.055220868 -0.0075290808
0.67262596 -0.05448959 -0.0075400588
0.67262065 -0.053758312 -0.0075510372
0.67261541 -0.053027026 -0.0075620152
0.67261016 -0.052295759 -0.0075729932
0.67260486 -0.051564474 -0.0075839711
0.67259961 -0.050833195 -0.0075949491
0.67259437 -0.050101917 -0.0076059275
0.67258912 -0.049370639 -0.0076169055
0.67258382 -0.048639365 -0.0076278835
0.67257857 -0.047908083 -0.0076388614
0.67257333 -0.047176808 -0.0076498394
0.67256802 -0.046445526 -0.0076608174
0.67256278 -0.045714252 -0.0076717953
0.67255753 -0.044982973 -0.0076827738
0.67255229 -0.044251695 -0.0076937517
0.67254698 -0.043520413 -0.0077047297
0.67254174 -0.042789135 -0.0077157076
0.67253649 -0.042057857 -0.0077266856
0.67253125 -0.041326582 -0.007737664
0.67252594 -0.040595304 -0.007748642
0.6725207 -0.039864022 -0.00775962
0.67251545 -0.039132744 -0.0077705979
0.67251015 -0.038401466 -0.0077815759
0.6725049 -0.037670191 -0.0077925539
0.67249966 -0.036938913 -0.0078035323
0.67249441 -0.036207635 -0.0078145098
0.67181045 -0.035599396 -0.0085767331
0.6718052 -0.034866527 -0.0085877348
0.6717999 -0.03413365 -0.0085987374
0.67179465 -0.033400781 -0.0086097391
0.67178935 -0.032667909 -0.0086207408
0.6717841 -0.03193504 -0.0086317426
0.6717788 -0.031202167 -0.0086427452
0.67177355 -0.030469295 -0.0086537469
0.67176825 -0.029736428 -0.0086647486
0.671763 -0.029003555 -0.0086757503
0.67175776 -0.02827068 -0.008686753
0.67175245 -0.027537808 -0.0086977547
0.67174721 -0.026804937 -0.0087087564
0.6717419 -0.026072068 -0.0087197581
0.67173666 -0.025339197 -0.0087307608
0.67173135 -0.024606325 -0.0087417625
0.67172611 -0.023873454 -0.0087527642
0.6717208 -0.023140581 -0.0087637659
0.67171556 -0.022407711 -0.0087747686
0.67171025 -0.021674838 -0.0087857703
0.67170501 -0.020941967 -0.008796772
0.6716997 -0.020209096 -0.0088077746
0.67169446 -0.019476224 -0.0088187763
0.67168915 -0.018743357 -0.0088297781
0.67168391 -0.018010484 -0.0088407798
0.67167866 -0.017277613 -0.0088517824
0.67167336 -0.016544739 -0.0088627841
0.67166811 -0.015811868 -0.0088737858
0.67166281 -0.015078995 -0.0088847876
0.67165756 -0.014346126 -0.0088957902
0.67165226 -0.013613254 -0.0089067919
0.67164701 -0.012880384 -0.0089177936
0.67164171 -0.01214751 -0.0089287953
0.67163646 -0.011414639 -0.008939798
0.67163116 -0.010681769 -0.0089507997
0.67162591 -0.0099488981 -0.0089618014
0.67162061 -0.0092160264 -0.0089728031
0.67161536 -0.0084831547 -0.0089838058
0.67161006 -0.0077502825 -0.0089948075
0.67228395 -0.0069565065 -0.0082536321
0.67227864 -0.0062252269 -0.0082646096
0.6722734 -0.0054939496 -0.008275588
0.67226815 -0.00476267 -0.0082865665
0.67226285 -0.0040313909 -0.008297544
0.6722576 -0.0033001134 -0.0083085224
0.67225236 -0.0025688359 -0.0083194999
0.67224711 -0.0018375585 -0.0083304783
0.67224181 -0.0011062792 -0.0083414558
0.67223656 -0.00037500079 -0.0083524343
0.67223132 0.00035627669 -0.0083634127
0.67222601 0.0010875551 -0.0083743902
0.67222077 0.0018188335 -0.0083853686
0.67221552 0.0025501119 -0.0083963461
0.67221028 0.0032813894 -0.0084073246
0.67220497 0.0040126676 -0.008418303
0.67219973 0.0047439463 -0.0084292805
0.67219448 0.0054752245 -0.0084402589
0.67218924 0.0062065027 -0.0084512364
0.67218393 0.0069377804 -0.0084622148
0.67217869 0.0076690586 -0.0084731923
0.67217344 0.0084003368 -0.0084841708
0.67216814 0.0091316151 -0.0084951492
0.67148352 0.0098386295 -0.0092588542
0.67147827 0.010571501 -0.0092698568
0.67147297 0.011304373 -0.0092808586
0.67146772 0.012037244 -0.0092918603
0.67146242 0.012770115 -0.009302862
0.67145717 0.013502987 -0.0093138646
0.67145187 0.014235858 -0.0093248663
0.67144662 0.01496873 -0.0093358681
0.67144132 0.015701601 -0.0093468698
0.67143607 0.016434472 -0.0093578724
0.67143077 0.017167343 -0.0093688741
0.67142552 0.017900215 -0.0093798758
0.67142028 0.018633086 -0.0093908785
0.67141497 0.019365959 -0.0094018802
0.67140973 0.02009883 -0.0094128819
0.67140442 0.0208317 -0.0094238836
0.67139918 0.021564573 -0.0094348863
0.67139387 0.022297442 -0.009445888
0.67138863 0.023030315 -0.0094568897
0.67138332 0.023763185 -0.0094678914
0.67137808 0.024496058 -0.0094788941
0.67137277 0.025228929 -0.0094898958
0.67136753 0.0259618 -0.0095008975
0.67136222 0.02669467 -0.0095118992
0.67135698 0.027427543 -0.0095229018
