# .PCD v0.7 - Point Cloud Data file format
VERSION 0.7
FIELDS x y z
SIZE 4 4 4
TYPE F F F
COUNT 1 1 1
WIDTH 1329
HEIGHT 1
VIEWPOINT 0 0 0 1 0 0 0
POINTS 1329
DATA ascii
0.60075808 0.048278172 -0.0094062258
0.60075217 0.04909867 -0.0094185434
0.60074627 0.049919169 -0.0094308602
0.60074037 0.050739668 -0.0094431778
0.60073447 0.051560163 -0.0094554955
0.60072857 0.052380662 -0.0094678123
0.60072267 0.053201158 -0.0094801299
0.60071677 0.054021657 -0.0094924476
0.60071081 0.054842152 -0.0095047653
0.60070491 0.055662651 -0.009517082
0.60069901 0.05648315 -0.0095293997
0.60069311 0.057303648 -0.0095417174
0.60068721 0.058124144 -0.009554035
0.6006813 0.058944643 -0.0095663518
0.6006754 0.059765138 -0.0095786694
0.6006695 0.060585633 -0.0095909871
0.6006636 0.061406132 -0.0096033039
0.6006577 0.062226627 -0.0096156215
0.6006518 0.063047126 -0.0096279392
0.6006459 0.063867629 -0.0096402569
0.60064 0.064688124 -0.0096525736
0.6006341 0.065508619 -0.0096648913
0.6006282 0.066329114 -0.009677209
0.6006223 0.067149617 -0.0096895257
0.6006164 0.067970112 -0.0097018434
0.60061049 0.068790607 -0.009714161
0.60060459 0.06961111 -0.0097264787
0.60059869 0.070431605 -0.0097387955
0.60059279 0.0712521 -0.0097511131
0.60058683 0.072072603 -0.0097634308
0.60058093 0.072893098 -0.0097757485
0.60057503 0.073713593 -0.0097880652
0.60056913 0.074534088 -0.0098003829
0.60056323 0.075354591 -0.0098127006
0.60055733 0.076175086 -0.0098250173
0.60055143 0.076995581 -0.009837335
0.60054553 0.077816077 -0.0098496526
0.60053962 0.078636579 -0.0098619703
0.59978914 0.079570591 -0.01054782
0.59978324 0.080392674 -0.010560161
0.59977728 0.081214763 -0.010572501
0.59977138 0.082036853 -0.010584843
0.59976548 0.082858942 -0.010597184
0.59975958 0.083681032 -0.010609525
0.59975368 0.084503129 -0.010621867
0.59974772 0.085325219 -0.010634208
0.59974182 0.086147308 -0.01064655
0.59973592 0.086969398 -0.010658891
0.59973001 0.087791488 -0.010671232
0.59972405 0.088613577 -0.010683574
0.59971815 0.089435667 -0.010695915
0.59971225 0.090257764 -0.010708257
0.59970635 0.091079846 -0.010720598
0.59970039 0.091901936 -0.010732939
0.59969449 0.092724033 -0.01074528
0.59968859 0.093546122 -0.010757621
0.59968269 0.094368212 -0.010769963
0.59967673 0.095190302 -0.010782304
0.59892601 0.096157759 -0.011468658
0.59892011 0.096981443 -0.011481023
0.59965903 0.09765657 -0.010819328
0.59965307 0.09847866 -0.01083167
0.59964716 0.099300757 -0.010844011
0.59964126 0.10012285 -0.010856353
0.59889048 0.10109986 -0.01154285
0.59888452 0.10192355 -0.011555215
0.59887862 0.10274723 -0.011567581
0.59887266 0.10357092 -0.011579946
0.59886676 0.1043946 -0.011592311
0.59886086 0.10521828 -0.011604676
0.5988549 0.10604198 -0.011617041
0.598849 0.10686565 -0.011629406
0.59884304 0.10768934 -0.011641772
0.59883714 0.10851302 -0.011654138
0.59883118 0.1093367 -0.011666503
0.59882528 0.11016038 -0.011678868
0.59881938 0.11098407 -0.011691233
0.59881341 0.11180776 -0.011703598
0.59880751 0.11263144 -0.011715963
0.59880155 0.11345512 -0.011728329
0.59879565 0.1142788 -0.011740694
0.59878969 0.11510249 -0.011753059
0.59878379 0.11592617 -0.011765424
0.59877783 0.11674985 -0.011777789
0.59877193 0.11757354 -0.011790155
0.59876603 0.11839723 -0.011802521
0.59876007 0.11922091 -0.011814886
0.59875417 0.12004459 -0.011827251
0.59874821 0.12086828 -0.011839616
0.59874231 0.12169196 -0.011851981
0.59873635 0.12251564 -0.011864346
0.59873044 0.12333933 -0.011876712
0.59872454 0.12416302 -0.011889077
0.59871858 0.12498669 -0.011901442
0.59871268 0.12581037 -0.011913807
0.59870672 0.12663406 -0.011926173
0.59870082 0.12745774 -0.011938537
0.59869486 0.12828143 -0.011950904
0.59868896 0.12910511 -0.011963269
0.59868306 0.1299288 -0.011975634
0.5994224 0.13054019 -0.011312981
0.59941649 0.13136229 -0.011325323
0.59941059 0.13218439 -0.011337664
0.59940463 0.13300647 -0.011350006
0.59939873 0.13382857 -0.011362347
0.59939283 0.13465065 -0.011374688
0.59938693 0.13547273 -0.01138703
0.59938097 0.13629483 -0.011399371
0.59937507 0.13711692 -0.011411713
0.59936917 0.13793902 -0.011424053
0.59861785 0.13898931 -0.012111652
0.59861189 0.13981301 -0.012124017
0.59860599 0.14063668 -0.012136382
0.59860009 0.14146037 -0.012148747
0.59859413 0.14228405 -0.012161112
0.59858823 0.14310774 -0.012173478
0.59858227 0.14393142 -0.012185843
0.59857637 0.14475511 -0.012198208
0.59857041 0.1455788 -0.012210573
0.59856451 0.14640246 -0.012222938
0.5985586 0.14722614 -0.012235303
0.59855264 0.14804985 -0.01224767
0.59854674 0.14887352 -0.012260035
0.59854078 0.1496972 -0.0122724
0.59928042 0.15027036 -0.011609173
0.59927452 0.15109245 -0.011621514
0.59926862 0.15191455 -0.011633856
0.59926271 0.15273663 -0.011646197
0.59925675 0.15355873 -0.011658539
0.59925085 0.15438083 -0.01167088
0.59924495 0.15520291 -0.011683221
0.59923905 0.15602499 -0.011695563
0.59923309 0.1568471 -0.011707904
0.5999729 0.15740432 -0.011044442
0.599967 0.15822482 -0.011056758
0.59996104 0.15904532 -0.011069076
0.59995514 0.15986581 -0.011081394
0.59994924 0.16068631 -0.011093711
0.59994334 0.1615068 -0.011106028
0.59993744 0.16232732 -0.011118346
0.60067737 0.16287178 -0.010454649
0.60067147 0.16369069 -0.010466943
0.60066557 0.16450959 -0.010479236
0.60065967 0.1653285 -0.010491529
0.60065377 0.1661474 -0.010503823
0.60064787 0.16696629 -0.010516116
0.6013878 0.16749963 -0.009852292
0.60138196 0.16831695 -0.0098645622
0.60137606 0.16913424 -0.0098768314
0.60137016 0.16995156 -0.0098891016
0.60136431 0.17076889 -0.0099013709
0.60061252 0.17187972 -0.010589877
0.60060662 0.17269862 -0.010602171
0.60060078 0.17351753 -0.010614465
0.60059488 0.17433643 -0.010626758
0.60058898 0.17515533 -0.010639051
0.60058308 0.17597425 -0.010651345
0.59983116 0.17709626 -0.011340059
0.59982526 0.17791677 -0.011352377
0.59981936 0.17873725 -0.011364694
0.59981346 0.17955776 -0.011377011
0.59980756 0.18037826 -0.011389329
0.59980166 0.18119875 -0.011401647
0.59979576 0.18201923 -0.011413964
0.59978986 0.18283975 -0.011426281
0.59978396 0.18366024 -0.011438599
0.59977806 0.18448074 -0.011450917
0.59977216 0.18530124 -0.011463233
0.59976625 0.18612173 -0.011475551
0.59976035 0.18694223 -0.011487869
0.59975445 0.18776272 -0.011500185
0.59974855 0.18858323 -0.011512503
0.59974265 0.18940373 -0.011524821
0.59973675 0.19022422 -0.011537138
0.59973085 0.19104473 -0.011549456
0.59972495 0.19186522 -0.011561773
0.59971905 0.19268571 -0.01157409
0.59971315 0.19350621 -0.011586407
0.60045344 0.19399014 -0.010921802
0.60044754 0.19480903 -0.010934096
0.60044163 0.19562794 -0.010946389
0.60043579 0.19644685 -0.010958683
0.60042989 0.19726576 -0.010970976
0.60042399 0.19808465 -0.01098327
0.60041809 0.19890355 -0.010995563
0.60041219 0.19972247 -0.011007857
0.60040629 0.20054136 -0.01102015
0.60040045 0.20136027 -0.011032443
0.60039455 0.20217918 -0.011044737
0.60038865 0.20299807 -0.01105703
0.60038275 0.20381698 -0.011069324
0.60037684 0.20463587 -0.011081617
0.60037094 0.20545478 -0.011093911
0.60036504 0.2062737 -0.011106204
0.6003592 0.2070926 -0.011118498
0.6003533 0.20791151 -0.011130791
0.6003474 0.20873041 -0.011143085
0.6003415 0.20954931 -0.011155378
0.6003356 0.21036822 -0.011167672
0.6003297 0.21118712 -0.011179965
0.6003238 0.21200603 -0.011192258
0.60106438 0.21245173 -0.010527119
0.60105848 0.21326904 -0.010539388
0.60105264 0.21408635 -0.010551658
0.60104674 0.21490365 -0.010563928
0.60104084 0.21572097 -0.010576197
0.601035 0.2165383 -0.010588467
0.6010291 0.21735561 -0.010600736
0.6010232 0.21817291 -0.010613007
0.60101736 0.21899021 -0.010625276
0.60101146 0.21980754 -0.010637545
0.60100555 0.22062483 -0.010649815
0.60099971 0.22144215 -0.010662084
0.60099381 0.22225946 -0.010674354
0.60098791 0.22307678 -0.010686624
0.60098207 0.22389409 -0.010698893
0.60097617 0.22471139 -0.010711162
0.60097027 0.22552872 -0.010723433
0.60096443 0.22634602 -0.010735702
0.60095853 0.22716331 -0.010747971
0.60095263 0.22798064 -0.010760241
0.60094678 0.22879794 -0.01077251
0.60094088 0.22961527 -0.010784781
0.60093498 0.23043257 -0.01079705
0.60092914 0.23124988 -0.01080932
0.60092324 0.2320672 -0.010821589
0.60091734 0.2328845 -0.010833859
0.6009115 0.23370183 -0.010846129
0.6009056 0.23451912 -0.010858398
0.6008997 0.23533642 -0.010870667
0.60089386 0.23615375 -0.010882937
0.60088795 0.23697107 -0.010895207
0.60088205 0.23778838 -0.010907476
0.60087621 0.23860568 -0.010919746
0.60087031 0.23942298 -0.010932015
0.60086441 0.24024031 -0.010944284
0.60085857 0.2410576 -0.010956555
0.60085267 0.24187492 -0.010968824
0.60084677 0.24269225 -0.010981094
0.60084093 0.24350955 -0.010993363
0.60083503 0.24432686 -0.011005633
0.60082912 0.24514416 -0.011017902
0.60082328 0.24596149 -0.011030172
0.60081738 0.24677879 -0.011042441
0.60081148 0.24759609 -0.01105471
0.60080564 0.24841341 -0.011066981
0.60079974 0.24923073 -0.01107925
0.60079384 0.25004804 -0.01109152
0.600788 0.25086534 -0.011103789
0.6007821 0.25168267 -0.011116059
0.6007762 0.25249997 -0.011128329
0.60077035 0.25331727 -0.011140598
0.60076445 0.2541346 -0.011152867
0.60001153 0.25540793 -0.011843814
0.60000563 0.25622684 -0.011856107
0.59999973 0.25704575 -0.0118684
0.59999388 0.25786465 -0.011880695
0.59998798 0.25868356 -0.011892988
0.59998208 0.25950244 -0.011905282
0.59997618 0.26032138 -0.011917575
0.59997028 0.26114026 -0.011929869
0.59996438 0.26195917 -0.011942162
0.59995848 0.26277807 -0.011954456
0.59995264 0.26359698 -0.011966749
0.59994674 0.26441589 -0.011979043
0.59994084 0.26523477 -0.011991336
0.59993494 0.26605368 -0.012003629
0.59992903 0.26687261 -0.012015923
0.59992313 0.26769149 -0.012028216
0.59991723 0.2685104 -0.01204051
0.59991139 0.26932931 -0.012052803
0.59990549 0.27014819 -0.012065097
0.59989959 0.27096713 -0.01207739
0.59989369 0.271786 -0.012089684
0.59988779 0.27260491 -0.012101977
0.59988189 0.27342385 -0.012114272
0.60232961 -0.099417351 -0.0078328513
0.60232371 -0.098596856 -0.007845168
0.60231775 -0.097776353 -0.0078574857
0.60231185 -0.096955866 -0.0078698033
0.60230595 -0.096135363 -0.007882121
0.60230005 -0.09531486 -0.0078944378
0.60229415 -0.094494373 -0.0079067554
0.60228825 -0.09367387 -0.0079190731
0.60228235 -0.092853375 -0.0079313908
0.60227644 -0.092032872 -0.0079437075
0.60227054 -0.091212384 -0.0079560252
0.60226464 -0.090391882 -0.0079683429
0.60225874 -0.089571387 -0.0079806596
0.60225284 -0.088750884 -0.0079929773
0.60224694 -0.087930389 -0.0080052949
0.60149974 -0.087319814 -0.00868754
0.60149384 -0.086497717 -0.0086998809
0.60148793 -0.085675634 -0.0087122219
0.60148203 -0.084853537 -0.0087245638
0.60147607 -0.084031448 -0.0087369047
0.60147017 -0.083209358 -0.0087492466
0.60146427 -0.082387269 -0.0087615876
0.60145837 -0.081565179 -0.0087739285
0.60145247 -0.080743082 -0.0087862704
0.60144651 -0.079921 -0.0087986114
0.60144061 -0.079098903 -0.0088109532
0.60143471 -0.078276813 -0.0088232942
0.60068738 -0.077645525 -0.0095058503
0.60068142 -0.076821849 -0.0095182154
0.60067552 -0.075998157 -0.0095305806
0.60066956 -0.075174473 -0.0095429458
0.60066366 -0.074350797 -0.0095553109
0.60065776 -0.073527105 -0.0095676761
0.6006518 -0.072703421 -0.0095800413
0.6006459 -0.071879745 -0.0095924065
0.60063994 -0.07105606 -0.0096047716
0.60063404 -0.070232369 -0.0096171368
0.60062808 -0.069408685 -0.0096295029
0.60062218 -0.068585008 -0.0096418681
0.60061628 -0.067761317 -0.0096542332
0.60061032 -0.066937633 -0.0096665984
0.60060441 -0.066113956 -0.0096789636
0.60059845 -0.065290272 -0.0096913287
0.60059255 -0.064466581 -0.0097036939
0.60058659 -0.063642912 -0.0097160591
0.60058069 -0.06281922 -0.0097284243
0.60057479 -0.061995532 -0.0097407894
0.60056883 -0.061171848 -0.0097531546
0.60056293 -0.060348168 -0.0097655198
0.60055697 -0.059524488 -0.0097778849
0.60055107 -0.058700796 -0.009790251
0.60054511 -0.057877123 -0.0098026162
0.60053921 -0.057053432 -0.0098149814
0.60053331 -0.056229744 -0.0098273465
0.60052735 -0.055406064 -0.0098397117
0.60052145 -0.05458238 -0.0098520769
0.60051548 -0.053758699 -0.0098644421
0.60050958 -0.052935012 -0.0098768072
0.60050362 -0.052111335 -0.0098891724
0.60049772 -0.051287647 -0.0099015376
0.60049182 -0.050463967 -0.0099139027
0.60048586 -0.049640276 -0.0099262688
0.60047996 -0.048816599 -0.009938634
0.600474 -0.047992911 -0.0099509992
0.6004681 -0.047169227 -0.0099633643
0.60046214 -0.046345543 -0.0099757295
0.60045624 -0.045521859 -0.0099880947
0.60045034 -0.044698175 -0.01000046
0.60044438 -0.043874495 -0.010012825
0.60043848 -0.043050811 -0.01002519
0.60043252 -0.042227127 -0.010037555
0.60116851 -0.041282743 -0.009378654
0.60116261 -0.040460646 -0.0093909958
0.60115671 -0.03963856 -0.0094033368
0.60115075 -0.038816467 -0.0094156777
0.60114485 -0.037994377 -0.0094280196
0.60113895 -0.037172291 -0.0094403606
0.60113305 -0.036350198 -0.0094527025
0.60112709 -0.035528108 -0.0094650434
0.60112119 -0.034706019 -0.0094773844
0.60037327 -0.033990286 -0.010161208
0.60036731 -0.033166606 -0.010173573
0.60036141 -0.032342922 -0.010185938
0.60035551 -0.031519238 -0.010198303
0.60034955 -0.030695554 -0.010210669
0.60034364 -0.029871872 -0.010223034
0.60033768 -0.029048186 -0.0102354
0.60033178 -0.028224505 -0.010247765
0.60032582 -0.02740082 -0.01026013
0.60031992 -0.026577134 -0.010272495
0.60031402 -0.025753452 -0.010284861
0.60030806 -0.024929767 -0.010297226
0.60030216 -0.024106085 -0.010309591
0.6010384 -0.023196751 -0.0096501634
0.6010325 -0.02237466 -0.0096625043
0.60102654 -0.021552568 -0.0096748462
0.60102063 -0.020730477 -0.0096871872
0.60101473 -0.019908385 -0.009699529
0.60100883 -0.019086294 -0.00971187
0.60100287 -0.018264208 -0.0097242109
0.60099697 -0.017442117 -0.0097365528
0.60099107 -0.016620025 -0.0097488938
0.60098517 -0.015797934 -0.0097612357
0.60097921 -0.014975844 -0.0097735766
0.60097331 -0.014153753 -0.0097859176
0.60096741 -0.013331664 -0.0097982595
0.60096151 -0.01250957 -0.0098106004
0.60095555 -0.011687482 -0.0098229423
0.60094965 -0.010865392 -0.0098352833
0.60094374 -0.010043301 -0.0098476242
0.60093784 -0.0092212101 -0.0098599661
0.60093188 -0.0083991187 -0.0098723071
0.60092598 -0.0075770291 -0.009884649
0.60092008 -0.006754938 -0.0098969899
0.60091418 -0.005932847 -0.0099093309
0.60090822 -0.0051107574 -0.0099216728
0.60090232 -0.0042886683 -0.0099340137
0.60089642 -0.0034665752 -0.0099463556
0.60089052 -0.0026444858 -0.0099586966
0.60088462 -0.0018223955 -0.0099710375
0.60087866 -0.0010003044 -0.0099833794
0.60087276 -0.00017821409 -0.0099957203
0.60086685 0.00064387708 -0.010008062
0.60086095 0.0014659665 -0.010020403
0.60085499 0.0022880577 -0.010032744
0.60084909 0.0031101478 -0.010045086
0.60158575 0.0039653159 -0.0093848454
0.60157984 0.0047858129 -0.0093971621
0.60157394 0.0056063095 -0.0094094798
0.60156804 0.006426807 -0.0094217975
0.60156208 0.0072473045 -0.0094341151
0.60155618 0.0080678016 -0.0094464319
0.60155028 0.0088882986 -0.0094587496
0.60228705 0.0097307228 -0.0087982742
0.60228115 0.010549626 -0.0088105686
0.60227525 0.011368531 -0.0088228621
0.60226941 0.012187434 -0.0088351555
0.60226351 0.013006339 -0.008847449
0.60225761 0.013825242 -0.0088597424
0.60225171 0.014644147 -0.0088720359
0.60224581 0.015463051 -0.0088843293
0.60223991 0.016281955 -0.0088966228
0.60223401 0.017100859 -0.0089089163
0.60222816 0.017919764 -0.0089212097
0.60222226 0.018738668 -0.0089335032
0.60221636 0.019557571 -0.0089457966
0.60221046 0.020376476 -0.0089580901
0.60220456 0.02119538 -0.0089703836
0.60219866 0.022014283 -0.008982677
0.60219282 0.022833187 -0.0089949705
0.60218692 0.023652092 -0.0090072639
0.60218102 0.024470996 -0.0090195574
0.60217512 0.025289901 -0.0090318508
0.60216922 0.026108803 -0.0090441443
0.60216331 0.026927708 -0.0090564378
0.60215741 0.027746612 -0.0090687312
0.6014086 0.028580237 -0.0097543672
0.6014027 0.029400734 -0.0097666848
0.6013968 0.030221231 -0.0097790025
0.6013909 0.031041728 -0.0097913202
0.601385 0.031862225 -0.0098036369
0.6013791 0.032682724 -0.0098159546
0.6013732 0.033503219 -0.0098282723
0.60136729 0.034323718 -0.009840589
0.60136139 0.035144214 -0.0098529067
0.60135549 0.035964713 -0.0098652244
0.60134959 0.036785211 -0.009877542
0.60134369 0.037605707 -0.0098898588
0.60133779 0.038426206 -0.0099021764
0.60133189 0.039246704 -0.0099144941
0.60132599 0.0400672 -0.0099268109
0.60132009 0.040887695 -0.0099391285
0.60131413 0.041708194 -0.0099514462
0.60130823 0.042528693 -0.0099637639
0.60130233 0.043349188 -0.0099760806
0.60129642 0.044169683 -0.0099883983
0.60129052 0.044990182 -0.010000716
0.60128462 0.045810681 -0.010013034
0.60127872 0.04663118 -0.01002535
0.60201603 0.047400311 -0.0093637751
0.60201013 0.048219215 -0.0093760686
0.60200423 0.049038116 -0.0093883621
0.60199833 0.049857024 -0.0094006555
0.60199243 0.050675929 -0.009412949
0.60198659 0.051494833 -0.0094252424
0.60198069 0.052313734 -0.0094375359
0.60197479 0.053132638 -0.0094498303
0.60196888 0.053951543 -0.0094621237
0.60196298 0.054770447 -0.0094744172
0.60195708 0.055589348 -0.0094867107
0.60195118 0.056408256 -0.0094990041
0.60194534 0.057227161 -0.0095112976
0.60193944 0.058046065 -0.009523591
0.60193354 0.05886497 -0.0095358845
0.60192764 0.059683871 -0.0095481779
0.60192174 0.060502775 -0.0095604714
0.60191584 0.06132168 -0.0095727649
0.60190994 0.062140584 -0.0095850583
0.60190409 0.062959492 -0.0095973518
0.60189819 0.063778393 -0.0096096452
0.60189229 0.064597294 -0.0096219387
0.60188639 0.065416202 -0.0096342321
0.60188049 0.066235103 -0.0096465256
0.60187459 0.067054011 -0.0096588191
0.60186875 0.067872912 -0.0096711125
0.60186285 0.06869182 -0.009683406
0.60185695 0.069510721 -0.0096956994
0.60185105 0.070329629 -0.0097079929
0.60184515 0.07114853 -0.0097202864
0.60183924 0.07196743 -0.0097325798
0.60183334 0.072786339 -0.0097448733
0.6018275 0.073605239 -0.0097571677
0.6018216 0.07442414 -0.0097694611
0.6018157 0.075243048 -0.0097817546
0.6018098 0.076061957 -0.009794048
0.60106027 0.076989576 -0.010481095
0.60105437 0.077810071 -0.010493413
0.60104847 0.078630574 -0.010505729
0.60104257 0.079451077 -0.010518047
0.60103667 0.080271564 -0.010530365
0.60103077 0.081092067 -0.010542682
0.60102487 0.081912562 -0.010554999
0.60101897 0.082733065 -0.010567317
0.60101306 0.083553553 -0.010579634
0.60100716 0.084374055 -0.010591951
0.60100126 0.08519455 -0.010604269
0.60099536 0.086015053 -0.010616587
0.60098946 0.086835548 -0.010628904
0.60098356 0.087656043 -0.010641221
0.60097766 0.088476546 -0.010653539
0.60097176 0.089297041 -0.010665856
0.60096586 0.090117536 -0.010678173
0.60095996 0.090938032 -0.010690491
0.60095406 0.091758534 -0.010702808
0.60094815 0.09257903 -0.010715126
0.60094225 0.093399525 -0.010727443
0.60093629 0.094220027 -0.01073976
0.60093039 0.095040523 -0.010752078
0.60092449 0.095861018 -0.010764396
0.60091859 0.096681513 -0.010776713
0.60091269 0.097502016 -0.01078903
0.60090679 0.098322511 -0.010801348
0.60090089 0.099143006 -0.010813665
0.60089499 0.099963509 -0.010825982
0.60014522 0.10093892 -0.011513704
0.60013926 0.10176101 -0.011526045
0.60013336 0.1025831 -0.011538386
0.60012746 0.10340519 -0.011550728
0.60012156 0.10422728 -0.011563069
0.6001156 0.10504937 -0.011575411
0.6001097 0.10587147 -0.011587752
0.6001038 0.10669356 -0.011600094
0.60009789 0.10751565 -0.011612435
0.60009193 0.10833773 -0.011624776
0.60008603 0.10915983 -0.011637118
0.60008013 0.10998192 -0.011649459
0.60007423 0.11080401 -0.011661801
0.60006827 0.1116261 -0.011674142
0.60006237 0.11244819 -0.011686482
0.60005647 0.11327028 -0.011698824
0.60005057 0.11409236 -0.011711165
0.60004467 0.11491446 -0.011723507
0.60003871 0.11573655 -0.011735848
0.60003281 0.11655864 -0.011748189
0.60002691 0.11738073 -0.011760531
0.600021 0.11820283 -0.011772872
0.60001504 0.11902491 -0.011785214
0.60000914 0.119847 -0.011797555
0.60000324 0.1206691 -0.011809896
0.59999734 0.12149119 -0.011822238
0.59999138 0.12231328 -0.011834579
0.59998548 0.12313537 -0.01184692
0.59997958 0.12395746 -0.011859261
0.59997368 0.12477954 -0.011871602
0.59996772 0.12560163 -0.011883944
0.59996182 0.12642373 -0.011896285
0.59995592 0.12724581 -0.011908627
0.59995002 0.12806791 -0.011920968
0.59994406 0.12888999 -0.011933309
0.60068244 0.1295014 -0.011269409
0.60067654 0.13032191 -0.011281727
0.60067064 0.13114241 -0.011294044
0.60066473 0.13196291 -0.011306361
0.60065883 0.1327834 -0.011318679
0.60065293 0.1336039 -0.011330997
0.60064703 0.13442439 -0.011343313
0.60064113 0.13524489 -0.011355631
0.60063523 0.13606538 -0.011367949
0.59988493 0.1371109 -0.012056722
0.59987903 0.137933 -0.012069064
0.59987313 0.13875508 -0.012081405
0.59986717 0.13957718 -0.012093747
0.59986126 0.14039926 -0.012106088
0.59985536 0.14122136 -0.01211843
0.59984946 0.14204346 -0.012130771
0.5998435 0.14286554 -0.012143112
0.5998376 0.14368762 -0.012155454
0.5998317 0.14450973 -0.012167795
0.5998258 0.14533181 -0.012180137
0.59981984 0.1461539 -0.012192477
0.59981394 0.14697599 -0.012204818
0.59980804 0.14779809 -0.01221716
0.59980214 0.14862019 -0.012229501
0.59979618 0.14944226 -0.012241842
0.59979028 0.15026434 -0.012254184
0.60052896 0.15083435 -0.011589662
0.60052305 0.15165484 -0.01160198
0.60051715 0.15247533 -0.011614297
0.60051125 0.15329584 -0.011626614
0.60050535 0.15411633 -0.011638932
0.60049945 0.15493682 -0.011651249
0.60049355 0.15575732 -0.011663566
0.60048765 0.15657783 -0.011675884
0.60048175 0.15739833 -0.011688202
0.60047585 0.15821882 -0.011700518
0.60121471 0.15877126 -0.011035691
0.60120881 0.15959017 -0.011047984
0.60120291 0.16040906 -0.011060278
0.601197 0.16122797 -0.01107257
0.6011911 0.16204689 -0.011084865
0.60192996 0.16258979 -0.010419936
0.60192412 0.16340709 -0.010432205
0.60191822 0.16422442 -0.010444475
0.60191232 0.16504173 -0.010456745
0.60190648 0.16585903 -0.010469015
0.60190058 0.16667634 -0.010481284
0.60263956 0.16720809 -0.0098161884
0.60263366 0.16802381 -0.0098284334
0.60262781 0.16883953 -0.0098406794
0.60262191 0.16965525 -0.0098529253
0.60261607 0.17047097 -0.0098651703
0.60261017 0.17128667 -0.0098774163
0.60185945 0.17239751 -0.010567171
0.60185355 0.17321484 -0.010579441
0.60184765 0.17403214 -0.01059171
0.60184181 0.17484945 -0.010603979
0.60183591 0.17566676 -0.010616249
0.60183001 0.17648406 -0.010628519
0.60107917 0.17760606 -0.011318441
0.60107327 0.17842497 -0.011330735
0.60106736 0.17924388 -0.011343028
0.60106146 0.18006277 -0.011355322
0.60105562 0.18088168 -0.011367615
0.60104972 0.18170057 -0.011379909
0.60104382 0.1825195 -0.011392202
0.60103792 0.18333839 -0.011404496
0.60103202 0.18415728 -0.011416789
0.60102612 0.18497621 -0.011429083
0.60102022 0.1857951 -0.011441376
0.60101438 0.18661401 -0.01145367
0.60100847 0.1874329 -0.011465963
0.60100257 0.18825181 -0.011478256
0.60099667 0.18907072 -0.01149055
0.60099077 0.18988961 -0.011502843
0.60098487 0.19070852 -0.011515137
0.60097897 0.19152744 -0.01152743
0.60097313 0.19234633 -0.011539724
0.60171241 0.19283028 -0.01087391
0.6017065 0.19364761 -0.01088618
0.60170066 0.19446491 -0.010898449
0.60169476 0.19528222 -0.010910719
0.60168886 0.19609953 -0.010922989
0.60168302 0.19691685 -0.010935258
0.60167712 0.19773416 -0.010947528
0.60167122 0.19855146 -0.010959798
0.60166538 0.19936879 -0.010972067
0.60165948 0.20018609 -0.010984337
0.60239887 0.20065251 -0.01031826
0.60239303 0.20146824 -0.010330506
0.60238719 0.20228396 -0.010342752
0.60163593 0.20345534 -0.011033415
0.60163009 0.20427264 -0.011045684
0.60162419 0.20508996 -0.011057954
0.60161829 0.20590727 -0.011070224
0.60161245 0.20672457 -0.011082493
0.60160655 0.20754188 -0.011094763
0.60160065 0.2083592 -0.011107032
0.60159481 0.2091765 -0.011119301
0.6015889 0.20999382 -0.011131572
0.601583 0.21081114 -0.011143841
0.60157716 0.21162845 -0.011156111
0.60157126 0.21244575 -0.01116838
0.60156536 0.21326305 -0.01118065
0.60155952 0.21408038 -0.01119292
0.60155362 0.21489768 -0.011205189
0.60229325 0.21533544 -0.010538682
0.60228741 0.21615116 -0.010550927
0.60228151 0.21696687 -0.010563173
0.60227567 0.21778259 -0.010575418
0.60226977 0.21859829 -0.010587664
0.60226393 0.21941404 -0.01059991
0.60225803 0.22022974 -0.010612156
0.60225219 0.22104546 -0.010624401
0.60224628 0.22186118 -0.010636647
0.60224044 0.22267689 -0.010648893
0.60223454 0.22349262 -0.010661138
0.6022287 0.22430833 -0.010673384
0.6022228 0.22512406 -0.01068563
0.60221696 0.22593977 -0.010697875
0.60221106 0.22675547 -0.010710121
0.60220522 0.22757122 -0.010722367
0.60219938 0.22838692 -0.010734612
0.60219347 0.22920264 -0.010746858
0.60218763 0.23001835 -0.010759104
0.60218173 0.23083408 -0.010771349
0.60217589 0.2316498 -0.010783595
0.60216999 0.23246551 -0.010795841
0.60216415 0.23328124 -0.010808087
0.60215825 0.23409694 -0.010820332
0.60215241 0.23491266 -0.010832578
0.60214651 0.23572838 -0.010844824
0.60214067 0.2365441 -0.010857069
0.60213476 0.23735982 -0.010869315
0.60212892 0.23817553 -0.01088156
0.60212302 0.23899125 -0.010893806
0.60211718 0.23980696 -0.010906052
0.60211128 0.2406227 -0.010918298
0.60210544 0.2414384 -0.010930543
0.6020996 0.24225412 -0.010942789
0.6020937 0.24306984 -0.010955035
0.60208786 0.24388555 -0.01096728
0.60208195 0.24470128 -0.010979526
0.60207611 0.245517 -0.010991772
0.60207021 0.24633271 -0.011004017
0.60206437 0.24714842 -0.011016263
0.60205847 0.24796414 -0.011028509
0.60205263 0.24877988 -0.011040754
0.60130078 0.25004205 -0.011732781
0.60204089 0.2504113 -0.011065246
0.60203499 0.25122702 -0.011077491
0.60128313 0.25249398 -0.01176959
0.60127723 0.25331128 -0.011781859
0.60127133 0.25412861 -0.011794128
0.60126549 0.2549459 -0.011806399
0.60125959 0.25576323 -0.011818668
0.60125369 0.25658053 -0.011830937
0.60124785 0.25739786 -0.011843207
0.60124195 0.25821516 -0.011855477
0.60123605 0.25903246 -0.011867746
0.6012302 0.25984979 -0.011880016
0.6012243 0.26066709 -0.011892285
0.6012184 0.26148438 -0.011904554
0.60121256 0.26230171 -0.011916825
0.60120666 0.26311901 -0.011929094
0.60120076 0.26393634 -0.011941363
0.60119492 0.26475364 -0.011953633
0.60118902 0.26557097 -0.011965903
0.60118312 0.26638827 -0.011978173
0.60117728 0.26720557 -0.011990442
0.60117137 0.26802289 -0.012002711
0.60116547 0.26884022 -0.012014981
0.60115963 0.26965752 -0.012027251
0.60115373 0.27047482 -0.01203952
0.60114783 0.27129212 -0.01205179
0.60114199 0.27210945 -0.012064059
0.60113609 0.27292678 -0.012076329
0.60357863 -0.099189512 -0.0078057516
0.60357273 -0.098370604 -0.0078180451
0.60356683 -0.097551703 -0.0078303386
0.60356092 -0.096732803 -0.007842632
0.60355502 -0.095913894 -0.0078549255
0.60354912 -0.095094986 -0.0078672189
0.60354322 -0.094276085 -0.0078795124
0.60353738 -0.093457185 -0.0078918058
0.60353148 -0.092638284 -0.0079040993
0.60352558 -0.091819376 -0.0079163928
0.60277939 -0.091218382 -0.0085997852
0.60277349 -0.090397879 -0.0086121028
0.60276759 -0.089577392 -0.0086244196
0.60276169 -0.088756889 -0.0086367372
0.60275578 -0.087936386 -0.0086490549
0.60274988 -0.087115899 -0.0086613717
0.60274398 -0.086295396 -0.0086736893
0.60273808 -0.085474901 -0.008686007
0.60273218 -0.084654398 -0.0086983247
0.60272628 -0.083833911 -0.0087106414
0.60272038 -0.083013408 -0.0087229591
0.60271448 -0.082192905 -0.0087352768
0.60270858 -0.08137241 -0.0087475944
0.60270268 -0.080551915 -0.0087599112
0.60269678 -0.07973142 -0.0087722288
0.60269088 -0.078910917 -0.0087845465
0.60268497 -0.078090422 -0.0087968633
0.60267907 -0.077269927 -0.0088091809
0.60267317 -0.076449431 -0.0088214986
0.6019268 -0.075816557 -0.0095053287
0.6019209 -0.074994467 -0.0095176706
0.60191494 -0.074172378 -0.0095300116
0.60190904 -0.073350281 -0.0095423525
0.60190314 -0.072528198 -0.0095546944
0.60189724 -0.071706101 -0.0095670354
0.60189128 -0.070884019 -0.0095793763
0.60188538 -0.070061922 -0.0095917182
0.60187948 -0.069239832 -0.0096040592
0.60187358 -0.068417743 -0.009616401
0.60186768 -0.067595646 -0.009628742
0.60186172 -0.066773564 -0.0096410839
0.60185581 -0.065951474 -0.0096534248
0.60184991 -0.065129384 -0.0096657658
0.60184401 -0.064307287 -0.0096781077
0.60183805 -0.063485205 -0.0096904486
0.60183215 -0.062663108 -0.0097027905
0.60182625 -0.061841015 -0.0097151315
0.60182035 -0.061018925 -0.0097274724
0.60181439 -0.060196839 -0.0097398143
0.60180849 -0.05937475 -0.0097521553
0.60180259 -0.058552656 -0.0097644972
0.60179669 -0.05773057 -0.0097768381
0.60179073 -0.056908473 -0.0097891791
0.60178483 -0.05608638 -0.009801521
0.60177892 -0.055264298 -0.0098138619
0.60177302 -0.054442205 -0.0098262038
0.60176706 -0.053620115 -0.0098385448
0.60176116 -0.052798022 -0.0098508857
0.60175526 -0.051975936 -0.0098632276
0.60174936 -0.051153839 -0.0098755686
0.6017434 -0.050331753 -0.0098879104
0.6017375 -0.049509663 -0.0099002514
0.6017316 -0.04868757 -0.0099125924
0.6017257 -0.047865484 -0.0099249342
0.6017198 -0.047043387 -0.0099372752
0.60171384 -0.046221297 -0.0099496171
0.60170794 -0.045399208 -0.009961958
0.60170203 -0.044577118 -0.009974299
0.60169613 -0.043755025 -0.0099866409
0.60169017 -0.042932939 -0.0099989818
0.60242522 -0.041988544 -0.0093388297
0.60241932 -0.041168045 -0.0093511473
0.60241336 -0.040347546 -0.009363465
0.60240746 -0.039527047 -0.0093757818
0.60240155 -0.038706552 -0.0093880994
0.60239565 -0.037886053 -0.0094004171
0.60238975 -0.037065558 -0.0094127338
0.60238385 -0.036245059 -0.0094250515
0.60237795 -0.035424564 -0.0094373692
0.60237205 -0.034604065 -0.0094496869
0.60162514 -0.033889938 -0.010134737
0.60161918 -0.033067849 -0.010147078
0.60161328 -0.032245755 -0.01015942
0.60160738 -0.031423669 -0.010171761
0.60160148 -0.030601578 -0.010184102
0.60159558 -0.029779486 -0.010196444
0.60158962 -0.0289574 -0.010208785
0.60158372 -0.028135309 -0.010221126
0.60157782 -0.027313214 -0.010233467
0.60157192 -0.026491126 -0.010245808
0.60156596 -0.025669035 -0.01025815
0.60156006 -0.024846943 -0.010270491
0.60155416 -0.024024857 -0.010282832
0.60228938 -0.023117101 -0.0096221305
0.60228348 -0.022296604 -0.0096344473
0.60227758 -0.021476107 -0.009646765
0.60227168 -0.020655606 -0.0096590826
0.60226578 -0.019835109 -0.0096714003
0.60225987 -0.019014612 -0.009683717
0.60225397 -0.018194117 -0.0096960347
0.60224807 -0.01737362 -0.0097083524
0.60224217 -0.016553123 -0.0097206691
0.60223627 -0.015732624 -0.0097329868
0.60223037 -0.014912127 -0.0097453045
0.60222447 -0.01409163 -0.0097576221
0.60221857 -0.013271133 -0.0097699389
0.60221267 -0.012450635 -0.0097822566
0.60220677 -0.011630137 -0.0097945742
0.60220087 -0.01080964 -0.0098068919
0.60219496 -0.0099891433 -0.0098192086
0.60218906 -0.0091686444 -0.0098315263
0.60218316 -0.0083481474 -0.009843844
0.60217726 -0.0075276503 -0.0098561607
0.60217136 -0.0067071514 -0.0098684784
0.6021654 -0.0058866548 -0.0098807961
0.6021595 -0.0050661596 -0.0098931137
0.6021536 -0.0042456626 -0.0099054305
0.6021477 -0.0034251637 -0.0099177482
0.6021418 -0.0026046666 -0.0099300658
0.6021359 -0.0017841688 -0.0099423826
0.60213 -0.00096367177 -0.0099547002
0.60212409 -0.0001431748 -0.0099670179
0.60211819 0.00067732314 -0.0099793356
0.60211229 0.0014978201 -0.0099916523
0.60210639 0.002318318 -0.01000397
0.60210049 0.0031388151 -0.010016288
0.60209459 0.003959313 -0.010028605
0.60283029 0.0048113069 -0.0093670255
0.60282439 0.0056302105 -0.0093793189
0.60281849 0.0064491145 -0.0093916124
0.60281259 0.007268019 -0.0094039058
0.60280675 0.0080869235 -0.0094161993
0.60280085 0.0089058271 -0.0094284927
0.60353655 0.009746667 -0.0087667834
0.6035307 0.010563978 -0.0087790526
0.6035248 0.011381289 -0.0087913228
0.6035189 0.0121986 -0.0088035921
0.60351306 0.013015911 -0.0088158613
0.60350716 0.013833222 -0.0088281315
0.60350126 0.014650533 -0.0088404007
0.60349542 0.015467844 -0.00885267
0.60348952 0.016285155 -0.0088649401
0.60348362 0.017102465 -0.0088772094
0.60347778 0.017919775 -0.0088894786
0.60347188 0.018737087 -0.0089017488
0.60346597 0.019554399 -0.008914018
0.60346013 0.020371709 -0.0089262873
0.60345423 0.021189021 -0.0089385575
0.60344833 0.022006331 -0.0089508267
0.60344249 0.022823641 -0.0089630969
0.60343659 0.023640953 -0.0089753661
0.60343075 0.024458263 -0.0089876354
0.60342485 0.025275575 -0.0089999055
0.60341895 0.026092885 -0.0090121748
0.60267121 0.026921717 -0.0096989498
0.60266531 0.027740622 -0.0097112432
0.6026594 0.028559526 -0.0097235367
0.6026535 0.029378431 -0.0097358301
0.60264766 0.030197334 -0.0097481236
0.60264176 0.031016238 -0.009760417
0.60263586 0.031835139 -0.0097727105
0.60262996 0.032654047 -0.009785004
0.60262406 0.033472952 -0.0097972983
0.60261816 0.034291852 -0.0098095918
0.60261226 0.035110757 -0.0098218853
0.60260642 0.035929661 -0.0098341787
0.60260051 0.036748566 -0.0098464722
0.60259461 0.03756747 -0.0098587656
0.60258871 0.038386375 -0.0098710591
0.60258281 0.039205279 -0.0098833526
0.60257691 0.040024184 -0.009895646
0.60257101 0.040843084 -0.0099079395
0.60256517 0.041661989 -0.0099202329
0.60255927 0.042480897 -0.0099325264
0.60255337 0.043299798 -0.0099448198
0.60254747 0.044118702 -0.0099571133
0.60254157 0.044937607 -0.0099694068
0.60253567 0.045756511 -0.0099817002
0.60252976 0.046575416 -0.0099939937
0.60326606 0.047342967 -0.0093311835
0.60326016 0.048160281 -0.0093434537
0.60325432 0.048977587 -0.0093557229
0.60324842 0.049794905 -0.0093679922
0.60324252 0.050612215 -0.0093802623
0.60323668 0.051429525 -0.0093925316
0.60323077 0.052246835 -0.0094048008
0.60322487 0.053064145 -0.009417071
0.60321903 0.053881455 -0.0094293403
0.60321313 0.054698769 -0.0094416104
0.60320723 0.055516075 -0.0094538797
0.60320139 0.056333393 -0.0094661489
0.60319549 0.057150699 -0.0094784191
0.60318959 0.057968013 -0.0094906883
0.60318375 0.058785323 -0.0095029576
0.60317785 0.059602633 -0.0095152277
0.60317194 0.060419943 -0.009527497
0.6031661 0.061237253 -0.0095397662
0.6031602 0.062054563 -0.0095520364
0.6031543 0.062871881 -0.0095643057
0.60314846 0.063689187 -0.0095765758
0.60314256 0.064506501 -0.0095888451
0.60313666 0.065323807 -0.0096011143
0.60313082 0.066141121 -0.0096133845
0.60312492 0.066958427 -0.0096256537
0.60311902 0.067775741 -0.009637923
0.60311317 0.068593048 -0.0096501932
0.60310727 0.069410369 -0.0096624624
0.60310137 0.070227675 -0.0096747316
0.60309553 0.071044989 -0.0096870018
0.60308963 0.071862295 -0.0096992711
0.60308373 0.072679609 -0.0097115403
0.60307789 0.073496915 -0.0097238105
0.60307199 0.074314229 -0.0097360797
0.60306609 0.075131536 -0.009748349
0.60231769 0.076055966 -0.01043656
0.60231179 0.076874867 -0.010448853
0.60230589 0.07769376 -0.010461147
0.60229999 0.078512676 -0.01047344
0.60229409 0.079331584 -0.010485734
0.60228819 0.080150485 -0.010498027
0.60228235 0.080969386 -0.010510321
0.60227644 0.081788287 -0.010522614
0.60227054 0.082607195 -0.010534908
0.60226464 0.083426096 -0.010547201
0.60225874 0.084245004 -0.010559495
0.60225284 0.085063905 -0.010571788
0.60224694 0.085882813 -0.010584082
0.6022411 0.086701721 -0.010596375
0.6022352 0.087520622 -0.010608668
0.6014865 0.088470541 -0.011297299
0.6014806 0.089291036 -0.011309615
0.6014747 0.090111539 -0.011321933
0.6014688 0.090932027 -0.011334251
0.6014629 0.091752529 -0.011346568
0.601457 0.092573032 -0.011358885
0.6014511 0.093393527 -0.011371203
0.6014452 0.094214022 -0.01138352
0.6014393 0.095034517 -0.011395838
0.6014334 0.09585502 -0.011408155
0.6014275 0.096675508 -0.011420473
0.60142159 0.09749601 -0.01143279
0.60141569 0.098316506 -0.011445107
0.60140973 0.099137008 -0.011457425
0.60140383 0.099957503 -0.011469742
0.60139793 0.100778 -0.01148206
0.60139203 0.1015985 -0.011494377
0.60138613 0.102419 -0.011506694
0.60138023 0.10323949 -0.011519012
0.60137433 0.10405999 -0.011531329
0.60136843 0.10488049 -0.011543646
0.60136253 0.10570099 -0.011555964
0.60135663 0.10652148 -0.011568282
0.60135072 0.10734198 -0.011580599
0.60134482 0.10816248 -0.011592916
0.60133892 0.10898298 -0.011605234
0.60133302 0.10980347 -0.011617552
0.60132712 0.11062397 -0.011629868
0.60132122 0.11144447 -0.011642186
0.60131532 0.11226497 -0.011654504
0.60130942 0.11308546 -0.011666821
0.60130352 0.11390596 -0.011679138
0.60129762 0.11472646 -0.011691456
0.60129172 0.11554696 -0.011703773
0.60128576 0.11636745 -0.01171609
0.60127985 0.11718795 -0.011728408
0.60127395 0.11800845 -0.011740725
0.60126805 0.11882894 -0.011753043
0.60126215 0.11964944 -0.01176536
0.60125625 0.12046994 -0.011777678
0.60125035 0.12129044 -0.011789995
0.60124445 0.12211093 -0.011802312
0.60123855 0.12293143 -0.01181463
0.60123265 0.12375193 -0.011826947
0.60122675 0.12457243 -0.011839265
0.60122085 0.12539291 -0.011851582
0.60121495 0.12621342 -0.011863899
0.60120904 0.1270339 -0.011876217
0.60120314 0.12785441 -0.011888534
0.60119724 0.12867491 -0.011900852
0.60119134 0.12949541 -0.011913169
0.60118544 0.1303159 -0.011925486
0.60117954 0.1311364 -0.011937804
0.60117364 0.13195691 -0.011950121
0.60116774 0.13277739 -0.011962439
0.60116178 0.1335979 -0.011974756
0.60115588 0.13441838 -0.011987073
0.60114998 0.13523889 -0.011999391
0.60114408 0.13605939 -0.012011709
0.60113817 0.13687988 -0.012024025
0.60113227 0.13770038 -0.012036343
0.60112637 0.13852088 -0.012048661
0.60112047 0.13934138 -0.012060978
0.60111457 0.14016187 -0.012073295
0.60110867 0.14098237 -0.012085613
0.60110277 0.14180288 -0.012097931
0.60109687 0.14262336 -0.012110247
0.60109097 0.14344385 -0.012122565
0.60108507 0.14426437 -0.012134883
0.60107917 0.14508486 -0.0121472
0.60107327 0.14590535 -0.012159517
0.60106736 0.14672585 -0.012171835
0.60106146 0.14754635 -0.012184152
0.60105556 0.14836685 -0.012196469
0.60104966 0.14918734 -0.012208787
0.60104376 0.15000783 -0.012221104
0.6010378 0.15082835 -0.012233422
0.6010319 0.15164883 -0.012245739
0.601026 0.15246932 -0.012258057
0.60176378 0.15303296 -0.011592148
0.60175788 0.15385185 -0.011604441
0.60175204 0.15467075 -0.011616735
0.60174614 0.15548965 -0.011629028
0.60174024 0.15630856 -0.011641322
0.60173434 0.15712747 -0.011653615
0.60172844 0.15794636 -0.011665909
0.60246629 0.15849726 -0.010999846
0.60246038 0.15931457 -0.011012116
0.60245454 0.16013187 -0.011024386
0.60244864 0.16094917 -0.011036655
0.60244274 0.1617665 -0.011048925
0.60318065 0.16230781 -0.010382721
0.60317481 0.16312353 -0.010394967
0.6031689 0.16393927 -0.010407213
0.60316306 0.16475497 -0.010419458
0.60315716 0.16557069 -0.010431704
0.60315132 0.1663864 -0.010443949
0.60388929 0.16691658 -0.0097775785
0.60388345 0.1677307 -0.0097898012
0.60387754 0.16854483 -0.009802022
0.6038717 0.16935895 -0.0098142447
0.60386586 0.17017308 -0.0098264664
0.60386002 0.1709872 -0.0098386873
0.60385412 0.17180131 -0.009850909
0.60384828 0.17261545 -0.0098631307
0.60309851 0.17372787 -0.010554161
0.60309261 0.17454357 -0.010566406
0.60308677 0.17535931 -0.010578652
0.60308087 0.17617501 -0.010590898
0.60307503 0.17699075 -0.010603143
0.60306913 0.17780645 -0.010615389
0.60306329 0.17862217 -0.010627635
0.6023134 0.17974734 -0.011318855
0.6023075 0.18056464 -0.011331125
0.6023016 0.18138194 -0.011343394
0.60229576 0.18219927 -0.011355664
0.60228986 0.18301657 -0.011367934
0.60228395 0.1838339 -0.011380203
0.60227811 0.18465121 -0.011392473
0.60227221 0.18546851 -0.011404742
0.60226631 0.18628582 -0.011417012
0.60226047 0.18710312 -0.011429281
0.60225457 0.18792045 -0.011441551
0.60224867 0.18873775 -0.01145382
0.60224283 0.18955505 -0.011466091
0.60223693 0.19037239 -0.01147836
0.60223103 0.19118969 -0.01149063
0.60296935 0.19167365 -0.010823566
0.60296351 0.19248937 -0.010835811
0.60295761 0.19330509 -0.010848057
0.60295177 0.19412081 -0.010860302
0.60294586 0.19493653 -0.010872548
0.60294002 0.19575225 -0.010884793
0.60293412 0.19656797 -0.010897039
0.60292828 0.19738367 -0.010909284
0.60366666 0.1978533 -0.010242005
0.60366082 0.19866744 -0.010254228
0.60365498 0.19948156 -0.010266448
0.60364914 0.20029567 -0.01027867
0.60364324 0.20110981 -0.010290892
0.6036374 0.20192394 -0.010303114
0.60363156 0.20273806 -0.010315335
0.60362566 0.20355217 -0.010327557
0.60287547 0.20472515 -0.011019495
0.60286957 0.20554085 -0.011031741
0.60286373 0.20635659 -0.011043987
0.60285783 0.20717229 -0.011056232
0.60285199 0.20798801 -0.011068478
0.60284609 0.20880373 -0.011080724
0.60284024 0.20961943 -0.011092969
0.60283434 0.21043518 -0.011105215
0.6028285 0.21125089 -0.011117461
0.60356712 0.21169342 -0.010449775
0.60356122 0.21250755 -0.010461996
0.60355538 0.21332167 -0.010474218
0.60354954 0.21413581 -0.01048644
0.6035437 0.21494992 -0.010498662
0.6035378 0.21576406 -0.010510883
0.60353196 0.21657817 -0.010523105
0.60352612 0.2173923 -0.010535327
0.60352021 0.21820642 -0.010547549
0.60351437 0.21902055 -0.01055977
0.60350853 0.21983469 -0.010571992
0.60350269 0.2206488 -0.010584214
0.60349679 0.22146294 -0.010596436
0.60349095 0.22227705 -0.010608657
0.60348511 0.22309117 -0.010620879
0.60347927 0.2239053 -0.010633101
0.60347337 0.22471942 -0.010645323
0.60346752 0.22553355 -0.010657544
0.60346168 0.22634767 -0.010669766
0.60345578 0.22716181 -0.010681988
0.60344994 0.22797592 -0.010694209
0.6034441 0.22879003 -0.010706431
0.60343826 0.22960417 -0.010718653
0.60343236 0.23041829 -0.010730875
0.60342652 0.23123242 -0.010743096
0.60342067 0.23204653 -0.010755318
0.60341477 0.23286068 -0.01076754
0.60340893 0.23367479 -0.010779762
0.60340309 0.2344889 -0.010791983
0.60339725 0.23530303 -0.010804205
0.60339135 0.23611717 -0.010816427
0.60338551 0.23693129 -0.010828649
0.60337967 0.2377454 -0.01084087
0.60337383 0.23855954 -0.010853092
0.60336792 0.23937367 -0.010865314
0.60336208 0.24018778 -0.010877536
0.60335624 0.2410019 -0.010889757
0.60335034 0.24181604 -0.010901979
0.6033445 0.24263017 -0.010914201
0.60333866 0.24344428 -0.010926423
0.60333282 0.2442584 -0.010938644
0.60332692 0.24507254 -0.010950866
0.60257614 0.24632674 -0.011644024
0.60257024 0.24714245 -0.01165627
0.60256439 0.24795818 -0.011668515
0.60255849 0.2487739 -0.011680761
0.60255265 0.24958962 -0.011693007
0.60254675 0.25040534 -0.011705252
0.60254091 0.25122106 -0.011717498
0.60253501 0.25203675 -0.011729744
0.60252917 0.2528525 -0.011741989
0.60252327 0.25366822 -0.011754235
0.60251743 0.25448394 -0.011766481
0.60251158 0.25529963 -0.011778726
0.60250568 0.25611535 -0.011790972
0.60249984 0.2569311 -0.011803218
0.60249394 0.25774679 -0.011815464
0.6024881 0.25856251 -0.011827709
0.6024822 0.25937822 -0.011839955
0.60247636 0.26019394 -0.0118522
0.60247046 0.26100966 -0.011864446
0.60246462 0.26182538 -0.011876692
0.60245872 0.2626411 -0.011888938
0.60245287 0.26345682 -0.011901183
0.60244697 0.26427254 -0.011913429
0.60244113 0.26508826 -0.011925675
0.60243523 0.26590395 -0.01193792
0.60242939 0.2667197 -0.011950166
0.60242349 0.26753542 -0.011962412
0.60241765 0.26835114 -0.011974658
0.60241181 0.26916683 -0.011986903
0.60240591 0.26998255 -0.011999149
0.60240006 0.27079827 -0.012011394
0.60239416 0.27161399 -0.01202364
0.60238832 0.27242973 -0.012035886
0.60483146 -0.099778973 -0.0077639208
0.60482562 -0.098961659 -0.0077761905
0.60481972 -0.098144352 -0.0077884602
0.60481381 -0.097327046 -0.0078007295
0.60480797 -0.096509732 -0.0078129992
0.60480207 -0.095692419 -0.0078252684
0.60479617 -0.094875105 -0.0078375386
0.60479033 -0.094057798 -0.0078498079
0.60404521 -0.093463175 -0.008534315
0.60403931 -0.092644274 -0.0085466085
0.60403347 -0.091825366 -0.008558902
0.60402757 -0.091006465 -0.0085711954
0.60402167 -0.090187557 -0.0085834889
0.60401577 -0.089368656 -0.0085957823
0.60400987 -0.088549748 -0.0086080758
0.60400397 -0.08773084 -0.0086203702
0.60399806 -0.086911947 -0.0086326627
0.60399222 -0.086093038 -0.0086449571
0.60398632 -0.085274138 -0.0086572506
0.60398042 -0.084455229 -0.008669544
0.60397452 -0.083636329 -0.0086818375
0.60396862 -0.08281742 -0.0086941309
0.60396272 -0.081998512 -0.0087064244
0.60321742 -0.081378415 -0.0093913535
0.60321152 -0.080557913 -0.0094036711
0.60320562 -0.079737425 -0.0094159888
0.60319972 -0.078916922 -0.0094283065
0.60319382 -0.078096427 -0.0094406232
0.60318792 -0.077275924 -0.0094529409
0.60318202 -0.076455437 -0.0094652586
0.60317612 -0.075634934 -0.0094775753
0.60317022 -0.074814431 -0.009489893
0.60316432 -0.073993936 -0.0095022107
0.60315841 -0.073173441 -0.0095145283
0.60315251 -0.072352946 -0.0095268451
0.60314661 -0.071532443 -0.0095391627
0.60314065 -0.070711948 -0.0095514804
0.60313475 -0.069891453 -0.0095637972
0.60312885 -0.06907095 -0.0095761148
0.60312295 -0.068250455 -0.0095884325
0.60311705 -0.067429952 -0.0096007502
0.60311115 -0.066609465 -0.0096130669
0.60310525 -0.065788962 -0.0096253846
0.60309935 -0.064968467 -0.0096377023
0.60309345 -0.064147964 -0.0096500199
0.60308754 -0.063327476 -0.0096623367
0.60308164 -0.062506974 -0.0096746543
0.60307574 -0.061686471 -0.009686972
0.60306984 -0.06086598 -0.0096992888
0.60306394 -0.060045481 -0.0097116064
0.60305804 -0.059224993 -0.0097239241
0.60305214 -0.058404494 -0.0097362408
0.60304624 -0.057583999 -0.0097485585
0.60304034 -0.0567635 -0.0097608762
0.60303444 -0.055942997 -0.0097731939
0.60302854 -0.055122506 -0.0097855106
0.60302263 -0.054302003 -0.0097978283
0.60301667 -0.053481512 -0.0098101459
0.60301077 -0.052661009 -0.0098224636
0.60300487 -0.051840518 -0.0098347804
0.60299897 -0.051020015 -0.009847098
0.60299307 -0.050199516 -0.0098594157
0.60298717 -0.049379017 -0.0098717324
0.60298127 -0.048558522 -0.0098840501
0.60297537 -0.047738023 -0.0098963678
0.60296947 -0.046917524 -0.0099086855
0.60296357 -0.046097025 -0.0099210022
0.60295767 -0.04527653 -0.0099333199
0.60295177 -0.044456031 -0.0099456375
0.60294586 -0.043635536 -0.0099579552
0.60293996 -0.042815041 -0.009970272
0.60293406 -0.041994546 -0.0099825896
0.60292816 -0.041174047 -0.0099949073
0.60292226 -0.040353548 -0.010007224
0.60365635 -0.039415505 -0.0093456861
0.60365045 -0.0385966 -0.0093579795
0.60364455 -0.037777696 -0.009370273
0.60363865 -0.036958791 -0.0093825664
0.6028927 -0.036251064 -0.010068811
0.6028868 -0.035430565 -0.010081129
0.6028809 -0.03461007 -0.010093446
0.60287499 -0.033789568 -0.010105764
0.60286909 -0.032969072 -0.010118081
0.60286319 -0.032148574 -0.010130399
0.60285729 -0.031328078 -0.010142716
0.60285139 -0.030507579 -0.010155033
0.60284549 -0.029687082 -0.010167351
0.60283959 -0.028866585 -0.010179668
0.60283369 -0.028046088 -0.010191985
0.60282779 -0.027225588 -0.010204303
0.60282189 -0.02640509 -0.010216621
0.60281599 -0.025584595 -0.010228937
0.60281008 -0.024764098 -0.010241255
0.60280418 -0.023943601 -0.010253573
0.60279828 -0.023123104 -0.010265891
0.60353261 -0.02221852 -0.0096038496
0.60352671 -0.021399617 -0.0096161431
0.60352081 -0.020580711 -0.0096284365
0.60351491 -0.019761804 -0.00964073
0.60350901 -0.018942902 -0.0096530234
0.60350317 -0.018123999 -0.0096653169
0.60349727 -0.017305097 -0.0096776104
0.60349137 -0.01648619 -0.0096899038
0.60348547 -0.015667286 -0.0097021973
0.60347956 -0.014848382 -0.0097144907
0.60347366 -0.014029479 -0.0097267842
0.60346782 -0.013210574 -0.0097390777
0.60346192 -0.01239167 -0.0097513711
0.60345602 -0.011572767 -0.0097636646
0.60345012 -0.010753863 -0.009775958
0.60344422 -0.0099349599 -0.0097882515
0.60269791 -0.0091746468 -0.010475286
0.60269201 -0.0083541507 -0.010487604
0.60268611 -0.0075336532 -0.010499921
0.60342067 -0.006659341 -0.0098374253
0.60341477 -0.0058404361 -0.0098497188
0.60340887 -0.0050215335 -0.0098620122
0.60340297 -0.0042026308 -0.0098743057
0.60339707 -0.0033837243 -0.0098866001
0.60339117 -0.0025648205 -0.0098988935
0.60338533 -0.0017459168 -0.009911187
0.60337943 -0.00092701311 -0.0099234805
0.60337353 -0.00010810939 -0.0099357739
0.60336763 0.00071079523 -0.0099480674
0.60336173 0.001529699 -0.0099603608
0.60335582 0.0023486037 -0.0099726543
0.60334992 0.0031675072 -0.0099849477
0.60334408 0.0039864117 -0.0099972412
0.60407877 0.0048368224 -0.0093344273
0.60407287 0.0056541329 -0.0093466965
0.60406697 0.0064714439 -0.0093589658
0.60406113 0.0072887545 -0.009371236
0.60405523 0.0081060659 -0.0093835052
0.60404932 0.0089233769 -0.0093957745
0.60404348 0.0097406879 -0.0094080446
0.60403758 0.010557999 -0.0094203139
0.60477239 0.01139407 -0.0087572848
0.60476649 0.012209789 -0.0087695299
0.60476065 0.013025506 -0.0087817758
0.60475475 0.013841224 -0.0087940218
0.6047489 0.014656941 -0.0088062668
