# .PCD v0.7 - Point Cloud Data file format
VERSION 0.7
FIELDS x y z
SIZE 4 4 4
TYPE F F F
COUNT 1 1 1
WIDTH 1424
HEIGHT 1
VIEWPOINT 0 0 0 1 0 0 0
POINTS 1424
DATA ascii
0.5517903 0.10261697 0.15609162
0.55178517 0.10333391 0.15608086
0.55177999 0.10405084 0.1560701
0.55177486 0.10476778 0.15605932
0.55176967 0.10548472 0.15604857
0.56135052 0.034232426 0.16016054
0.56230384 0.034903429 0.16055101
0.56229877 0.035604436 0.16054049
0.56229377 0.036305442 0.16052997
0.5622887 0.037006449 0.16051944
0.56324214 0.037669487 0.16091004
0.56323707 0.038368903 0.16089955
0.56323206 0.039068315 0.16088904
0.56322706 0.039767727 0.16087854
0.56418049 0.040422801 0.16126925
0.56417549 0.041120622 0.16125877
0.56512898 0.041770909 0.16164957
0.56608248 0.042418014 0.1620404
0.56607747 0.043112651 0.16202997
0.56703103 0.043754973 0.16242085
0.56702602 0.044448014 0.16241045
0.56797963 0.045085561 0.16280144
0.56797463 0.045777008 0.16279106
0.56796968 0.046468459 0.16278067
0.56892329 0.047099631 0.16317174
0.56891835 0.047789484 0.16316138
0.5689134 0.048479341 0.16315103
0.56986707 0.049104135 0.16354221
0.56986213 0.049792398 0.16353187
0.5708158 0.05041242 0.16392311
0.57081085 0.051099088 0.1639128
0.57176465 0.051714327 0.16430411
0.5717597 0.052399404 0.16429383
0.57175475 0.053084482 0.16428354
0.57270855 0.053693347 0.16467495
0.57270366 0.054376829 0.16466469
0.57269871 0.055060308 0.16465442
0.57269382 0.055743791 0.16464417
0.57268888 0.05642727 0.1646339
0.57364273 0.057026584 0.16502544
0.57363784 0.057708472 0.16501521
0.5736329 0.058390364 0.16500498
0.57362801 0.059072249 0.16499475
0.57362312 0.059754141 0.16498451
0.57361817 0.060436029 0.16497427
0.57457215 0.061024182 0.16536599
0.57456726 0.061704479 0.16535577
0.57456237 0.062384773 0.16534556
0.57455748 0.063065074 0.16533534
0.5745526 0.063745365 0.16532513
0.57550657 0.064323962 0.16571699
0.57550168 0.065002665 0.1657068
0.57549679 0.065681368 0.16569662
0.57549191 0.066360071 0.16568643
0.57548702 0.067038774 0.16567624
0.57548219 0.067717478 0.16566604
0.5754773 0.068396181 0.16565587
0.57547241 0.069074877 0.16564567
0.57546753 0.069753587 0.16563548
0.57642168 0.070316255 0.16602759
0.57641679 0.070993356 0.16601741
0.5764119 0.071670465 0.16600725
0.57544798 0.072468393 0.16559473
0.57544309 0.073147103 0.16558453
0.5754382 0.073825799 0.16557436
0.57543331 0.074504502 0.16556416
0.57542843 0.075183205 0.16555397
0.57542354 0.075861908 0.16554378
0.57541865 0.076540612 0.16553359
0.57541376 0.077219315 0.16552341
0.57540894 0.077898018 0.16551322
0.57540405 0.078576721 0.16550303
0.57539916 0.079255424 0.16549283
0.57539427 0.079934128 0.16548266
0.57443023 0.08075276 0.16506982
0.57442534 0.081433058 0.16505961
0.57442039 0.082113355 0.16504939
0.5744155 0.082793653 0.16503918
0.5734514 0.083620258 0.16462623
0.57344645 0.08430215 0.16461599
0.57344157 0.084984034 0.16460575
0.57343668 0.085665926 0.16459551
0.57247251 0.086500488 0.16418244
0.57246757 0.087183975 0.16417219
0.5715034 0.08802332 0.16375904
0.57053912 0.088865861 0.16334584
0.56861556 0.089870647 0.16252966
0.56765127 0.090721145 0.16211635
0.56572759 0.091737077 0.1613
0.56284457 0.092923209 0.16008057
0.56092083 0.093953483 0.159264
0.55803758 0.095157146 0.15804429
0.55611378 0.096201748 0.15722753
0.55418986 0.097252734 0.15641065
0.55322528 0.09813828 0.1559968
0.55226076 0.099027023 0.15558292
0.55225557 0.099743955 0.15557216
0.55225044 0.1004609 0.1555614
0.5512858 0.10135601 0.1551474
0.55128062 0.10207455 0.15513662
0.55127543 0.10279309 0.15512584
0.55127031 0.10351161 0.15511505
0.55126512 0.10423015 0.15510426
0.55125993 0.10494868 0.15509348
0.56083393 0.033553086 0.15921761
0.56082886 0.034257278 0.15920703
0.56178123 0.034929886 0.15959874
0.56177616 0.035632487 0.15958819
0.56272852 0.036300316 0.15997995
0.56272346 0.037001323 0.15996943
0.56271845 0.037702329 0.15995891
0.56367087 0.038363785 0.16035078
0.56366581 0.0390632 0.16034028
0.5636608 0.039762612 0.16032979
0.56461328 0.040417697 0.16072175
0.56460822 0.041115515 0.16071127
0.56556076 0.041765817 0.16110331
0.5665133 0.042412933 0.16149539
0.56650829 0.043107569 0.16148496
0.56746083 0.043749902 0.1618771
0.56745583 0.044442944 0.16186669
0.56840843 0.045080502 0.16225894
0.56840348 0.045771949 0.16224855
0.56839848 0.0464634 0.16223818
0.56935114 0.047094584 0.16263048
0.56934619 0.04778444 0.16262013
0.56934118 0.048474293 0.16260977
0.5702939 0.049099099 0.16300221
0.57028896 0.049787365 0.16299187
0.57124168 0.050407395 0.16338435
0.57123673 0.051094063 0.16337404
0.57123178 0.051780734 0.16336372
0.57218456 0.052394394 0.16375633
0.57217968 0.053079467 0.16374604
0.57217473 0.053764544 0.16373576
0.57312751 0.054371826 0.16412842
0.57312262 0.055055309 0.16411817
0.57311767 0.055738792 0.1641079
0.57311279 0.056422271 0.16409765
0.57310784 0.057105757 0.16408738
0.57406074 0.057703484 0.16448021
0.57405579 0.058385376 0.16446997
0.5740509 0.05906726 0.16445974
0.57404602 0.059749153 0.1644495
0.57404107 0.060431037 0.16443926
0.57403618 0.061112929 0.16442902
0.5749892 0.061699502 0.16482201
0.57498425 0.062379796 0.1648118
0.57497936 0.063060097 0.1648016
0.57497448 0.063740388 0.16479138
0.57496959 0.064420685 0.16478117
0.57592261 0.064997703 0.16517431
0.57591772 0.065676406 0.16516411
0.57591283 0.066355102 0.16515392
0.57590795 0.067033805 0.16514373
0.57590306 0.067712516 0.16513355
0.57589817 0.068391219 0.16512336
0.57589328 0.069069915 0.16511317
0.57588845 0.069748618 0.16510297
0.57588357 0.070427328 0.16509278
0.57587868 0.071106024 0.1650826
0.57587379 0.071784735 0.16507241
0.5758689 0.07246343 0.16506222
0.57586402 0.073142134 0.16505203
0.57585913 0.073820837 0.16504185
0.57585424 0.07449954 0.16503166
0.57584935 0.075178236 0.16502146
0.57584447 0.075856946 0.16501127
0.57583958 0.07653565 0.16500109
0.57583469 0.077214353 0.1649909
0.5758298 0.077893049 0.16498071
0.57582492 0.078571752 0.16497052
0.57486188 0.079387188 0.16455649
0.574857 0.080067486 0.16454628
0.57485211 0.080747783 0.16453606
0.57484722 0.081428081 0.16452585
0.57484233 0.082108378 0.16451564
0.57387918 0.082933381 0.16410145
0.57387429 0.083615266 0.16409121
0.57386935 0.084297158 0.16408098
0.57386446 0.08497905 0.16407074
0.57290131 0.085812017 0.16365644
0.57289636 0.086495489 0.16364618
0.57193321 0.08733324 0.16323182
0.57096994 0.088174172 0.16281739
0.57000667 0.089018285 0.16240293
0.56808507 0.090024643 0.16158423
0.56616342 0.091037355 0.16076542
0.56424171 0.092056453 0.15994653
0.56136161 0.093245737 0.15872329
0.5584814 0.094444588 0.15749991
0.55655956 0.095485985 0.15668069
0.55463767 0.09653376 0.15586136
0.5536741 0.097417705 0.15544629
0.55271053 0.098304838 0.15503119
0.5517469 0.099195167 0.15461601
0.55174178 0.099913687 0.15460522
0.55173659 0.10063223 0.15459444
0.55077296 0.10152893 0.15417919
0.55076778 0.10224904 0.15416838
0.55076259 0.10296918 0.15415756
0.55075741 0.1036893 0.15414676
0.55075222 0.10440942 0.15413594
0.56030917 0.034282111 0.15825103
0.56126052 0.034956325 0.15864395
0.56221187 0.035627346 0.15903693
0.5622068 0.036329947 0.15902638
0.56315821 0.036996193 0.15941942
0.56315321 0.0376972 0.1594089
0.56410462 0.038358666 0.15980202
0.56409961 0.039058082 0.15979151
0.56505108 0.039714769 0.16018471
0.56504601 0.04041259 0.16017424
0.56599754 0.041064493 0.16056749
0.56599253 0.041760724 0.16055705
0.56694406 0.042407848 0.16095036
0.56693912 0.043102488 0.16093993
0.56789064 0.043744832 0.16133334
0.56788564 0.044437874 0.16132294
0.56788069 0.045130916 0.16131254
0.56883234 0.04576689 0.16170603
0.56882733 0.046458341 0.16169566
0.56977898 0.047089539 0.16208921
0.56977403 0.047779392 0.16207886
0.56976908 0.048469245 0.1620685
0.57072079 0.049094066 0.16246219
0.57071584 0.049782328 0.16245185
0.57166755 0.050402369 0.16284558
0.5716626 0.051089041 0.16283527
0.57165766 0.051775709 0.16282497
0.57260948 0.05238938 0.16321881
0.57260454 0.053074457 0.16320853
0.57259959 0.05375953 0.16319825
0.57355142 0.054366827 0.16359216
0.57354647 0.05505031 0.16358191
0.57354158 0.055733789 0.16357164
0.57353663 0.056417271 0.16356139
0.57353175 0.057100754 0.16355112
0.57448363 0.057698496 0.16394518
0.57447875 0.058380384 0.16393495
0.5744738 0.059062272 0.16392471
0.57446891 0.059744164 0.16391447
0.57446402 0.060426049 0.16390423
0.57445908 0.061107941 0.163894
0.57541108 0.061694525 0.16428825
0.57540619 0.062374819 0.16427805
0.57540131 0.06305512 0.16426784
0.57539642 0.063735411 0.16425762
0.57539153 0.064415708 0.16424741
0.57538658 0.065096006 0.16423719
0.57633865 0.065671436 0.16463159
0.57633376 0.06635014 0.1646214
0.57632887 0.067028843 0.16461122
0.57632399 0.067707546 0.16460103
0.5763191 0.068386249 0.16459084
0.57631427 0.069064952 0.16458064
0.57630938 0.069743656 0.16457047
0.5763045 0.070422359 0.16456027
0.57629961 0.071101062 0.16455008
0.57629472 0.071779765 0.16453989
0.57628983 0.072458461 0.16452971
0.57628495 0.073137172 0.16451952
0.57628006 0.073815867 0.16450933
0.57627517 0.074494578 0.16449913
0.57627028 0.075173274 0.16448896
0.57626539 0.075851977 0.16447876
0.57626051 0.07653068 0.16446857
0.57625562 0.077209383 0.16445838
0.5752936 0.078021631 0.16404316
0.57528871 0.078701921 0.16403294
0.57528383 0.079382211 0.16402273
0.57527894 0.080062509 0.16401251
0.57527405 0.080742806 0.1640023
0.57431191 0.08156462 0.1635869
0.57430702 0.082246505 0.16357666
0.57430208 0.082928389 0.16356644
0.57429719 0.083610274 0.1635562
0.5742923 0.084292173 0.16354597
0.5733301 0.085123524 0.16313045
0.57332522 0.085807011 0.16312018
0.57332027 0.08649049 0.16310991
0.57235807 0.087328225 0.16269431
0.57139581 0.08816915 0.16227862
0.56947619 0.089170694 0.16145749
0.56755656 0.090178609 0.16063628
0.56563687 0.091192894 0.15981495
0.56275976 0.092375778 0.15858805
0.55988258 0.093568213 0.15736102
0.55700535 0.094770215 0.15613385
0.55508548 0.095814779 0.15531206
0.5531655 0.096865714 0.15449019
0.55220288 0.097752839 0.15407382
0.55124032 0.098643146 0.15365742
0.55123514 0.099363275 0.1536466
0.55122995 0.1000834 0.1536358
0.55122477 0.10080352 0.15362498
0.55121958 0.10152366 0.15361418
0.55025691 0.10242352 0.15319762
0.55025172 0.10314523 0.15318678
0.55024654 0.10386696 0.15317595
0.55119884 0.10440415 0.15357094
0.55119365 0.10512428 0.15356012
0.56169218 0.035655364 0.15808088
0.56264257 0.036324807 0.15847513
0.56263751 0.037027407 0.15846458
0.56358796 0.037692074 0.1588589
0.56453842 0.038353551 0.15925327
0.56453335 0.039052963 0.15924276
0.56452835 0.039752375 0.15923226
0.5654788 0.040407486 0.15962672
0.56642938 0.041059401 0.16002123
0.56642437 0.041755628 0.16001078
0.56737489 0.042402767 0.16040537
0.56736988 0.043097403 0.16039494
0.56832045 0.043739762 0.16078958
0.56831545 0.044432804 0.16077918
0.5683105 0.045125846 0.16076878
0.56926113 0.045761831 0.16116352
0.56925619 0.046453282 0.16115315
0.56925118 0.04714473 0.16114277
0.57020187 0.047774345 0.1615376
0.57019687 0.048464198 0.16152725
0.57114762 0.049089029 0.16192219
0.57114267 0.049777292 0.16191185
0.57113773 0.050465554 0.16190152
0.57208848 0.051084016 0.16229652
0.57208353 0.051770687 0.16228621
0.57303435 0.052384369 0.1626813
0.5730294 0.053069443 0.16267101
0.57302445 0.05375452 0.16266073
0.57301956 0.054439589 0.16265045
0.57397038 0.055045307 0.16304564
0.57396549 0.055728789 0.16303539
0.57396054 0.056412272 0.16302513
0.57395566 0.057095755 0.16301486
0.57395071 0.057779241 0.16300461
0.57490164 0.058375396 0.16339995
0.57489669 0.059057284 0.16338971
0.57489181 0.059739172 0.16337948
0.57488692 0.060421061 0.16336924
0.57488197 0.061102953 0.163359
0.57487708 0.061784837 0.16334876
0.57582808 0.062369842 0.16374429
0.57582319 0.063050143 0.16373408
0.5758183 0.063730434 0.16372386
0.57581341 0.064410731 0.16371365
0.57580853 0.065091029 0.16370344
0.57580364 0.065771319 0.16369322
0.57675469 0.066345178 0.1640889
0.5767498 0.067023873 0.16407871
0.57674491 0.067702584 0.16406852
0.57674003 0.068381287 0.16405833
0.57673514 0.069059983 0.16404815
0.57673025 0.069738686 0.16403796
0.57672536 0.070417397 0.16402777
0.57672054 0.071096092 0.16401757
0.57671565 0.071774803 0.1640074
0.57671076 0.072453499 0.1639972
0.57670587 0.073132202 0.16398701
0.57670099 0.073810905 0.16397682
0.5766961 0.074489608 0.16396664
0.57669121 0.075168304 0.16395645
0.57668632 0.075847015 0.16394626
0.57572532 0.076656058 0.16352983
0.57572043 0.077336349 0.16351961
0.57571554 0.078016654 0.1635094
0.57571059 0.078696944 0.16349918
0.57570571 0.079377234 0.16348897
0.57570082 0.080057532 0.16347876
0.57473969 0.080877736 0.16306214
0.57473481 0.081559628 0.1630519
0.57472992 0.082241513 0.16304167
0.57472497 0.082923405 0.16303143
0.57376385 0.083751559 0.1626147
0.5737589 0.084435046 0.16260445
0.57375401 0.085118525 0.16259418
0.57374907 0.085802011 0.16258392
0.57278788 0.086638138 0.16216709
0.57182658 0.087477453 0.16175018
0.57086533 0.088319957 0.16133325
0.56894773 0.089323074 0.16050959
0.56607366 0.090491578 0.15927915
0.56415594 0.091509029 0.15845528
0.56128174 0.092695065 0.15722458
0.55840755 0.093890652 0.15599374
0.55553323 0.095095798 0.15476277
0.55361527 0.096143529 0.15393844
0.55169725 0.09719763 0.15311404
0.55169207 0.09791775 0.15310322
0.55073047 0.098809637 0.15268554
0.55072528 0.099531367 0.1526747
0.5507201 0.10025308 0.15266387
0.55071491 0.1009748 0.15265304
0.55070972 0.10169652 0.15264221
0.55070454 0.10241824 0.15263137
0.55069935 0.10313996 0.15262054
0.55069411 0.10386167 0.15260969
0.55068892 0.1045834 0.15259886
0.55068374 0.10530511 0.15258802
0.5583213 0.03436166 0.15592553
0.56212384 0.036354404 0.15751779
0.56307328 0.037022267 0.15791331
0.56402266 0.037686944 0.15830889
0.56401765 0.038387951 0.15829836
0.56496716 0.039047848 0.15869401
0.56496209 0.039747261 0.15868351
0.56591159 0.040402379 0.15907922
0.56590658 0.0411002 0.15906875
0.56685615 0.041750535 0.15946454
0.56780571 0.042397685 0.15986036
0.5678007 0.043092322 0.15984993
0.56875026 0.043734692 0.16024582
0.56874532 0.044427734 0.16023542
0.56874031 0.045120776 0.16022502
0.56968999 0.045756772 0.16062103
0.56968498 0.046448223 0.16061065
0.56968004 0.047139671 0.16060026
0.57062972 0.047769297 0.16099635
0.57062471 0.048459154 0.16098599
0.57061976 0.049149007 0.16097564
0.5715695 0.049772259 0.16137184
0.57156456 0.050460517 0.1613615
0.5725143 0.051078994 0.16175777
0.57250941 0.051765662 0.16174746
0.57250446 0.052452333 0.16173714
0.57345426 0.053064432 0.16213351
0.57344937 0.053749505 0.16212323
0.57344443 0.054434579 0.16211294
0.57439429 0.055040307 0.1625094
0.57438934 0.05572379 0.16249913
0.57438445 0.056407269 0.16248888
0.5743795 0.057090756 0.16247861
0.57437462 0.057774238 0.16246836
0.57532454 0.058370408 0.16286494
0.57531959 0.059052296 0.1628547
0.5753147 0.059734184 0.16284446
0.57530981 0.060416073 0.16283423
0.57530487 0.061097965 0.16282399
0.57529998 0.061779849 0.16281377
0.57529509 0.062461741 0.16280353
0.57624513 0.063045166 0.16320032
0.57624024 0.063725457 0.16319011
0.57623529 0.064405754 0.16317989
0.57623041 0.065086052 0.16316968
0.57622552 0.065766342 0.16315947
0.57622063 0.06644664 0.16314925
0.57717073 0.067018911 0.1635462
0.57716584 0.067697614 0.16353601
0.57716095 0.068376318 0.16352583
0.57715607 0.069055021 0.16351564
0.57715118 0.069733724 0.16350545
0.57714629 0.070412427 0.16349526
0.5771414 0.07109113 0.16348508
0.57713652 0.071769834 0.16347489
0.57617658 0.072569303 0.16305734
0.5771268 0.07312724 0.1634545
0.57712191 0.073805936 0.16344431
0.57616192 0.074610189 0.16302671
0.57615703 0.075290486 0.1630165
0.57615209 0.075970784 0.16300628
0.5761472 0.076651081 0.16299607
0.57614231 0.077331372 0.16298585
0.57613742 0.078011677 0.16297564
0.57613254 0.078691967 0.16296543
0.57517242 0.079508968 0.1625476
0.57516754 0.080190852 0.16253737
0.57516259 0.080872744 0.16252713
0.5751577 0.081554636 0.16251689
0.57515281 0.082236528 0.16250667
0.57419264 0.083063081 0.16208871
0.5741877 0.08374656 0.16207846
0.57418281 0.084430046 0.16206819
0.57417786 0.085113525 0.16205794
0.57321769 0.08594805 0.16163985
0.57321274 0.086633123 0.16162957
0.57225245 0.087472431 0.16121142
0.57033682 0.08847075 0.16038534
0.56746584 0.089632839 0.15915126
0.56555009 0.090645492 0.15832496
0.55980772 0.093014307 0.15585612
0.55693644 0.094213039 0.15462148
0.55406505 0.095421344 0.15338671
0.55214906 0.096472234 0.15255983
0.55118847 0.097360924 0.15214095
0.55118328 0.098082647 0.15213011
0.55022264 0.09897612 0.15171115
0.55021739 0.09969943 0.15170029
0.5502122 0.10042274 0.15168943
0.55020702 0.10114605 0.15167858
0.55020177 0.10186937 0.15166771
0.55019659 0.10259268 0.15165685
0.5501914 0.10331599 0.151646
0.55018616 0.1040393 0.15163514
0.55018097 0.10476261 0.15162428
0.55017579 0.10548593 0.15161341
0.55306721 0.030935517 0.1529786
0.5540154 0.031632066 0.15337493
0.55401021 0.0323506 0.15336414
0.5559119 0.033015613 0.15416776
0.55686021 0.033702601 0.15456425
0.55780852 0.034386408 0.15496077
0.55875689 0.035067029 0.15535736
0.56065869 0.035711329 0.15616128
0.56255549 0.037053447 0.15695472
0.56350392 0.037719727 0.15735151
0.56445241 0.038382825 0.15774836
0.56444734 0.039083831 0.15773784
0.56539589 0.039742142 0.15813476
0.56634438 0.040397275 0.15853171
0.56633937 0.041095093 0.15852123
0.56728792 0.041745443 0.15891828
0.56823647 0.042392604 0.15931535
0.56823146 0.04308724 0.15930492
0.56918007 0.043729622 0.15970208
0.56917512 0.044422664 0.15969166
0.56917012 0.045115706 0.15968126
0.57011878 0.045751713 0.16007853
0.57011384 0.046443164 0.16006814
0.57010883 0.047134612 0.16005775
0.5710575 0.047764249 0.16045509
0.57105255 0.048454106 0.16044474
0.5710476 0.049143959 0.16043438
0.57199639 0.049767222 0.16083184
0.57199138 0.050455481 0.1608215
0.57294017 0.051073968 0.16121902
0.57293522 0.05176064 0.1612087
0.57293028 0.052447308 0.16119839
0.57387912 0.053059418 0.16159602
0.57387424 0.053744495 0.16158572
0.57386929 0.054429565 0.16157544
0.57481813 0.055035308 0.16197313
0.57481325 0.055718787 0.16196288
0.5748083 0.05640227 0.16195261
0.57480341 0.057085756 0.16194236
0.57479846 0.057769239 0.1619321
0.57479358 0.058452722 0.16192183
0.57574248 0.059047308 0.1623197
0.5757376 0.059729196 0.16230947
0.57573271 0.060411084 0.16229923
0.57572776 0.061092973 0.16228899
0.57572287 0.061774861 0.16227876
0.57571799 0.062456753 0.16226852
0.57571304 0.063138641 0.16225828
0.57570815 0.063820526 0.16224805
0.57665724 0.064400777 0.16264614
0.57665235 0.065081075 0.16263592
0.57664746 0.065761365 0.16262572
0.57664257 0.066441663 0.16261549
0.57663763 0.06712196 0.16260529
0.57663274 0.067802258 0.16259508
0.57662785 0.068482555 0.16258486
0.57662296 0.069162846 0.16257465
0.57661808 0.069843143 0.16256444
0.57661319 0.070523441 0.16255422
0.5766083 0.071203738 0.16254401
0.57660341 0.071884036 0.1625338
0.57659847 0.072564326 0.16252358
0.57659358 0.073244624 0.16251338
0.57658869 0.073924914 0.16250315
0.5765838 0.074605212 0.16249295
0.57657892 0.075285509 0.16248274
0.57657403 0.075965807 0.16247252
0.57656914 0.076646104 0.16246231
0.57656425 0.077326395 0.1624521
0.57655931 0.0780067 0.16244188
0.57560021 0.078822091 0.16202284
0.57559532 0.079503983 0.16201261
0.57559043 0.08018586 0.16200237
0.57558548 0.080867752 0.16199213
0.5755806 0.081549652 0.1619819
0.57462144 0.082374595 0.16156271
0.57461649 0.083058082 0.16155246
0.5746116 0.083741561 0.16154219
0.57460666 0.08442504 0.16153194
0.57364744 0.085257962 0.16111264
0.57364255 0.085943036 0.16110235
0.57268327 0.086780742 0.16068298
0.57267833 0.08746741 0.16067266
0.56981033 0.088621505 0.15943496
0.56694227 0.089785159 0.15819709
0.56502849 0.090799384 0.15736827
0.56216025 0.091980562 0.15613015
0.55929202 0.093171306 0.15489188
0.55546927 0.094535388 0.15324421
0.55355525 0.095581472 0.15241492
0.55164129 0.096633926 0.15158553
0.55068159 0.097524196 0.15116537
0.55067641 0.098247513 0.1511545
0.55067122 0.098970823 0.15114364
0.55066597 0.09969414 0.15113279
0.54970628 0.10059237 0.1507125
0.54970109 0.10131729 0.15070163
0.54969585 0.10204219 0.15069075
0.55064517 0.10258739 0.15108936
0.54968542 0.103492 0.15066898
0.55063474 0.10403401 0.15106763
0.54967499 0.10494181 0.15064721
0.55062437 0.10548063 0.15104592
0.5525614 0.030952215 0.15200521
0.55255622 0.031673934 0.15199438
0.55350345 0.0323705 0.15239196
0.55540317 0.033037126 0.15319805
0.55635041 0.033725724 0.15359575
0.55729777 0.034411132 0.15399352
0.55824506 0.03509336 0.15439132
0.5601449 0.035739273 0.15519771
0.56109232 0.036413532 0.15559563
0.56203973 0.037084602 0.15599361
0.56298715 0.03775249 0.15639164
0.56488717 0.038377695 0.15719834
0.5648821 0.039078701 0.15718782
0.56582963 0.039737027 0.15758599
0.56582463 0.040436443 0.15757549
0.56677216 0.041089989 0.15797372
0.5677197 0.041740347 0.15837201
0.56866729 0.042387523 0.15877034
0.56866229 0.043082159 0.15875991
0.56960988 0.043724552 0.1591583
0.56960493 0.044417594 0.1591479
0.56959993 0.045110632 0.1591375
0.57054764 0.045746654 0.159536
0.57054263 0.046438105 0.15952562
0.57053769 0.047129553 0.15951525
0.5714854 0.047759205 0.15991384
0.57148039 0.048449058 0.15990348
0.57147545 0.049138911 0.15989313
0.57242322 0.049762186 0.16029182
0.57241827 0.050450448 0.16028148
0.57241333 0.05113871 0.16027115
0.5733611 0.051755615 0.16066994
0.57335615 0.052442286 0.16065963
0.57430404 0.053054407 0.1610585
0.5742991 0.053739484 0.1610482
0.57429415 0.054424554 0.16103792
0.57428926 0.055109631 0.16102764
0.5752371 0.055713788 0.16142662
0.57523221 0.05639727 0.16141635
0.57522726 0.057080753 0.16140608
0.57522237 0.05776424 0.16139583
0.57521743 0.058447719 0.16138557
0.57616538 0.059042316 0.16178468
0.57616049 0.059724208 0.16177444
0.5761556 0.060406096 0.1617642
0.57615072 0.061087985 0.16175397
0.57614577 0.061769873 0.16174373
0.57614088 0.062451765 0.16173349
0.57613599 0.063133657 0.16172326
0.57613105 0.063815542 0.16171302
0.57707918 0.0643958 0.16211237
0.57707423 0.065076098 0.16210216
0.57706934 0.065756388 0.16209194
0.57706445 0.066436686 0.16208173
0.57705957 0.067116983 0.16207153
0.57705468 0.067797281 0.1620613
0.57704979 0.068477578 0.1620511
0.5770449 0.069157869 0.16204087
0.57704002 0.069838166 0.16203067
0.57703507 0.070518464 0.16202046
0.57703018 0.071198761 0.16201024
0.57702529 0.071879059 0.16200003
0.57702041 0.072559349 0.16198982
0.57701552 0.073239647 0.1619796
0.57701063 0.073919937 0.16196939
0.57700574 0.074600235 0.16195919
0.57700086 0.075280532 0.16194896
0.57699591 0.07596083 0.16193876
0.57699102 0.076641127 0.16192853
0.57698613 0.077321418 0.16191833
0.57602805 0.078135215 0.16149805
0.5760231 0.078817099 0.16148782
0.57601821 0.079498991 0.16147758
0.57601333 0.080180876 0.16146734
0.57600838 0.080862768 0.16145711
0.57505023 0.081686117 0.16103671
0.57504535 0.082369596 0.16102645
0.5750404 0.083053082 0.1610162
0.57503551 0.083736561 0.16100593
0.57407725 0.084567875 0.1605854
0.57407236 0.085252948 0.16057512
0.57406741 0.085938022 0.16056484
0.57310915 0.086775713 0.16014421
0.57215083 0.087616585 0.15972355
0.57023919 0.088616446 0.15889244
0.56737405 0.089780062 0.15765083
0.56355548 0.091112234 0.15599865
0.56069022 0.092296571 0.15475671
0.55782491 0.093490466 0.15351465
0.55495954 0.094693914 0.15227245
0.55209404 0.095906928 0.15103009
0.55113542 0.096795604 0.1506087
0.55017674 0.097687446 0.15018727
0.55017155 0.098412357 0.15017639
0.55016631 0.099137254 0.15016551
0.55016112 0.099862166 0.15015462
0.55015588 0.10058708 0.15014374
0.55015069 0.10131198 0.15013286
0.55014545 0.10203689 0.15012197
0.55014026 0.10276179 0.15011109
0.55013502 0.1034867 0.15010022
0.55012983 0.1042116 0.15008932
0.55012459 0.10493651 0.15007845
0.5501194 0.10566141 0.15006757
0.55205756 0.030968895 0.15102932
0.55300385 0.031668656 0.15142812
0.55395007 0.032365233 0.15182695
0.5548963 0.033058621 0.15222584
0.55584264 0.03374882 0.15262477
0.55774039 0.034405909 0.15343352
0.55868673 0.035088148 0.15383255
0.55963314 0.035767198 0.15423167
0.56153101 0.036408357 0.15504064
0.56247747 0.037079439 0.15543985
0.56342387 0.037747338 0.15583913
0.56437039 0.038412049 0.15623845
0.56531686 0.039073572 0.1566378
0.56626338 0.039731909 0.15703723
0.56625837 0.040431324 0.15702674
0.56720489 0.041084882 0.15742621
0.56815153 0.041735254 0.15782575
0.56814653 0.042431481 0.15781531
0.56909311 0.043077078 0.1582149
0.5690881 0.04377171 0.15820448
0.57003474 0.044412524 0.15860415
0.57002974 0.045105562 0.15859374
0.57097644 0.045741595 0.1589935
0.57097149 0.046433046 0.15898311
0.57096648 0.047124494 0.15897274
0.57096153 0.047815941 0.15896235
0.57190824 0.04844401 0.15936223
0.57190329 0.049133867 0.15935187
0.57189834 0.04982372 0.15934151
0.5728451 0.050445411 0.15974148
0.57284015 0.051133674 0.15973115
0.57378697 0.051750593 0.16013119
0.57378203 0.052437261 0.16012087
0.57377708 0.053123929 0.16011056
0.57472396 0.05373447 0.1605107
0.57471901 0.054419544 0.16050042
0.57471412 0.055104617 0.16049013
0.575661 0.055708788 0.16089036
0.57565612 0.056392267 0.16088009
0.57565117 0.057075754 0.16086984
0.57564628 0.05775924 0.16085957
0.57564133 0.058442719 0.16084932
0.57563639 0.059126202 0.16083905
0.57658339 0.05971922 0.16123945
0.5765785 0.060401104 0.16122921
0.57657355 0.061082996 0.16121897
0.57656866 0.061764885 0.16120873
0.57656378 0.062446773 0.1611985
0.57655889 0.063128665 0.16118826
0.57655394 0.06381055 0.16117802
0.57654905 0.064492442 0.16116779
0.57749617 0.065071121 0.1615684
0.57749128 0.065751411 0.1615582
0.5774864 0.066431709 0.16154797
0.57748145 0.067112006 0.16153777
0.57747656 0.067792304 0.16152754
0.57747167 0.068472601 0.16151734
0.57746679 0.069152892 0.16150713
0.5774619 0.069833189 0.16149691
0.57745701 0.070513487 0.1614867
0.57745212 0.071193784 0.16147649
0.57744724 0.071874075 0.16146627
0.57744229 0.072554372 0.16145606
0.5774374 0.07323467 0.16144586
0.57743251 0.07391496 0.16143563
0.57742763 0.074595258 0.16142543
0.57742274 0.075275555 0.1614152
0.57741785 0.075955853 0.161405
0.57741296 0.07663615 0.16139479
0.57645583 0.077448331 0.1609733
0.57645094 0.078130223 0.16096306
0.576446 0.078812107 0.16095282
0.57644111 0.079494007 0.16094258
0.57643622 0.080175884 0.16093235
0.57547903 0.080997638 0.16051072
0.57547414 0.081681117 0.16050045
0.5754692 0.082364596 0.1604902
0.57546431 0.083048075 0.16047993
0.57450706 0.083877787 0.16005819
0.57450217 0.08456286 0.1600479
0.57449722 0.085247934 0.16003762
0.57353991 0.086084023 0.15961577
0.57353497 0.086770691 0.15960546
0.57162529 0.087765746 0.15877192
0.56971556 0.088767178 0.15793829
0.56685346 0.08993236 0.15669291
0.56399125 0.091107093 0.15544739
0.56017649 0.09245196 0.15379
0.55731416 0.093647406 0.15254417
0.5544517 0.094852425 0.15129818
0.55158919 0.096066996 0.15005206
0.55063152 0.096957244 0.1496294
0.54967386 0.09785068 0.14920668
0.54966861 0.098577186 0.14919578
0.54966336 0.099303678 0.14918487
0.54965818 0.10003018 0.14917396
0.54965293 0.10075668 0.14916305
0.54964769 0.10148318 0.14915214
0.5496425 0.10220967 0.14914124
0.54963726 0.10293617 0.14913033
0.54963201 0.10366267 0.14911944
0.54962677 0.10438917 0.14910853
0.54962158 0.10511567 0.14909762
0.54961634 0.10584217 0.14908671
0.55250615 0.030963602 0.15046181
0.55345142 0.031663377 0.15086186
0.55344623 0.032385096 0.15085103
0.5543915 0.033080086 0.15125114
0.55628723 0.033743575 0.15206227
0.55723256 0.034430601 0.1524625
0.5591284 0.035082936 0.15327381
0.56007379 0.035762001 0.15367417
0.56101918 0.036437873 0.15407456
0.56291515 0.037074275 0.15488611
0.5638606 0.037742186 0.15528663
0.5648061 0.038406909 0.1556872
0.56480104 0.039109509 0.15567665
0.56574661 0.039769452 0.15607728
0.56669211 0.040426206 0.15647797
0.56763768 0.041079778 0.15687871
0.56858331 0.041730162 0.15727951
0.5685783 0.042426389 0.15726905
0.56952387 0.043071993 0.1576699
0.56951892 0.043766629 0.15765947
0.57046455 0.044407453 0.15806039
0.57045954 0.045100491 0.15804999
0.57140529 0.045736536 0.15845099
0.57140028 0.046427988 0.1584406
0.57139534 0.047119435 0.15843023
0.57139033 0.047810882 0.15841985
0.57233608 0.048438963 0.15882097
0.57233113 0.049128819 0.15881062
0.57232612 0.049818672 0.15880026
0.57327199 0.050440375 0.15920147
0.57326698 0.051128641 0.15919115
0.57326204 0.051816903 0.15918082
0.5742079 0.052432239 0.15958211
0.57420295 0.053118903 0.15957181
0.57514882 0.05372946 0.1599732
0.57514393 0.054414529 0.15996291
0.57513899 0.055099607 0.15995263
0.57513404 0.05578468 0.15994234
0.57607996 0.056387268 0.16034384
0.57607508 0.057070754 0.16033357
0.57607013 0.057754237 0.16032332
0.57606524 0.05843772 0.16031305
0.5760603 0.059121199 0.1603028
0.57605541 0.059804682 0.16029254
0.57700139 0.060396116 0.1606942
0.57699651 0.061078008 0.16068396
0.57699156 0.061759897 0.16067372
0.57698667 0.062441785 0.16066349
0.57698178 0.063123673 0.16065325
0.57697684 0.063805565 0.16064301
0.57697195 0.064487457 0.16063277
0.57696706 0.065169342 0.16062255
0.57791317 0.065746434 0.16102444
0.57790828 0.066426732 0.16101421
0.57790339 0.067107029 0.16100401
0.5778985 0.067787327 0.1609938
0.57789361 0.068467624 0.16098358
0.57788873 0.069147915 0.16097337
0.57788378 0.069828212 0.16096316
0.57787889 0.07050851 0.16095294
0.577874 0.071188807 0.16094273
0.57786912 0.071869098 0.16093253
0.57786423 0.072549395 0.1609223
0.57785934 0.073229693 0.1609121
0.57785445 0.073909983 0.16090187
0.57784957 0.074590281 0.16089167
0.57784462 0.075270578 0.16088146
0.57783973 0.075950876 0.16087124
0.57688361 0.076761462 0.16044852
0.57687873 0.077443346 0.16043828
0.57687384 0.078125231 0.16042805
0.57686889 0.078807123 0.16041781
0.576864 0.079489015 0.16040757
0.57590783 0.080309145 0.15998472
0.57590294 0.080992632 0.15997446
0.57589799 0.081676118 0.1599642
0.5758931 0.082359597 0.15995394
0.57493687 0.083187699 0.15953097
0.57493192 0.083872773 0.15952069
0.57492703 0.084557854 0.1595104
0.57397074 0.085392326 0.15908732
0.57396579 0.086079001 0.159077
0.57300949 0.08691825 0.15865387
0.57205313 0.087760702 0.15823066
0.56919402 0.088917881 0.15698165
0.56633484 0.09008462 0.1557325
0.56252414 0.091419876 0.15407026
0.55966479 0.092607327 0.1528208
0.55680537 0.093804345 0.15157117
0.5539459 0.095010899 0.15032142
0.55108631 0.096227035 0.14907153
0.55012965 0.097118869 0.14864758
0.55012441 0.097845368 0.14863667
0.55011916 0.098571867 0.14862576
0.54916245 0.099470064 0.14820175
0.5491572 0.10019816 0.14819081
0.54915196 0.10092625 0.14817989
0.54914671 0.10165434 0.14816895
0.54914153 0.10238244 0.14815803
0.54913628 0.10311052 0.14814709
0.54913104 0.10383862 0.14813617
0.54912579 0.10456671 0.14812523
0.54912055 0.10529481 0.14811431
0.55006689 0.10583685 0.1485167
0.55295998 0.030234998 0.14990515
0.55295479 0.03095831 0.1498943
0.55294955 0.031681623 0.14988343
0.5538938 0.032379813 0.15028477
0.55483812 0.033074819 0.15068612
0.55673188 0.03373833 0.15149975
0.5576762 0.03442537 0.15190123
0.56051451 0.0357568 0.15311664
0.56145889 0.036432687 0.15351829
0.56240332 0.037105385 0.15391999
0.56334782 0.037774902 0.15432175
0.56429231 0.038441226 0.15472353
0.56523681 0.039104369 0.15512538
0.56618136 0.039764322 0.15552726
0.56712592 0.040421091 0.15592921
0.56712085 0.041120503 0.15591872
0.56806546 0.041772492 0.15632072
0.56901008 0.042421293 0.15672278
0.56995469 0.043066911 0.15712488
0.56994969 0.043761544 0.15711446
0.57089436 0.044402383 0.15751663
0.57088935 0.045095421 0.15750621
0.57088441 0.045788463 0.15749581
0.57182914 0.046422929 0.1578981
0.57182413 0.047114376 0.15788771
0.57181919 0.047805823 0.15787734
0.57276392 0.048433919 0.1582797
0.57275897 0.049123771 0.15826935
0.57275403 0.049813624 0.15825899
0.57274902 0.050503481 0.15824863
0.57369387 0.051123604 0.15865113
0.57368892 0.051811866 0.1586408
0.57463378 0.052427214 0.15904336
0.57462883 0.053113878 0.15903305
0.57462388 0.053800549 0.15902273
0.5755688 0.054409519 0.15942539
0.57556385 0.055094592 0.15941511
0.57555896 0.055779669 0.15940483
0.57555401 0.056464743 0.15939455
0.57649893 0.057065751 0.15979731
0.57649404 0.057749238 0.15978706
0.57648909 0.058432721 0.15977679
0.5764842 0.0591162 0.15976653
0.57647926 0.059799682 0.15975627
0.57647437 0.060483161 0.15974601
0.5774194 0.06107302 0.16014895
0.57741445 0.061754905 0.16013871
0.57740957 0.062436797 0.16012847
0.57740468 0.063118689 0.16011824
0.57739973 0.063800573 0.160108
0.57739484 0.064482465 0.16009776
0.57738996 0.06516435 0.16008753
0.57738507 0.065846242 0.16007729
0.57738012 0.066528127 0.16006705
0.57737523 0.067210019 0.16005681
0.57832038 0.06778235 0.16046004
0.5783155 0.068462647 0.16044982
0.57831061 0.069142938 0.16043961
0.57830572 0.069823235 0.16042939
0.57830083 0.070503533 0.16041918
0.57829595 0.07118383 0.16040897
0.57829106 0.071864121 0.16039875
0.57828611 0.072544418 0.16038854
0.57828122 0.073224716 0.16037834
0.57827634 0.073905006 0.16036811
0.57827145 0.074585304 0.16035791
0.57731634 0.075392686 0.15993398
0.57731146 0.076074578 0.15992375
0.57730651 0.07675647 0.15991351
0.57730162 0.077438354 0.15990327
0.57729673 0.078120247 0.15989304
0.57729185 0.078802131 0.1598828
0.5772869 0.079484023 0.15987256
0.57633173 0.080304146 0.15944846
0.57632685 0.080987632 0.15943819
0.5763219 0.081671119 0.15942794
0.57536668 0.082497612 0.15900373
0.57536179 0.083182685 0.15899345
0.57535684 0.083867766 0.15898316
0.57440156 0.084700644 0.15855886
0.57439661 0.085387304 0.15854855
0.57344133 0.086224958 0.15812418
0.57248598 0.087065794 0.15769975
0.57153064 0.087909818 0.15727529
0.56962484 0.0889128 0.15643664
0.56581819 0.090236858 0.15476957
0.55629855 0.093961239 0.15059568
0.55344206 0.095169365 0.14934215
0.55058545 0.096387058 0.14808847
0.5505802 0.097113557 0.14807756
0.5496245 0.098008558 0.14765234
0.54961926 0.098736659 0.14764141
0.54961401 0.099464737 0.14763048
0.54865825 0.10036612 0.14720514
0.54960352 0.10092092 0.14760862
0.5486477 0.1018255 0.14718324
0.54959303 0.10237712 0.14758675
0.54958785 0.10310519 0.14757583
0.5495826 0.1038333 0.14756489
0.54862672 0.10474424 0.14713942
0.54862148 0.10547392 0.14712846
0.55246013 0.030250037 0.14892431
0.55340338 0.030953018 0.14932679
0.55339813 0.03167633 0.14931592
0.55434144 0.032374535 0.14971851
0.55528474 0.033069551 0.15012111
0.55717653 0.033733085 0.15093724
0.55811983 0.034420136 0.15133998
0.55906326 0.035103999 0.15174277
0.56095517 0.035751604 0.15255915
0.56189859 0.036427498 0.15296204
0.56284201 0.037100211 0.15336499
0.56378555 0.037769739 0.15376799
0.56472903 0.038436078 0.15417103
0.56567258 0.039099228 0.15457413
0.56661612 0.039759196 0.15497726
0.56661105 0.040460203 0.15496674
0.56755465 0.041115388 0.15536995
0.56849825 0.041767389 0.15577321
0.56944185 0.0424162 0.15617652
0.56943685 0.043112431 0.15616608
0.57038051 0.043756463 0.15656945
0.5703755 0.044451099 0.15655902
0.57131916 0.045090351 0.15696247
0.57131422 0.045783393 0.15695207
0.57225794 0.04641787 0.15735559
0.57225299 0.047109317 0.15734522
0.57224798 0.047800768 0.15733483
0.57224303 0.048492216 0.15732445
0.57318681 0.049118724 0.15772809
0.57318181 0.049808577 0.15771773
0.57317686 0.050498433 0.15770738
0.5741207 0.051118568 0.15811113
0.57411575 0.051806834 0.15810078
0.57411081 0.052495092 0.15809046
0.57505465 0.053108856 0.15849429
0.57504976 0.053795524 0.15848398
0.57504481 0.054482196 0.15847367
0.57598871 0.055089582 0.15887761
0.57598382 0.055774655 0.15886733
0.57597888 0.056459732 0.15885703
0.57597393 0.05714481 0.15884675
0.57691789 0.057744239 0.1592508
0.576913 0.058427718 0.15924053
0.57690805 0.0591112 0.15923028
0.57690316 0.059794679 0.15922001
0.57689822 0.060478162 0.15920976
0.57689333 0.061161648 0.15919949
0.57688838 0.061845127 0.15918924
0.57783246 0.062431809 0.15959348
0.57782757 0.063113697 0.15958324
0.57782263 0.063795589 0.159573
0.57781774 0.064477473 0.15956277
0.57781285 0.065159366 0.15955253
0.5778079 0.065841258 0.15954229
0.57780302 0.066523142 0.15953206
0.57779813 0.067205034 0.15952182
0.57779324 0.067886919 0.15951158
0.57778829 0.068568811 0.15950134
0.57778341 0.069250695 0.15949111
0.57777852 0.069932587 0.15948087
0.57777357 0.070614479 0.15947063
0.57776868 0.071296364 0.1594604
0.5777638 0.071978256 0.15945016
0.57775885 0.072660141 0.15943992
0.57870317 0.073219739 0.15984458
0.57774907 0.074023917 0.15941945
0.57774413 0.074705809 0.15940921
0.57773924 0.075387701 0.15939897
0.57773435 0.076069586 0.15938874
0.5777294 0.076751485 0.1593785
0.57772452 0.077433363 0.15936826
0.57771963 0.078115255 0.15935802
0.57771468 0.078797147 0.15934779
0.57676053 0.079615667 0.15892246
0.57675564 0.080299146 0.1589122
0.5767507 0.080982633 0.15890194
0.57674581 0.081666112 0.15889168
0.57579154 0.082492597 0.15846623
0.57578665 0.083177678 0.15845594
0.57483232 0.08400894 0.15803041
0.57482737 0.084695622 0.15802011
0.5738731 0.085531652 0.1575945
0.57386816 0.086219922 0.15758418
0.57291377 0.08706075 0.15715849
0.57195944 0.087904759 0.15673278
0.56910622 0.089063473 0.15547626
0.5653035 0.090389073 0.15380415
0.55579376 0.094118118 0.14961769
0.55294019 0.095327802 0.14836039
0.5500865 0.096547045 0.14710294
0.55008125 0.097275145 0.14709201
0.54912651 0.098171726 0.1466655
0.54912126 0.098901421 0.14665455
0.54911602 0.099631101 0.14664359
0.54911077 0.10036079 0.14663264
0.54910553 0.10109047 0.14662167
0.54910028 0.10182016 0.14661072
0.54909503 0.10254984 0.14659977
0.54908979 0.10327952 0.14658882
0.54813492 0.10419046 0.14616211
0.54907924 0.1047389 0.14656691
0.55291492 0.029519828 0.14836642
0.55290967 0.030244732 0.14835554
0.55290449 0.030969637 0.14834467
0.55384672 0.03167104 0.14874843
0.55384153 0.032394353 0.14873756
0.55950588 0.035098776 0.15118276
0.56139588 0.035746403 0.15200163
0.56233829 0.036422312 0.15240578
0.56328076 0.037095036 0.15280998
0.56422323 0.037764575 0.15321423
0.56421816 0.038470361 0.15320364
0.56516069 0.039135117 0.15360795
0.56610322 0.039796688 0.15401232
0.56704581 0.040455073 0.15441673
0.5679884 0.04111027 0.1548212
0.56798339 0.041809686 0.1548107
0.56892598 0.042460103 0.15521523
0.56986862 0.043107335 0.15561981
0.56986362 0.043803561 0.15560937
0.57080632 0.044446018 0.15601401
0.57174897 0.045085281 0.15641871
0.57174402 0.045778323 0.15640831
0.57173902 0.046471369 0.15639791
0.57268178 0.047104258 0.15680271
0.57267684 0.047795709 0.15679233
0.57267183 0.048487157 0.15678194
0.57266688 0.049178604 0.15677157
0.57360965 0.049803533 0.15717648
0.5736047 0.050493386 0.15716612
0.57359976 0.051183239 0.15715577
0.57454258 0.051801797 0.15756078
0.57453763 0.052490056 0.15755045
0.57548052 0.053103831 0.15795553
0.57547557 0.053790502 0.15794522
0.57547063 0.05447717 0.15793492
0.57641363 0.055084568 0.1583401
0.57640868 0.055769645 0.15832981
0.57640374 0.056454718 0.15831953
0.57639879 0.057139799 0.15830925
0.5763939 0.057824876 0.15829895
0.57733685 0.058422718 0.15870428
0.57733196 0.059106201 0.15869403
0.57732701 0.05978968 0.15868376
0.57732213 0.060473163 0.1586735
0.57731718 0.061156645 0.15866324
0.57731229 0.061840128 0.15865298
0.57730734 0.062523611 0.15864272
0.57825047 0.063108712 0.15904823
0.57824552 0.063790597 0.15903799
0.57824063 0.064472489 0.15902776
0.57823575 0.065154374 0.15901752
0.5782308 0.065836266 0.15900728
0.57822591 0.06651815 0.15899704
0.57822102 0.067200042 0.15898681
0.57821614 0.067881934 0.15897657
0.57821119 0.068563819 0.15896633
0.5782063 0.069245711 0.1589561
0.57820141 0.069927596 0.15894586
0.57819647 0.070609495 0.15893562
0.57819158 0.07129138 0.15892538
0.57818669 0.071973272 0.15891515
0.57818174 0.072655156 0.15890491
0.57817686 0.073337041 0.15889467
0.57817197 0.074018933 0.15888444
0.57816702 0.074700825 0.15887421
0.57816213 0.07538271 0.15886398
0.57815725 0.076064602 0.15885374
0.5781523 0.076746494 0.1588435
0.57814741 0.077428378 0.15883327
0.57814252 0.07811027 0.15882303
0.57718933 0.078927182 0.15839647
0.57718444 0.079610661 0.1583862
0.57717949 0.080294147 0.15837595
0.5771746 0.080977634 0.15836568
0.57622135 0.08180251 0.157939
0.57621646 0.082487591 0.15792872
0.57526314 0.083317257 0.15750197
0.5752582 0.084003918 0.15749165
0.57430488 0.084838361 0.15706484
0.57429993 0.085526615 0.1570545
0.57334661 0.086365849 0.1566276
0.57334161 0.087055705 0.15661724
0.5714398 0.088053852 0.15577367
0.569538 0.089058377 0.15493
0.56573927 0.090383932 0.1532529
0.5590899 0.092912763 0.15031485
0.55529088 0.094274975 0.14863721
0.55244029 0.095486216 0.14737613
0.54958957 0.096707024 0.1461149
0.54958433 0.097436711 0.14610395
0.54957908 0.098166391 0.146093
0.54957378 0.098896079 0.14608203
0.54862005 0.099797435 0.14565422
0.54861474 0.10052872 0.14564323
0.5486095 0.10125999 0.14563225
0.54860425 0.10199127 0.14562128
0.548599 0.10272256 0.1456103
0.5485937 0.10345382 0.14559932
0.54858845 0.10418511 0.14558834
0.54858321 0.10491638 0.14557737
0.5485779 0.10564766 0.14556639
0.55241799 0.029533239 0.14738184
0.55241281 0.030259736 0.14737093
0.55335408 0.030964334 0.1477759
0.55334884 0.031689242 0.14776503
0.55429012 0.03238906 0.14817007
0.55994856 0.035093553 0.15062276
0.56088996 0.035774257 0.15102808
0.56183141 0.036451772 0.15143347
0.56277287 0.037126098 0.15183888
0.56466097 0.037759412 0.15266047
0.5646559 0.038465198 0.15264988
0.56559741 0.039129965 0.15305544
0.56653899 0.039791547 0.15346107
0.56748056 0.040449947 0.15386672
0.5674755 0.04115095 0.1538562
0.56841713 0.041804567 0.15426195
0.56935877 0.042454999 0.15466772
0.57030046 0.043102242 0.15507357
0.57029545 0.043798469 0.15506311
0.57123709 0.044440936 0.15546902
0.57123214 0.045135569 0.15545858
0.57217383 0.045773253 0.15586455
0.57216883 0.046466298 0.15585415
0.57311064 0.047099199 0.15626021
0.57310563 0.04779065 0.15624982
0.57310069 0.048482098 0.15623944
0.57309568 0.049173545 0.15622906
0.57403749 0.049798485 0.15663522
0.57403255 0.050488338 0.15662487
0.5740276 0.051178195 0.15661451
0.57402259 0.051868051 0.15660416
0.57496452 0.052485023 0.15701045
0.57495958 0.053173285 0.15700011
0.57590145 0.053785477 0.15740646
0.5758965 0.054472148 0.15739615
0.57589155 0.055158813 0.15738586
0.57683355 0.055764634 0.15779231
0.5768286 0.056449708 0.15778203
0.57682371 0.057134788 0.15777174
0.57681876 0.057819862 0.15776145
0.57681382 0.058504939 0.15775117
0.57775587 0.059101198 0.15815777
0.57775092 0.059784681 0.1581475
0.57774603 0.06046816 0.15813725
0.57774109 0.061151646 0.15812698
0.5777362 0.061835129 0.15811673
0.57773125 0.062518612 0.15810646
0.57772636 0.063202091 0.15809621
0.57772142 0.063885577 0.15808594
0.57866353 0.064467497 0.15849274
0.57865864 0.065149389 0.15848251
0.57865375 0.065831274 0.15847227
0.57864881 0.066513166 0.15846203
0.57864392 0.067195058 0.1584518
0.57863903 0.067876942 0.15844156
0.57863408 0.068558834 0.15843134
0.5786292 0.069240719 0.1584211
0.57862431 0.069922611 0.15841086
0.57861936 0.070604503 0.15840062
0.57861447 0.071286388 0.15839039
0.57860959 0.07196828 0.15838015
0.57860464 0.072650164 0.15836991
0.57859975 0.073332056 0.15835968
0.57859486 0.074013941 0.15834944
0.57858992 0.074695833 0.1583392
0.57858503 0.075377718 0.15832897
0.57858014 0.07605961 0.15831873
0.57857519 0.076741502 0.15830849
0.57857031 0.077423386 0.15829825
0.57761812 0.078238703 0.15787047
0.57761323 0.078922182 0.1578602
0.57760829 0.079605661 0.15784995
0.5776034 0.080289148 0.15783969
0.57665116 0.081112422 0.15741178
0.57664621 0.081797503 0.1574015
0.57664132 0.082482576 0.15739122
0.57568902 0.083312236 0.15696321
0.57568407 0.083998896 0.1569529
0.57473177 0.084833324 0.15652484
0.57472682 0.085521586 0.1565145
0.57377446 0.086360805 0.15608634
0.57376945 0.087050654 0.15607598
0.57186967 0.088048786 0.15522991
0.56902236 0.089209005 0.15396585
0.56428009 0.090693437 0.15186583
0.55858511 0.093068056 0.14933687
0.55479002 0.094431803 0.14765422
0.55288982 0.095480911 0.14680737
0.55004209 0.096701682 0.1455424
0.55003685 0.097431377 0.14553145
0.54908407 0.098329522 0.14510241
0.54907882 0.099060811 0.14509144
0.54907358 0.099792086 0.14508046
0.54906827 0.10052336 0.14506948
0.54811549 0.10142948 0.14464033
0.54811019 0.10216235 0.14462933
0.54810494 0.10289523 0.14461833
0.54809964 0.1036281 0.14460732
0.54809439 0.10436097 0.14459632
0.54808909 0.10509384 0.14458533
0.54808384 0.10582671 0.14457431
0.55286336 0.030254422 0.14680091
0.55285811 0.030980919 0.14679
0.55285293 0.031707417 0.14677911
0.55379319 0.032408841 0.14718537
0.55473351 0.03310708 0.14759168
0.56038612 0.035802089 0.15005203
0.56227213 0.036446571 0.15087596
0.56321257 0.037120912 0.15128261
0.56415308 0.037792068 0.15168934
0.56509364 0.038460035 0.15209611
0.56603414 0.039124813 0.15250292
0.56697476 0.039786406 0.1529098
0.56696969 0.040489011 0.15289925
0.56791025 0.041145824 0.15330619
0.56885093 0.041799448 0.15371318
0.56979156 0.042449892 0.15412021
0.56978655 0.043147717 0.15410973
0.57072723 0.043793377 0.15451685
0.57072222 0.044489603 0.15450639
0.5716629 0.045130488 0.15491356
0.5716579 0.04582512 0.15490313
0.57259864 0.046461225 0.15531038
0.57259369 0.047154266 0.15529998
0.57353449 0.047785591 0.1557073
0.57352948 0.048477039 0.15569693
0.57352453 0.049168486 0.15568654
0.57351953 0.049859934 0.15567616
0.57446039 0.05048329 0.1560836
0.57445544 0.051173147 0.15607324
0.57445043 0.051863004 0.15606289
0.57539135 0.052479986 0.15647043
0.5753864 0.053168252 0.15646011
0.57538146 0.053856511 0.15644976
0.57632238 0.054467123 0.1568574
0.57631743 0.055153791 0.15684709
0.57631248 0.055840459 0.15683678
0.57725352 0.056444697 0.15724452
0.57724857 0.057129774 0.15723422
0.57724363 0.057814851 0.15722394
0.57723868 0.058499925 0.15721366
0.57723379 0.059185002 0.15720338
0.57817483 0.059779681 0.15761124
0.57816988 0.06046316 0.15760098
0.57816499 0.061146647 0.15759072
0.57816005 0.061830126 0.15758047
0.57815516 0.062513612 0.1575702
0.57815021 0.063197091 0.15755995
0.57814533 0.063880578 0.15754968
0.57814038 0.064564057 0.15753941
0.57908154 0.065144397 0.1579475
0.57907665 0.065826289 0.15793726
0.5790717 0.066508174 0.15792702
0.57906681 0.067190066 0.15791678
0.57906193 0.067871958 0.15790655
0.57905698 0.068553843 0.15789631
0.57905209 0.069235727 0.15788607
0.5790472 0.069917619 0.15787584
0.57904226 0.070599519 0.1578656
0.57903737 0.071281396 0.15785536
0.57903248 0.071963295 0.15784512
0.57902759 0.072645172 0.15783489
0.57902265 0.073327065 0.15782465
0.57901776 0.074008957 0.15781441
0.57901287 0.074690841 0.15780418
0.57900792 0.075372733 0.15779394
0.57900304 0.076054625 0.1577837
0.57805187 0.076866738 0.15735473
0.57804698 0.077550218 0.15734446
0.57804203 0.078233704 0.15733421
0.57803714 0.078917183 0.15732394
0.5780322 0.079600662 0.15731369
0.57802731 0.080284141 0.15730342
0.57707602 0.081107415 0.15687427
0.57707113 0.081792489 0.15686399
0.57611978 0.082620539 0.15643474
0.57611489 0.083307207 0.15642445
0.57516354 0.084140025 0.15599515
0.5751586 0.084828287 0.15598482
0.57420725 0.085665897 0.15555543
0.5742023 0.086355761 0.15554507
0.57325089 0.087198131 0.15511563
0.57135302 0.088197835 0.15426703
0.56945515 0.089203902 0.15341833
0.56471783 0.090688273 0.15131205
0.56187332 0.09187077 0.15004392
0.55713576 0.093383819 0.14793719
0.55429113 0.094588615 0.14666872
0.5523929 0.095639296 0.14581935
0.54954815 0.096861616 0.14455061
0.54954284 0.097592905 0.14453962
0.5495376 0.098324172 0.14452864
0.54953235 0.099055462 0.14451766
0.54952711 0.099786736 0.14450669
0.54857528 0.10069126 0.14407632
0.54856998 0.10142412 0.14406532
0.54856473 0.10215699 0.14405431
0.54855943 0.10288987 0.14404331
0.54760754 0.10380235 0.1436128
0.54760224 0.10453682 0.14360178
0.54759699 0.10527128 0.14359075
0.55331391 0.030249106 0.14623091
0.55330873 0.030975604 0.14622
0.55330348 0.031702101 0.14620909
0.55424279 0.03240354 0.14661661
0.5551821 0.03310179 0.14702417
0.56082875 0.035796866 0.14949203
0.56176817 0.036475997 0.14989987
0.56270766 0.03715194 0.15030777
0.56364715 0.037824698 0.15071572
0.5645867 0.03849427 0.15112372
