# .PCD v0.7 - Point Cloud Data file format
VERSION 0.7
FIELDS x y z
SIZE 4 4 4
TYPE F F F
COUNT 1 1 1
WIDTH 1350
HEIGHT 1
VIEWPOINT 0 0 0 1 0 0 0
POINTS 1350
DATA ascii
0.59439045 0.032598119 0.018385524
0.59438467 0.033399496 0.018373493
0.59437889 0.034200877 0.018361464
0.59437311 0.035002254 0.018349433
0.59436738 0.035803635 0.018337402
0.5943616 0.036605012 0.018325372
0.59435582 0.037406392 0.018313343
0.59435004 0.038207769 0.018301312
0.59434432 0.03900915 0.018289281
0.59433854 0.039810531 0.01827725
0.59433275 0.040611908 0.018265219
0.59432697 0.041413285 0.01825319
0.59432125 0.042214666 0.01824116
0.59431547 0.043016043 0.018229129
0.59430969 0.043817423 0.018217098
0.59430391 0.0446188 0.018205069
0.59429818 0.045420185 0.018193038
0.5942924 0.046221562 0.018181007
0.59428662 0.047022939 0.018168977
0.5942809 0.047824316 0.018156948
0.59427512 0.048625696 0.018144917
0.59426934 0.049427077 0.018132886
0.59426355 0.050228458 0.018120855
0.59425783 0.051029835 0.018108824
0.59425205 0.051831212 0.018096795
0.59424627 0.052632593 0.018084764
0.59424049 0.05343397 0.018072734
0.59423476 0.05423535 0.018060703
0.59422898 0.055036727 0.018048674
0.5942232 0.055838108 0.018036643
0.59421742 0.056639489 0.018024612
0.5942117 0.057440866 0.018012581
0.59420592 0.058242247 0.018000551
0.59420013 0.059043624 0.017988522
0.59419435 0.059845001 0.017976491
0.59418863 0.060646381 0.01796446
0.59340787 0.061528169 0.017318148
0.59340209 0.062331144 0.017306093
0.59339631 0.063134119 0.01729404
0.59339052 0.06393709 0.017281985
0.59338474 0.064740062 0.017269932
0.59260398 0.065631412 0.016623477
0.59259814 0.066435978 0.016611399
0.59259236 0.067240544 0.01659932
0.59258658 0.068045102 0.016587242
0.5925808 0.068849675 0.016575163
0.59179986 0.069750585 0.015928527
0.59179407 0.070556745 0.015916424
0.59101313 0.071462438 0.015269754
0.59100735 0.072270185 0.015257628
0.59100151 0.073077939 0.015245502
0.58944541 0.074094303 0.013964096
0.58866441 0.075011156 0.013317221
0.58788335 0.075931184 0.012670334
0.58632714 0.076963492 0.011388689
0.58477086 0.078002162 0.010106911
0.58011365 0.079496324 0.006285998
0.5762316 0.080895737 0.0030995822
0.57157415 0.082426533 -0.00072188018
0.59211272 -0.011741905 0.015884981
0.59210694 -0.010934154 0.015872855
0.5921011 -0.010126403 0.015860729
0.59209532 -0.0093186516 0.015848603
0.59208947 -0.0085108969 0.015836475
0.59285671 -0.0076465337 0.016457824
0.59285086 -0.0068403753 0.016445722
0.59284508 -0.006034215 0.016433619
0.5928393 -0.0052280566 0.016421517
0.59283346 -0.0044219 0.016409416
0.59360081 -0.0035670914 0.017030945
0.59359503 -0.0027625253 0.017018868
0.59358919 -0.0019579593 0.017006788
0.59358341 -0.001153395 0.016994711
0.59357762 -0.00034882891 0.016982632
0.59357184 0.00045573537 0.016970554
0.59433919 0.0012993891 0.017592214
0.59433341 0.0021023611 0.017580159
0.59432763 0.0029053339 0.017568104
0.59432185 0.0037083058 0.017556051
0.59431607 0.0045112777 0.017543996
0.59431028 0.0053142495 0.017531943
0.5943045 0.0061172214 0.017519888
0.59429872 0.0069201938 0.017507832
0.59429294 0.0077231657 0.017495779
0.59428716 0.008526138 0.017483724
0.59428144 0.0093291104 0.017471671
0.59427565 0.010132083 0.017459616
0.59426987 0.010935054 0.017447561
0.59426409 0.011738027 0.017435508
0.59425831 0.012540999 0.017423453
0.59425253 0.01334397 0.0174114
0.59424675 0.014146943 0.017399345
0.59424096 0.014949915 0.01738729
0.59423518 0.015752887 0.017375236
0.5942294 0.016555859 0.017363181
0.59422362 0.017358832 0.017351126
0.59421784 0.018161803 0.017339073
0.59421206 0.018964777 0.017327018
0.59420627 0.019767748 0.017314965
0.59420049 0.02057072 0.01730291
0.59419477 0.021373691 0.017290855
0.59496242 0.02217433 0.017913161
0.59495664 0.022975709 0.01790113
0.59495085 0.023777086 0.017889099
0.59494507 0.024578465 0.017877068
0.59493935 0.025379846 0.017865038
0.59493357 0.026181225 0.017853009
0.59492779 0.026982604 0.017840978
0.59492201 0.027783981 0.017828947
0.59491628 0.028585361 0.017816916
0.5949105 0.02938674 0.017804887
0.59490472 0.030188119 0.017792856
0.59489894 0.030989496 0.017780825
0.59489322 0.031790875 0.017768795
0.59488744 0.032592256 0.017756764
0.59488165 0.033393633 0.017744735
0.59487587 0.034195013 0.017732704
0.59487015 0.03499639 0.017720673
0.59486437 0.035797771 0.017708642
0.59485859 0.036599152 0.017696613
0.59485281 0.037400529 0.017684583
0.59484708 0.038201906 0.017672552
0.5948413 0.039003287 0.017660521
0.59483552 0.039804667 0.017648492
0.5948298 0.040606044 0.017636461
0.59482402 0.041407421 0.01762443
0.59481823 0.042208802 0.0176124
0.59481245 0.043010183 0.017600369
0.59480673 0.04381156 0.01758834
0.59480095 0.04461294 0.017576309
0.59479517 0.045414321 0.017564278
0.59478939 0.046215698 0.017552247
0.59478366 0.047017075 0.017540218
0.59477788 0.047818452 0.017528187
0.5947721 0.048619833 0.017516157
0.59476632 0.049421217 0.017504126
0.5947606 0.050222594 0.017492095
0.59475482 0.051023971 0.017480066
0.59474903 0.051825348 0.017468035
0.59474325 0.052626729 0.017456004
0.59473753 0.05342811 0.017443974
0.59473175 0.054229487 0.017431945
0.59472597 0.055030864 0.017419914
0.59472018 0.055832244 0.017407883
0.59471446 0.056633625 0.017395852
0.59470868 0.057435006 0.017383821
0.5947029 0.058236383 0.017371792
0.59392321 0.059113383 0.016724302
0.59391743 0.059916355 0.016712248
0.59391165 0.060719326 0.016700193
0.59390587 0.061522294 0.01668814
0.59390008 0.062325269 0.016676085
0.59312028 0.063211828 0.016028451
0.5931145 0.064016394 0.016016373
0.59310871 0.06482096 0.016004294
0.59310293 0.065625526 0.015992217
0.59309715 0.066430092 0.015980139
0.59309137 0.067234658 0.01596806
0.59231144 0.068132371 0.015320221
0.59230566 0.068938531 0.015308119
0.59229982 0.069744691 0.015296017
0.59151995 0.070648775 0.014648121
0.59151411 0.071456529 0.014635995
0.59150833 0.072264276 0.014623869
0.59072834 0.07317473 0.013975876
0.58994836 0.074088372 0.013327836
0.58916831 0.075005211 0.012679711
0.58761412 0.076032713 0.011395638
0.58683401 0.076957509 0.01074743
0.5845055 0.078106835 0.0088271657
0.58062845 0.079490252 0.0056347386
0.57675129 0.080889612 0.0024420724
0.57287407 0.08230488 -0.00075083284
0.5926137 -0.011747814 0.01525122
0.59260792 -0.010940063 0.015239093
0.59260207 -0.010132312 0.015226968
0.59259629 -0.0093245609 0.015214842
0.59259045 -0.0085168071 0.015202716
0.59258467 -0.0077090561 0.015190589
0.59335083 -0.0068462733 0.015813213
0.59334505 -0.006040113 0.015801109
0.59333926 -0.0052339546 0.015789008
0.59333348 -0.0044277981 0.015776906
0.59332764 -0.0036216395 0.015764803
0.59332186 -0.0028154792 0.015752701
0.59331608 -0.0020093215 0.015740599
0.59408242 -0.0011592814 0.016363449
0.59407663 -0.00035471519 0.016351372
0.59407085 0.00044984909 0.016339293
0.59406501 0.0012544153 0.016327215
0.59405923 0.0020589803 0.016315138
0.59405345 0.0028635457 0.016303059
0.59404767 0.0036681108 0.016290981
0.59404188 0.0044726762 0.016278902
0.5940361 0.0052772411 0.016266825
0.59403032 0.0060818065 0.016254745
0.59479672 0.0069143195 0.016877823
0.59479094 0.0077172914 0.016865769
0.59478515 0.0085202632 0.016853714
0.59477937 0.0093232356 0.016841659
0.59477365 0.010126208 0.016829606
0.59399557 0.010909198 0.016182277
0.59398979 0.011713764 0.016170198
0.59398401 0.012518329 0.016158121
0.59397823 0.013322894 0.016146041
0.59397238 0.014127459 0.016133964
0.5939666 0.014932025 0.016121885
0.59396082 0.015736589 0.016109807
0.59395504 0.016541155 0.016097728
0.59394926 0.017345721 0.016085651
0.59471583 0.018155929 0.016709063
0.59471005 0.018958902 0.016697008
0.59470427 0.019761873 0.016684953
0.59469849 0.020564845 0.0166729
0.59469271 0.021367816 0.016660845
0.59468699 0.02217079 0.01664879
0.5946812 0.022973761 0.016636737
0.59467542 0.023776734 0.016624682
0.59466964 0.024579706 0.016612628
0.59466386 0.025382677 0.016600573
0.59465808 0.02618565 0.016588518
0.5946523 0.026988622 0.016576465
0.59464651 0.027791593 0.01656441
0.59464073 0.028594567 0.016552357
0.59463495 0.02939754 0.016540302
0.59462917 0.030200511 0.016528247
0.59462339 0.031003483 0.016516194
0.59461761 0.031806454 0.016504139
0.59461182 0.032609425 0.016492084
0.59460604 0.033412397 0.01648003
0.59460032 0.034215372 0.016467975
0.59459454 0.035018343 0.016455922
0.59458876 0.035821315 0.016443867
0.59458297 0.03662429 0.016431812
0.59457719 0.037427258 0.016419759
0.59457141 0.038230229 0.016407704
0.59456563 0.039033204 0.016395651
0.59455985 0.039836176 0.016383596
0.59455407 0.040639147 0.016371541
0.59454829 0.041442119 0.016359488
0.5945425 0.042245094 0.016347433
0.59453672 0.043048065 0.016335379
0.59453094 0.043851037 0.016323324
0.59452516 0.044654008 0.016311269
0.59451944 0.045456983 0.016299216
0.59451365 0.046259955 0.016287161
0.59450787 0.047062926 0.016275106
0.59450209 0.047865897 0.016263053
0.59449631 0.048668869 0.016250998
0.59449053 0.049471844 0.016238945
0.59448475 0.050274815 0.01622689
0.59447896 0.051077783 0.016214835
0.59447318 0.051880758 0.016202781
0.5944674 0.05268373 0.016190726
0.59446162 0.053486701 0.016178673
0.59445584 0.054289673 0.016166618
0.59445006 0.055092644 0.016154563
0.59444427 0.055895619 0.01614251
0.59443849 0.056698591 0.016130455
0.59443277 0.057501566 0.0161184
0.59442699 0.058304537 0.016106347
0.59442121 0.059107509 0.016094292
0.59441543 0.05991048 0.016082238
0.59363663 0.060792249 0.015433426
0.59363085 0.061596811 0.015421348
0.59362507 0.06240138 0.015409269
0.59361929 0.063205943 0.015397191
0.59361351 0.064010508 0.015385113
0.59283459 0.064901836 0.014736121
0.59282881 0.065707996 0.014724018
0.59282303 0.066514157 0.014711916
0.59281719 0.06732031 0.014699814
0.59281141 0.06812647 0.014687711
0.59280562 0.06893263 0.01467561
0.59202671 0.069835111 0.014026486
0.59202087 0.070642866 0.01401436
0.59201509 0.071450613 0.014002235
0.59200925 0.072258368 0.013990108
0.59123027 0.073168814 0.013340866
0.5904513 0.074082442 0.012691576
0.58967221 0.074999265 0.0120422
0.58811998 0.076026745 0.010755626
0.5865677 0.077060588 0.0094689578
0.58501536 0.078100815 0.008182155
0.58114326 0.07948418 0.0049834782
0.57727104 0.080883481 0.0017845617
0.59234369 -0.011818327 0.013981606
0.59310883 -0.010945973 0.014605335
0.59310305 -0.010138222 0.014593208
0.59309721 -0.009330471 0.014581082
0.59309143 -0.0085227164 0.014568957
0.59308559 -0.0077149654 0.014556831
0.59307981 -0.0069072149 0.014544704
0.59307396 -0.006099462 0.014532578
0.59306818 -0.0052917092 0.014520452
0.59383345 -0.0044336957 0.015144396
0.59382761 -0.0036275373 0.015132294
0.59382182 -0.002821377 0.015120191
0.59381604 -0.0020152195 0.015108089
0.5938102 -0.001209061 0.015095987
0.59380442 -0.00040290161 0.015083885
0.59379864 0.00040325592 0.015071783
0.59456402 0.0012485289 0.015695956
0.59455824 0.0020530941 0.015683878
0.59455246 0.0028576592 0.015671799
0.59454668 0.0036622246 0.015659722
0.59454083 0.0044667898 0.015647644
0.59453505 0.0052713547 0.015635565
0.59452927 0.0060759201 0.015623487
0.59452349 0.0068804855 0.015611408
0.59451771 0.0076850504 0.01559933
0.59451193 0.0084896162 0.015587253
0.59450614 0.0092941811 0.015575174
0.59450036 0.010098747 0.015563096
0.59449452 0.010903312 0.015551018
0.59448874 0.011707877 0.015538939
0.59448296 0.012512443 0.015526861
0.59447718 0.013317008 0.015514783
0.5944714 0.014121573 0.015502704
0.59446561 0.014926138 0.015490626
0.59445983 0.015730703 0.015478548
0.59445405 0.016535269 0.015466469
0.59444821 0.017339835 0.015454392
0.59444243 0.018144399 0.015442314
0.59443665 0.018948965 0.015430235
0.59443086 0.019753531 0.015418157
0.59442508 0.020558095 0.015406079
0.5944193 0.02136266 0.015394
0.59441352 0.022167226 0.015381922
0.59440774 0.02297179 0.015369844
0.59517342 0.023770859 0.015994672
0.59516764 0.024573831 0.015982619
0.59516186 0.025376802 0.015970564
0.59515607 0.026179776 0.01595851
0.59515029 0.026982747 0.015946455
0.59514451 0.027785718 0.0159344
0.59513873 0.028588692 0.015922347
0.59513295 0.029391665 0.015910292
0.59512717 0.030194636 0.015898237
0.59512138 0.030997608 0.015886184
0.5951156 0.031800579 0.015874129
0.59510982 0.032603551 0.015862076
0.59510404 0.033406526 0.015850021
0.59509826 0.034209497 0.015837966
0.59509254 0.035012469 0.015825912
0.59508675 0.03581544 0.015813857
0.59508097 0.036618415 0.015801804
0.59507519 0.037421383 0.015789749
0.59506941 0.038224354 0.015777694
0.59506363 0.03902733 0.015765641
0.59505785 0.039830301 0.015753586
0.59505206 0.040633272 0.015741531
0.59504628 0.041436244 0.015729478
0.5950405 0.042239219 0.015717423
0.59503472 0.04304219 0.015705369
0.59502894 0.043845162 0.015693314
0.59502316 0.044648133 0.015681259
0.59501737 0.045451108 0.015669206
0.59501165 0.04625408 0.015657151
0.59500587 0.047057051 0.015645098
0.59500009 0.047860023 0.015633043
0.59499431 0.048662994 0.015620989
0.59498852 0.049465969 0.015608934
0.59498274 0.050268941 0.01559688
0.59497696 0.051071908 0.015584826
0.59497118 0.051874883 0.015572771
0.5949654 0.052677855 0.015560717
0.59495962 0.053480826 0.015548662
0.59495384 0.054283798 0.015536608
0.59494805 0.055086769 0.015524554
0.59494227 0.055889744 0.0155125
0.59493649 0.056692716 0.015500445
0.59415877 0.057568099 0.01485048
0.59415299 0.058372665 0.014838401
0.59414721 0.059177227 0.014826323
0.59414142 0.059981793 0.014814245
0.59413564 0.060786359 0.014802166
0.59412986 0.061590925 0.014790089
0.59335196 0.062477469 0.014139917
0.59334618 0.063283622 0.014127814
0.5933404 0.064089783 0.014115713
0.59333456 0.064895943 0.01410361
0.59332877 0.065702096 0.014091508
0.59255087 0.066598192 0.013441232
0.59254509 0.067405947 0.013429105
0.59253925 0.068213694 0.013416979
0.59253347 0.069021448 0.013404854
0.59252763 0.069829203 0.013392727
0.59252185 0.070636958 0.013380601
0.59174389 0.0715442 0.012730156
0.59173805 0.072353542 0.012718006
0.59173226 0.073162891 0.012705857
0.59095424 0.074076511 0.012055317
0.59017617 0.07499332 0.01140469
0.58939809 0.075913318 0.010754055
0.58707559 0.077054597 0.0088264486
0.58475298 0.078205451 0.0068986597
0.58165807 0.079478107 0.0043322179
0.59284562 -0.011824247 0.013346596
0.59360981 -0.010951882 0.013971574
0.59360397 -0.010144131 0.013959448
0.59359819 -0.0093363803 0.013947322
0.59359235 -0.0085286256 0.013935196
0.59358656 -0.0077208751 0.013923069
0.59358072 -0.0069131246 0.013910944
0.59357494 -0.0061053718 0.013898818
0.5935691 -0.0052976189 0.013886691
0.59356332 -0.0044898684 0.013874565
0.59355748 -0.0036821174 0.013862439
0.5935517 -0.0028743648 0.013850314
0.59354585 -0.0020666129 0.013838187
0.59431016 -0.001214959 0.014463477
0.59430438 -0.00040879956 0.014451374
0.5942986 0.00039735797 0.014439273
0.59429276 0.0012035174 0.01442717
0.59428698 0.0020096749 0.014415068
0.5942812 0.0028158342 0.014402966
0.59427541 0.0036219927 0.014390863
0.59426957 0.0044281511 0.014378762
0.59426379 0.0052343095 0.014366659
0.59425801 0.0060404683 0.014354557
0.59425217 0.0068466268 0.014342455
0.59424639 0.0076527852 0.014330353
0.59424061 0.008458944 0.014318251
0.59423476 0.0092651024 0.014306149
0.59422898 0.010071261 0.014294047
0.5942232 0.010877419 0.014281944
0.59421736 0.011683578 0.014269842
0.59421158 0.012489737 0.01425774
0.5942058 0.013295895 0.014245638
0.59419996 0.014102054 0.014233536
0.59419417 0.014908212 0.014221434
0.59418839 0.015714372 0.014209331
0.59418255 0.01652053 0.014197229
0.59417677 0.017326688 0.014185127
0.59417099 0.018132847 0.014173025
0.59416521 0.018939005 0.014160923
0.59415936 0.019745164 0.01414882
0.59415358 0.020551322 0.014136719
0.59491825 0.021356774 0.01476274
0.59491247 0.02216134 0.014750661
0.59490669 0.022965904 0.014738583
0.59490091 0.02377047 0.014726505
0.59489512 0.024575036 0.014714427
0.59488934 0.025379602 0.014702349
0.59488356 0.026184166 0.014690271
0.59487772 0.026988732 0.014678192
0.59487194 0.027793298 0.014666114
0.59486616 0.028597862 0.014654036
0.59486037 0.029402427 0.014641957
0.59485459 0.030206993 0.014629879
0.59484881 0.031011557 0.014617801
0.59484303 0.031816121 0.014605722
0.59483725 0.032620691 0.014593644
0.59483141 0.033425253 0.014581567
0.59482563 0.034229819 0.014569488
0.59481984 0.035034381 0.01455741
0.59481406 0.03583895 0.014545332
0.59480828 0.036643516 0.014533253
0.5948025 0.037448078 0.014521175
0.59479672 0.038252644 0.014509097
0.59479094 0.03905721 0.014497018
0.59478509 0.039861776 0.01448494
0.59477931 0.040666342 0.014472862
0.59477353 0.041470908 0.014460783
0.59476775 0.042275473 0.014448706
0.59476197 0.043080036 0.014436628
0.59475619 0.043884601 0.014424549
0.5947504 0.044689167 0.014412471
0.59474462 0.045493733 0.014400393
0.59473878 0.046298299 0.014388314
0.594733 0.047102861 0.014376236
0.59472722 0.047907427 0.014364158
0.59472144 0.048711993 0.014352079
0.59471565 0.049516559 0.014340001
0.59470987 0.050321124 0.014327923
0.59470409 0.05112569 0.014315845
0.59469831 0.051930256 0.014303767
0.59469247 0.052734822 0.014291689
0.59468669 0.053539388 0.01427961
0.59468091 0.05434395 0.014267532
0.59467512 0.055148516 0.014255454
0.59466934 0.055953085 0.014243376
0.59466356 0.056757648 0.014231297
0.59465778 0.057562213 0.014219219
0.594652 0.058366779 0.014207141
0.59387517 0.059246931 0.013555815
0.59386933 0.060053091 0.013543713
0.59386355 0.060859248 0.01353161
0.59385777 0.061665405 0.013519509
0.59385192 0.062471569 0.013507406
0.59384614 0.063277729 0.013495304
0.59306931 0.064169034 0.012843849
0.59306347 0.064976782 0.012831723
0.59305769 0.065784536 0.012819597
0.59305185 0.066592284 0.012807471
0.59304607 0.067400038 0.012795345
0.59304023 0.068207785 0.012783219
0.59303445 0.06901554 0.012771092
0.5922575 0.069919586 0.012119447
0.59225166 0.070728935 0.012107297
0.59224582 0.071538277 0.012095147
0.59223998 0.072347626 0.012082997
0.59146297 0.073259637 0.01143123
0.59145719 0.074070573 0.011419057
0.59068006 0.074987374 0.01076718
0.58913177 0.076014809 0.0094756065
0.58758348 0.077048607 0.0081839385
0.58526379 0.078199424 0.0062523992
0.58217281 0.079472035 0.0036809577
0.57831049 0.080871217 0.00046954115
0.59334761 -0.011830169 0.012711585
0.59334177 -0.011020824 0.012699435
0.59333593 -0.010211479 0.012687285
0.59333009 -0.0094021363 0.012675135
0.5933243 -0.0085927891 0.012662985
0.59331846 -0.0077834441 0.012650835
0.59331262 -0.0069741011 0.012638685
0.59330684 -0.0061647538 0.012626535
0.59407008 -0.0053035286 0.013252933
0.59406424 -0.0044957777 0.013240806
0.59405845 -0.0036880269 0.01322868
0.59405261 -0.0028802743 0.013216554
0.59404683 -0.0020725226 0.013204428
0.59404099 -0.0012647709 0.013192302
0.59403521 -0.00045701914 0.013180176
0.59402937 0.00035073262 0.01316805
0.59402359 0.0011584844 0.013155924
0.59401774 0.0019662362 0.013143797
0.59401196 0.0027739878 0.013131672
0.59400612 0.0035817395 0.013119546
0.59400034 0.0043894914 0.013107419
0.5939945 0.0051972428 0.013095293
0.59398872 0.0060049947 0.013083167
0.59398288 0.0068127466 0.013071042
0.59397709 0.0076204981 0.013058915
0.59397125 0.0084282504 0.013046789
0.59396547 0.0092360014 0.013034663
0.59395963 0.010043753 0.013022537
0.59395385 0.010851505 0.013010411
0.59394801 0.011659257 0.012998285
0.59394222 0.012467009 0.012986159
0.59393638 0.01327476 0.012974032
0.5939306 0.014082512 0.012961906
0.59392476 0.014890264 0.012949781
0.59391898 0.015698016 0.012937655
0.59391314 0.016505767 0.012925528
0.59390736 0.017313519 0.012913402
0.59390152 0.01812127 0.012901276
0.59466517 0.018933108 0.013528414
0.59465933 0.019739266 0.013516312
0.59465355 0.020545425 0.013504209
0.59464777 0.021351583 0.013492107
0.59464192 0.022157742 0.013480005
0.59463614 0.0229639 0.013467903
0.59463036 0.023770059 0.013455801
0.59462452 0.024576217 0.013443698
0.59461874 0.025382375 0.013431597
0.59461296 0.026188534 0.013419494
0.59460711 0.026994694 0.013407392
0.59460133 0.027800852 0.01339529
0.59459555 0.028607011 0.013383187
0.59458971 0.029413169 0.013371086
0.59458393 0.030219328 0.013358983
0.59457815 0.031025484 0.013346882
0.59457237 0.031831644 0.013334779
0.59456652 0.032637805 0.013322677
0.59456074 0.033443961 0.013310575
0.59455496 0.034250122 0.013298472
0.59454912 0.035056278 0.013286371
0.59454334 0.035862438 0.013274268
0.59453756 0.036668595 0.013262167
0.59453171 0.037474755 0.013250064
0.59452593 0.038280912 0.013237962
0.59452015 0.039087072 0.01322586
0.59451431 0.039893229 0.013213757
0.59450853 0.040699389 0.013201656
0.59450275 0.041505545 0.013189553
0.59449691 0.042311706 0.013177451
0.59449112 0.043117862 0.013165349
0.59448534 0.043924022 0.013153247
0.5944795 0.044730183 0.013141145
0.59447372 0.045536339 0.013129042
0.59446794 0.0463425 0.01311694
0.59446216 0.047148656 0.013104838
0.59445632 0.047954816 0.013092736
0.59445053 0.048760973 0.013080634
0.59444475 0.049567133 0.013068532
0.59443891 0.050373293 0.013056429
0.59443313 0.05117945 0.013044327
0.59442735 0.05198561 0.013032225
0.59442151 0.052791767 0.013020123
0.59441572 0.053597923 0.013008021
0.59440994 0.054404084 0.012995918
0.5944041 0.05521024 0.012983817
0.59439832 0.056016404 0.012971714
0.59439254 0.056822561 0.012959613
0.5943867 0.057628717 0.01294751
0.59438092 0.058434878 0.012935407
0.59437513 0.059241034 0.012923306
0.59436929 0.060047194 0.012911203
0.59359348 0.060932111 0.012258594
0.5935877 0.061739862 0.012246468
0.59358186 0.062547617 0.012234342
0.59357607 0.063355371 0.012222216
0.59357023 0.064163126 0.01221009
0.59356445 0.064970873 0.012197964
0.59355861 0.065778628 0.012185838
0.59278274 0.066676289 0.011533037
0.59277689 0.067485631 0.011520887
0.59277105 0.06829498 0.011508737
0.59276521 0.069104329 0.011496587
0.59275943 0.06991367 0.011484437
0.59275359 0.070723012 0.011472287
0.5919776 0.071631834 0.010819319
0.59197176 0.07244277 0.010807144
0.59196591 0.073253706 0.01079497
0.59118986 0.074168898 0.010141869
0.59041375 0.075087272 0.0094887568
0.5896377 0.076008841 0.008835597
0.58732104 0.077151656 0.0069004283
0.58500439 0.07830403 0.0049651545
0.58191735 0.079578184 0.002388688
0.57883024 0.080865085 -0.00018796875
0.59231931 -0.012777901 0.010809526
0.59384954 -0.01183609 0.012076575
0.5938437 -0.011026746 0.012064425
0.59383786 -0.0102174 0.012052275
0.59383208 -0.0094080567 0.012040125
0.59382623 -0.0085987104 0.012027975
0.59382039 -0.0077893655 0.012015826
0.59381461 -0.0069800219 0.012003676
0.59380877 -0.0061706752 0.011991526
0.59380293 -0.0053613302 0.011979376
0.59379709 -0.0045519853 0.011967226
0.59379131 -0.003742642 0.011955076
0.59378546 -0.0029332952 0.011942926
0.59377962 -0.0021239512 0.011930776
0.59454197 -0.0012706805 0.012558541
0.59453619 -0.00046292873 0.012546415
0.59453034 0.000344823 0.01253429
0.59452456 0.0011525748 0.012522163
0.59451872 0.0019603265 0.012510037
0.59451294 0.0027680781 0.012497911
0.5945071 0.00357583 0.012485784
0.59450132 0.0043835817 0.012473659
0.59449548 0.0051913336 0.012461533
0.59448969 0.005999085 0.012449407
0.59448385 0.0068068369 0.01243728
0.59447807 0.0076145888 0.012425154
0.59447223 0.0084223403 0.012413029
0.59446645 0.0092300922 0.012400903
0.59446061 0.010037844 0.012388776
0.59445477 0.010845596 0.01237665
0.59444898 0.011653347 0.012364524
0.59444314 0.012461099 0.012352398
0.59443736 0.013268851 0.012340272
0.59443152 0.014076603 0.012328146
0.59442574 0.014884355 0.01231602
0.5944199 0.015692106 0.012303893
0.59441411 0.016499858 0.012291768
0.59440827 0.017307609 0.012279642
0.59440249 0.018115362 0.012267516
0.59439665 0.018923113 0.012255389
0.59439087 0.019730866 0.012243263
0.59438503 0.020538617 0.012231138
0.59437925 0.021346368 0.012219011
0.5943734 0.022154121 0.012206885
0.59436762 0.022961872 0.012194759
0.59513032 0.023764161 0.01282329
0.59512448 0.02457032 0.012811188
0.5951187 0.025376478 0.012799086
0.59511292 0.026182637 0.012786984
0.59510708 0.026988795 0.012774882
0.5951013 0.027794953 0.012762779
0.59509552 0.028601112 0.012750677
0.59508973 0.029407272 0.012738575
0.59508389 0.030213431 0.012726473
0.59507811 0.031019587 0.012714371
0.59507233 0.031825744 0.012702269
0.59506649 0.032631904 0.012690166
0.59506071 0.033438064 0.012678064
0.59505492 0.034244221 0.012665962
0.59428042 0.035078146 0.012012868
0.59427464 0.0358859 0.012000742
0.5942688 0.036693651 0.011988616
0.59426302 0.037501402 0.01197649
0.59425718 0.038309153 0.011964364
0.59425139 0.039116908 0.011952237
0.59424555 0.039924659 0.011940111
0.59423977 0.04073241 0.011927986
0.59423393 0.041540161 0.01191586
0.59422815 0.042347912 0.011903733
0.59422231 0.043155666 0.011891607
0.59498531 0.043918125 0.012520736
0.59497952 0.044724286 0.012508634
0.59497368 0.045530442 0.012496532
0.5949679 0.046336602 0.012484429
0.59496212 0.047142759 0.012472328
0.59495628 0.047948919 0.012460225
0.5949505 0.048755076 0.012448124
0.59494472 0.049561236 0.012436021
0.59493887 0.050367396 0.012423919
0.59493309 0.051173553 0.012411817
0.59492731 0.051979713 0.012399714
0.59492147 0.05278587 0.012387613
0.59491569 0.053592026 0.01237551
0.59490991 0.054398187 0.012363408
0.59490407 0.055204343 0.012351306
0.59489828 0.056010507 0.012339204
0.5948925 0.056816664 0.012327102
0.5941177 0.057695199 0.011673338
0.59411186 0.05850295 0.011661212
0.59410608 0.059310701 0.011649086
0.59410024 0.060118452 0.011636959
0.59409446 0.060926203 0.011624834
0.59408861 0.061733954 0.011612708
0.59408283 0.062541708 0.011600582
0.59330797 0.063432992 0.010946627
0.59330213 0.064242333 0.010934477
0.59329629 0.065051675 0.010922327
0.59329045 0.065861024 0.010910177
0.59328467 0.066670366 0.010898027
0.59327883 0.067479715 0.010885877
0.59250385 0.068382144 0.010231754
0.59249806 0.069193088 0.01021958
0.59249222 0.070004024 0.010207406
0.59248638 0.07081496 0.010195232
0.59248054 0.071625896 0.010183059
0.5924747 0.072436832 0.010170884
0.5916996 0.073350422 0.0095165558
0.59169376 0.07416296 0.0095043583
0.59091866 0.075081319 0.0088499961
0.59014356 0.076002873 0.0081955865
0.58859921 0.077036627 0.0068989182
0.58628547 0.078187376 0.004959879
0.58320242 0.079459891 0.0023784372
0.58011925 0.080745153 -0.0002031959
0.59281737 -0.011971313 0.010159818
0.59357864 -0.011095722 0.010788538
0.5935728 -0.010284785 0.010776363
0.59356695 -0.0094738472 0.01076419
0.59356111 -0.0086629083 0.010752016
0.59355527 -0.0078519695 0.010739842
0.59354943 -0.0070410315 0.010727668
0.59354359 -0.0062300926 0.010715494
0.59353775 -0.0054191551 0.010703321
0.59429908 -0.0045579067 0.011332217
0.59429324 -0.0037485634 0.011320067
0.5942874 -0.0029392163 0.011307917
0.59428161 -0.0021298723 0.011295767
0.59427577 -0.0013205274 0.011283617
0.59426993 -0.00051118236 0.011271467
0.59426409 0.00029816176 0.011259316
0.59425831 0.0011075077 0.011247166
0.59425247 0.0019168517 0.011235016
0.59424663 0.0027261977 0.011222866
0.59424084 0.0035355417 0.011210716
0.594235 0.0043448866 0.011198566
0.59422916 0.005154232 0.011186416
0.59422338 0.0059635765 0.011174266
0.59421754 0.0067729214 0.011162116
0.5942117 0.0075822663 0.011149966
0.59420586 0.0083916113 0.011137816
0.59420007 0.0092009567 0.011125667
0.59419423 0.010010301 0.011113517
0.59418839 0.010819647 0.011101367
0.59418261 0.011628991 0.011089217
0.59417677 0.012438336 0.011077067
0.59417093 0.013247681 0.011064917
0.59416515 0.014057026 0.011052767
0.59415931 0.014866371 0.011040617
0.59415346 0.015675716 0.011028467
0.59414762 0.016485061 0.011016317
0.59414184 0.017294405 0.011004167
0.594136 0.01810375 0.010992017
0.59489763 0.018917203 0.011621631
0.59489185 0.019724956 0.011609504
0.594886 0.020532707 0.011597378
0.59488022 0.021340458 0.011585252
0.59487438 0.022148211 0.011573126
0.5948686 0.022955962 0.011561
0.59486276 0.023763714 0.011548874
0.59485692 0.024571465 0.011536748
0.59485114 0.025379218 0.011524621
0.59484529 0.026186969 0.011512496
0.59483951 0.02699472 0.01150037
0.59483367 0.027802473 0.011488244
0.59482789 0.028610224 0.011476117
0.59482205 0.029417977 0.011463991
0.59481627 0.03022573 0.011451866
0.59481043 0.031033479 0.011439739
0.59480464 0.03184123 0.011427613
0.5947988 0.032648984 0.011415487
0.59479302 0.033456735 0.011403361
0.59478718 0.034264486 0.011391235
0.5947814 0.035072237 0.011379109
0.59477556 0.035879988 0.011366983
0.59476978 0.036687743 0.011354857
0.59476393 0.037495494 0.01134273
0.59475815 0.038303245 0.011330605
0.59475231 0.039110996 0.011318479
0.59474653 0.039918751 0.011306352
0.59474069 0.040726501 0.011294226
0.59473491 0.041534252 0.0112821
0.59472907 0.042342003 0.011269975
0.59472328 0.043149758 0.011257848
0.59471744 0.043957509 0.011245722
0.59471166 0.044765256 0.011233596
0.59470582 0.045573011 0.01122147
0.59470004 0.046380762 0.011209344
0.5946942 0.047188513 0.011197218
0.59468842 0.047996264 0.011185092
0.59468257 0.048804015 0.011172965
0.59467679 0.04961177 0.011160839
0.59467095 0.050419521 0.011148714
0.59466517 0.051227275 0.011136588
0.59465933 0.052035026 0.011124461
0.59465355 0.052842777 0.011112335
0.59464771 0.053650528 0.011100209
0.59464192 0.054458279 0.011088083
0.59463608 0.05526603 0.011075957
0.5946303 0.056073785 0.011063831
0.59462446 0.056881536 0.011051705
0.59461868 0.05768929 0.011039578
0.59461284 0.058497041 0.011027453
0.59460706 0.059304792 0.011015327
0.59383321 0.060189687 0.010360217
0.59382737 0.060999028 0.010348068
0.59382153 0.061808374 0.010335918
0.59381574 0.062617727 0.010323768
0.5938099 0.063427068 0.010311618
0.593036 0.064321518 0.0096563641
0.59303015 0.065132461 0.0096441898
0.59302431 0.065943398 0.0096320165
0.59301847 0.066754334 0.0096198423
0.59301263 0.067565277 0.009607669
0.59300679 0.068376206 0.0095954947
0.59300095 0.069187149 0.0095833205
0.59299511 0.069998085 0.0095711472
0.59298933 0.070809029 0.0095589729
0.59221524 0.071719423 0.008903442
0.5922094 0.072531946 0.0088912444
0.59220356 0.073344477 0.0088790469
0.59219766 0.074157014 0.0088668484
0.59142357 0.075075366 0.0082112374
0.58988124 0.076104321 0.0069121397
0.5891071 0.077030636 0.0062564081
0.58602804 0.078291953 0.0036701334
0.58371723 0.079453819 0.0017271778
0.58063799 0.080739029 -0.00085945573
0.59332132 -0.011977256 0.0095223086
0.59408158 -0.011101655 0.010152277
0.59407574 -0.010290718 0.010140103
0.5940699 -0.0094797807 0.010127929
0.59406406 -0.0086688409 0.010115755
0.59405822 -0.007857902 0.010103581
0.59405237 -0.0070469645 0.010091407
0.59404653 -0.0062360256 0.010079233
0.59404069 -0.0054250881 0.01006706
0.59403485 -0.0046141506 0.010054885
0.59402907 -0.0038032134 0.010042712
0.59402323 -0.002992274 0.010030538
0.59401739 -0.0021813358 0.010018364
0.59401155 -0.0013703984 0.01000619
0.5940057 -0.00055945927 0.009994016
0.59399986 0.00025147808 0.0099818418
0.59399402 0.0010624164 0.0099696685
0.5947544 0.0019109305 0.010600006
0.59474862 0.0027202764 0.010587856
0.59474277 0.0035296206 0.010575706
0.59473693 0.0043389658 0.010563556
0.59473115 0.0051483107 0.010551406
0.59472531 0.0059576551 0.010539256
0.59471947 0.0067670001 0.010527106
0.59471363 0.007576345 0.010514956
0.59470785 0.0083856899 0.010502806
0.59470201 0.0091950353 0.010490656
0.59469616 0.01000438 0.010478506
0.59469038 0.010813725 0.010466356
0.59468454 0.01162307 0.010454206
0.5946787 0.012432415 0.010442056
0.59467292 0.01324176 0.010429906
0.59466708 0.014051105 0.010417756
0.59466124 0.014860449 0.010405606
0.59465539 0.015669795 0.010393456
0.59464961 0.01647914 0.010381306
0.59464377 0.017288484 0.010369156
0.59463793 0.018097829 0.010357006
0.59463215 0.018907174 0.010344856
0.59462631 0.01971652 0.010332706
0.59462047 0.020525865 0.010320556
0.59461462 0.021335209 0.010308406
0.59460884 0.022144554 0.010296256
0.594603 0.0229539 0.010284106
0.59459716 0.023763243 0.010271956
0.59459138 0.024572589 0.010259806
0.59458554 0.025381934 0.010247656
0.5945797 0.026191277 0.010235506
0.59457392 0.027000625 0.010223356
0.59456807 0.027809968 0.010211206
0.59456223 0.028619314 0.010199056
0.59455639 0.029428659 0.010186906
0.59455061 0.030238004 0.010174756
0.59454477 0.031047348 0.010162606
0.59453893 0.031856693 0.010150456
0.59453315 0.032666039 0.010138306
0.5945273 0.03347538 0.010126156
0.59452146 0.034284726 0.010114006
0.59451568 0.035094071 0.010101856
0.59450984 0.035903417 0.010089706
0.594504 0.036712762 0.010077557
0.59449816 0.037522107 0.010065407
0.59449238 0.038331453 0.010053257
0.59448653 0.039140798 0.010041106
0.59448069 0.039950144 0.010028956
0.59447491 0.040759489 0.010016806
0.59446907 0.041568831 0.010004656
0.59446323 0.042378176 0.0099925064
0.59445745 0.043187521 0.0099803563
0.59445161 0.043996867 0.0099682063
0.59444577 0.044806212 0.0099560563
0.59443992 0.045615558 0.0099439062
0.59443414 0.046424903 0.0099317562
0.59519517 0.047182605 0.010563457
0.59518933 0.047990356 0.010551331
0.59518355 0.048798107 0.010539205
0.59517771 0.049605861 0.010527079
0.59517193 0.050413612 0.010514953
0.59516609 0.051221367 0.010502826
0.59516031 0.052029118 0.010490701
0.59515446 0.052836869 0.010478575
0.59514868 0.05364462 0.010466449
0.59514284 0.054452371 0.010454322
0.59513706 0.055260122 0.010442196
0.59436423 0.056137044 0.0097859567
0.59435844 0.056946389 0.0097738067
0.5943526 0.057755731 0.0097616566
0.59434676 0.058565073 0.0097495066
0.59434098 0.059374418 0.0097373566
0.59433514 0.060183764 0.0097252065
0.5943293 0.060993109 0.0097130565
0.5935564 0.061882775 0.009056625
0.59355056 0.062693715 0.0090444516
0.59354472 0.063504651 0.0090322774
0.59353888 0.064315587 0.0090201031
0.5935331 0.065126523 0.0090079298
0.59352726 0.065937459 0.0089957556
0.59275424 0.066838287 0.0083391191
0.59274834 0.067650817 0.0083269216
0.5927425 0.068463348 0.0083147231
0.59273666 0.069275878 0.0083025256
0.59273082 0.070088409 0.0082903281
0.59272498 0.070900939 0.0082781296
0.59271914 0.071713477 0.0082659321
0.5927133 0.072526008 0.0082537346
0.59270746 0.073338531 0.0082415361
0.59193438 0.07425528 0.0075846985
0.59116125 0.075175218 0.0069278129
0.58962083 0.076205745 0.0056261914
0.58884764 0.077133648 0.0049691475
0.58577251 0.078396507 0.0023778493
0.58346468 0.07955993 0.0004311571
0.59229517 -0.012112546 0.0075980881
0.59381938 -0.011170671 0.0088726003
0.59381354 -0.01035814 0.0088604027
0.5938077 -0.0095456084 0.0088482043
0.59380186 -0.008733077 0.0088360067
0.59379601 -0.0079205455 0.0088238092
0.59379017 -0.0071080136 0.0088116108
0.59378433 -0.0062954822 0.0087994132
0.59377849 -0.0054829507 0.0087872157
0.59377259 -0.0046704193 0.0087750172
0.59376675 -0.0038578894 0.0087628197
0.59376091 -0.0030453559 0.0087506222
0.59375507 -0.0022328254 0.0087384237
0.59451449 -0.0013763313 0.0093699312
0.59450865 -0.00056539214 0.0093577579
0.59450281 0.0002455452 0.0093455836
0.59449697 0.0010564835 0.0093334094
0.59449112 0.0018674218 0.0093212361
0.59448528 0.0026783601 0.0093090618
0.59447944 0.0034892973 0.0092968876
0.5944736 0.0043002367 0.0092847142
0.59446776 0.0051111742 0.00927254
0.59446198 0.0059221117 0.0092603657
0.59445614 0.0067330501 0.0092481924
0.59445029 0.0075439881 0.0092360182
0.59444445 0.0083549265 0.0092238449
0.59443861 0.0091658644 0.0092116706
0.59443277 0.0099768024 0.0091994964
0.59442693 0.01078774 0.009187323
0.59442109 0.011598678 0.0091751488
0.59441525 0.012409617 0.0091629745
0.59440947 0.013220555 0.0091508012
0.59440362 0.014031493 0.009138627
0.59439778 0.014842431 0.0091264527
0.59439194 0.01565337 0.0091142794
0.5943861 0.016464308 0.0091021052
0.59438026 0.017275246 0.0090899318
0.59437442 0.018086184 0.0090777576
0.59436858 0.018897122 0.0090655833
0.59436274 0.01970806 0.00905341
0.59435695 0.020518998 0.0090412358
0.59435111 0.021329936 0.0090290615
0.59511077 0.022138633 0.009661247
0.59510493 0.022947978 0.009649097
0.59509915 0.023757324 0.009636947
0.59509331 0.024566667 0.0096247969
0.59508747 0.025376013 0.0096126469
0.59508169 0.026185356 0.0096004969
0.59507585 0.026994703 0.0095883468
0.59507 0.027804047 0.0095761968
0.59506416 0.028613392 0.0095640467
0.59505838 0.029422738 0.0095518967
0.59505254 0.030232083 0.0095397467
0.5950467 0.031041427 0.0095275966
0.59427524 0.031872131 0.008870801
0.59426939 0.032683071 0.0088586276
0.59426355 0.033494007 0.0088464534
0.59425771 0.034304943 0.0088342791
0.59425187 0.035115883 0.0088221058
0.59424609 0.035926823 0.0088099316
0.59424025 0.036737759 0.0087977573
0.59423441 0.037548698 0.008785584
0.59422857 0.038359635 0.0087734098
0.59422272 0.039170574 0.0087612355
0.59421688 0.03998151 0.0087490622
0.59421104 0.04079245 0.0087368879
0.594971 0.041562907 0.0093696471
0.59496516 0.042372257 0.0093574971
0.59495938 0.043181602 0.0093453471
0.59495354 0.043990944 0.009333197
0.5949477 0.044800293 0.009321047
0.59494191 0.045609634 0.009308897
0.59493607 0.04641898 0.0092967469
0.59493023 0.047228325 0.0092845969
0.59492445 0.048037667 0.0092724469
0.59491861 0.048847012 0.0092602968
0.59491277 0.049656361 0.0092481468
0.59490693 0.050465707 0.0092359968
0.59490114 0.051275052 0.0092238467
0.5948953 0.052084398 0.0092116967
0.59488946 0.052893743 0.0091995467
0.59488368 0.053703081 0.0091873975
0.59487784 0.054512426 0.0091752475
0.594872 0.055321772 0.0091630975
0.59486622 0.056131121 0.0091509474
0.59486037 0.056940466 0.0091387974
0.59408849 0.057822153 0.0084812362
0.59408271 0.058633089 0.0084690619
0.59407687 0.059444025 0.0084568886
0.59407103 0.060254961 0.0084447144
0.59406519 0.061065901 0.0084325401
0.59405935 0.061876841 0.0084203668
0.59328735 0.062769689 0.0077625979
0.59328151 0.063582219 0.0077504003
0.59327567 0.06439475 0.0077382023
0.59326982 0.06520728 0.0077260043
0.59326398 0.066019811 0.0077138068
0.59325814 0.066832341 0.0077016088
0.5932523 0.067644872 0.0076894113
0.59324646 0.068457402 0.0076772133
0.59324062 0.06926994 0.0076650153
0.59323478 0.070082471 0.0076528178
0.59322894 0.070894994 0.0076406198
0.59322304 0.071707532 0.0076284218
0.59245098 0.072621077 0.0069703828
0.59244514 0.073435202 0.006958161
0.59243929 0.074249327 0.0069459393
0.59166718 0.07516925 0.0062878025
0.59012872 0.076199755 0.0049836822
0.5885902 0.07723663 0.0036794264
0.58628535 0.078390457 0.0017290899
0.58398044 0.079553843 -0.00022135179
0.59203702 -0.012183199 0.0063134744
0.59355927 -0.011239707 0.0075904625
0.59355336 -0.010425581 0.0075782407
0.59354752 -0.0096114567 0.007566019
0.59430575 -0.0087390216 0.0081984978
0.59429991 -0.0079264902 0.0081863003
0.59429407 -0.0071139582 0.0081741028
0.59428823 -0.0063014268 0.0081619043
0.59428239 -0.0054888953 0.0081497068
0.59427655 -0.0046763634 0.0081375092
0.59427071 -0.0038638341 0.0081253108
0.59426486 -0.0030513005 0.0081131132
0.59425902 -0.00223877 0.0081009157
0.59425318 -0.0014262393 0.0080887172
0.59424728 -0.00061370683 0.0080765197
0.59424144 0.00019882381 0.0080643222
0.5942356 0.0010113553 0.0080521246
0.59422976 0.0018238869 0.0080399262
0.59422392 0.0026364184 0.0080277286
0.59421808 0.0034489492 0.0080155311
0.59421223 0.0042614806 0.0080033327
0.59420639 0.0050740121 0.0079911351
0.59420055 0.0058865431 0.0079789376
0.59419471 0.006699075 0.0079667391
0.59418887 0.007511606 0.0079545416
0.59418297 0.0083241379 0.0079423441
0.59417713 0.0091366693 0.0079301456
0.59417129 0.0099492008 0.0079179481
0.59416544 0.010761731 0.0079057505
0.5941596 0.011574263 0.0078935521
0.59415376 0.012386794 0.0078813545
0.59414792 0.013199326 0.007869157
0.59414208 0.014011857 0.0078569585
0.59490073 0.014836499 0.0084901927
0.59489489 0.015647436 0.0084780185
0.59488904 0.016458374 0.0084658442
0.59411871 0.017261982 0.0078081675
0.59487736 0.018080249 0.0084414966
0.59487152 0.018891189 0.0084293224
0.59486568 0.019702127 0.0084171491
0.59485984 0.020513065 0.0084049748
0.594854 0.021324003 0.0083928015
0.59484822 0.022134941 0.0083806273
0.59484237 0.022945879 0.008368453
0.59483653 0.023756817 0.0083562797
0.59483069 0.024567755 0.0083441054
0.59482485 0.025378693 0.0083319312
0.59481901 0.026189631 0.0083197579
0.59481317 0.027000571 0.0083075836
0.59480733 0.027811507 0.0082954103
0.59480149 0.028622447 0.0082832361
0.59479564 0.029433385 0.0082710618
0.59478986 0.030244321 0.0082588885
0.59478402 0.03105526 0.0082467142
0.59477818 0.031866197 0.00823454
0.59477234 0.032677136 0.0082223667
0.5947665 0.033488076 0.0082101924
0.59476066 0.034299012 0.0081980182
0.59475482 0.035109948 0.0081858449
0.59474897 0.035920892 0.0081736706
0.59474313 0.036731828 0.0081614973
0.59473735 0.037542764 0.0081493231
0.59473151 0.038353704 0.0081371488
0.59472567 0.03916464 0.0081249755
0.59471983 0.03997558 0.0081128012
0.59471399 0.040786516 0.008100627
0.59470814 0.041597456 0.0080884537
0.5947023 0.042408396 0.0080762794
0.59469646 0.043219332 0.0080641052
0.59469062 0.044030268 0.0080519319
0.59468484 0.044841208 0.0080397576
0.594679 0.045652147 0.0080275843
0.59467316 0.046463083 0.00801541
0.59466732 0.04727402 0.0080032358
0.59466147 0.048084959 0.0079910625
0.59465563 0.048895895 0.0079788882
0.59464979 0.049706839 0.007966714
0.59464395 0.050517779 0.0079545407
0.59463811 0.051328711 0.0079423664
0.59463227 0.052139651 0.0079301922
0.59462649 0.052950587 0.0079180188
0.59462065 0.053761527 0.0079058446
0.5946148 0.054572463 0.0078936713
0.59460896 0.055383403 0.007881497
0.59460312 0.056194343 0.0078693228
0.59459728 0.057005279 0.0078571495
0.59459144 0.057816219 0.0078449752
0.59382051 0.058701083 0.0071860785
0.59381467 0.059513614 0.0071738805
0.59380883 0.060326144 0.0071616829
0.59380299 0.061138678 0.0071494849
0.59379715 0.061951209 0.0071372874
0.59379131 0.062763743 0.0071250894
0.59378546 0.063576274 0.0071128914
0.59377962 0.064388804 0.0071006939
0.59377378 0.065201335 0.0070884959
0.59376788 0.066013865 0.0070762979
0.59376204 0.066826396 0.0070641004
0.59299105 0.067730375 0.0064049535
0.59298515 0.0685445 0.0063927318
0.59297931 0.069358625 0.0063805101
0.59297347 0.070172749 0.0063682883
0.59296763 0.070986874 0.0063560666
0.59296173 0.071800999 0.0063438448
0.59295589 0.072615124 0.0063316231
0.59218478 0.073531844 0.0056722849
0.59217894 0.074347563 0.0056600394
0.59140778 0.075269066 0.0050006295
0.58987129 0.07630115 0.0036939452
0.58833474 0.07733959 0.0023872054
0.58603287 0.078494973 0.0004330939
0.592538 -0.011371868 0.0056599434
0.59329522 -0.010493048 0.0062935762
0.59405243 -0.0096174134 0.0069272583
0.59404659 -0.0088032875 0.0069150366
0.59404075 -0.0079891635 0.0069028148
0.59403485 -0.0071750395 0.0068905931
0.59402901 -0.0063609141 0.0068783714
0.59402317 -0.0055467901 0.0068661496
0.59401727 -0.0047326661 0.0068539279
0.59401143 -0.0039185421 0.0068417061
0.59400558 -0.0031044164 0.0068294844
0.59399974 -0.0022902917 0.0068172626
0.59399384 -0.0014761678 0.0068050409
0.593988 -0.00066204293 0.0067928191
0.5947454 0.00019287923 0.0074268105
0.59473956 0.0010054108 0.0074146125
0.59473372 0.0018179424 0.0074024149
0.59472781 0.0026304738 0.0073902169
0.59472197 0.0034430046 0.0073780189
0.59471613 0.004255536 0.0073658214
0.59471029 0.0050680675 0.0073536234
0.59470445 0.0058805989 0.0073414254
0.59469861 0.0066931304 0.0073292279
0.59469277 0.0075056613 0.0073170299
0.59468693 0.0083181933 0.0073048323
0.59468108 0.0091307247 0.0072926343
0.59467524 0.0099432562 0.0072804363
0.5946694 0.010755787 0.0072682388
0.59466356 0.011568318 0.0072560408
0.59465766 0.01238085 0.0072438428
0.59465182 0.013193381 0.0072316453
0.59464598 0.014005912 0.0072194473
0.59464014 0.014818444 0.0072072498
0.59463429 0.015630975 0.0071950518
0.59462845 0.016443508 0.0071828538
0.59462261 0.017256038 0.0071706562
0.59461677 0.018068569 0.0071584582
0.59461093 0.018881101 0.0071462602
0.59460509 0.019693632 0.0071340627
0.59459925 0.020506164 0.0071218647
0.59459341 0.021318695 0.0071096667
0.5945875 0.022131227 0.0070974692
0.59458166 0.022943757 0.0070852712
0.59457582 0.02375629 0.0070730736
0.59456998 0.02456882 0.0070608757
0.59456414 0.025381353 0.0070486777
0.5945583 0.026193883 0.0070364801
0.59455246 0.027006416 0.0070242821
0.59454662 0.027818946 0.0070120841
0.59454077 0.028631477 0.0069998866
0.59453493 0.029444009 0.0069876886
0.59452909 0.03025654 0.0069754911
0.59452319 0.03106907 0.0069632931
0.59451735 0.031881601 0.0069510951
0.59451151 0.032694135 0.0069388975
0.59450567 0.033506665 0.0069266995
0.59449983 0.034319196 0.0069145015
0.59449399 0.035131726 0.006902304
0.59448814 0.035944261 0.006890106
0.5944823 0.036756791 0.006877908
0.59447646 0.037569322 0.0068657105
0.59447062 0.038381852 0.0068535125
0.59446478 0.039194386 0.006841315
0.59445894 0.040006917 0.006829117
0.59445304 0.040819447 0.006816919
0.5944472 0.041631978 0.0068047214
0.59444135 0.042444512 0.0067925234
0.59443551 0.043257043 0.0067803254
0.59442967 0.044069573 0.0067681279
0.59442383 0.044882104 0.0067559299
0.59441799 0.045694634 0.0067437324
0.59441215 0.046507169 0.0067315344
0.59440631 0.047319699 0.0067193364
0.59440047 0.04813223 0.0067071388
0.59439462 0.04894476 0.0066949409
0.59438878 0.049757294 0.0066827429
0.59438288 0.050569825 0.0066705453
0.59437704 0.051382359 0.0066583473
0.5943712 0.052194886 0.0066461493
0.59436536 0.053007416 0.0066339518
0.59435952 0.053819951 0.0066217538
0.59435368 0.054632481 0.0066095563
0.59434783 0.055445012 0.0065973583
0.59434199 0.056257546 0.0065851603
0.59433615 0.057070076 0.0065729627
0.59433031 0.057882607 0.0065607647
0.59432447 0.058695141 0.0065485667
0.59431863 0.059507668 0.0065363692
0.59431273 0.060320199 0.0065241712
0.59430689 0.061132733 0.0065119732
0.59353697 0.062025547 0.0058517447
0.59353107 0.062839672 0.0058395229
0.59352523 0.063653797 0.0058273012
0.59351939 0.064467922 0.0058150794
0.59351355 0.065282047 0.0058028577
0.59350765 0.066096172 0.0057906359
0.59350181 0.066910297 0.0057784142
0.59349597 0.067724422 0.0057661925
0.59349006 0.068538539 0.0057539707
0.59348422 0.069352672 0.005741749
0.59347838 0.070166796 0.0057295272
0.59347254 0.070980914 0.0057173055
0.59270239 0.071894445 0.0050567645
0.59269655 0.072710156 0.005044519
0.59269071 0.073525876 0.0050322735
0.59192055 0.074445777 0.0043716379
0.59115034 0.075368859 0.0037109549
0.58961582 0.076402515 0.0024017466
0.5880813 0.077442527 0.0010924811
0.59228283 -0.011440961 0.0043715551
0.59303904 -0.010560537 0.0050064144
0.59379524 -0.009683297 0.0056413217
0.5937894 -0.0088675786 0.0056290762
0.5937835 -0.0080518611 0.0056168307
0.59377766 -0.0072361445 0.0056045847
0.59377176 -0.0064204247 0.0055923392
0.59376591 -0.0056047081 0.0055800932
0.59452218 -0.0047386223 0.0062151668
0.59451634 -0.0039244983 0.006202945
0.5945105 -0.0031103727 0.0061907233
0.59450465 -0.002296248 0.0061785015
0.59449875 -0.001482124 0.0061662798
0.59449291 -0.00066799921 0.006154058
0.59448707 0.00014612565 0.0061418363
0.59448117 0.00096025044 0.0061296145
0.59447533 0.0017743744 0.0061173928
0.59446949 0.0025884991 0.0061051711
0.59446365 0.0034026231 0.0060929493
0.59445775 0.0042167488 0.0060807276
0.5944519 0.0050308728 0.0060685058
0.59444606 0.0058449972 0.0060562841
0.59444022 0.0066591213 0.0060440623
0.59443432 0.0074732462 0.0060318406
0.59442848 0.0082873702 0.0060196188
0.59442264 0.0091014951 0.0060073971
0.59517914 0.0099373115 0.0066429265
0.5951733 0.010749843 0.0066307285
0.59516746 0.011562373 0.0066185305
0.59516162 0.012374905 0.006606333
0.59515578 0.013187436 0.006594135
0.59514993 0.013999968 0.0065819374
0.59514409 0.014812499 0.0065697394
0.59513825 0.015625032 0.0065575414
0.59513235 0.016437562 0.0065453439
0.59512651 0.017250093 0.0065331459
0.59512067 0.018062625 0.0065209479
0.59511483 0.018875157 0.0065087504
0.59510899 0.019687688 0.0064965524
0.59510314 0.020500218 0.0064843544
0.5950973 0.021312751 0.0064721568
0.59509146 0.022125281 0.0064599589
0.59508562 0.022937812 0.0064477613
0.59507978 0.023750344 0.0064355633
0.59507394 0.024562875 0.0064233653
0.59506804 0.025375407 0.0064111678
0.5950622 0.026187938 0.0063989698
0.59505635 0.02700047 0.0063867718
0.59505051 0.027813001 0.0063745743
0.59504467 0.028625533 0.0063623763
0.59503883 0.029438065 0.0063501787
0.59503299 0.030250594 0.0063379807
0.59502715 0.031063126 0.0063257827
0.59502131 0.031875659 0.0063135852
0.59501547 0.032688189 0.0063013872
