# .PCD v0.7 - Point Cloud Data file format
VERSION 0.7
FIELDS x y z
SIZE 4 4 4
TYPE F F F
COUNT 1 1 1
WIDTH 1347
HEIGHT 1
VIEWPOINT 0 0 0 1 0 0 0
POINTS 1347
DATA ascii
0.48034704 -0.034892309 0.032764271
0.48033085 -0.033920493 0.03275606
0.48031464 -0.032948676 0.032747854
0.48029843 -0.03197686 0.032739647
0.48028222 -0.031005044 0.03273144
0.48113278 -0.029990386 0.03324122
0.48111662 -0.029020164 0.033233028
0.48110044 -0.02804994 0.033224832
0.48108426 -0.027079718 0.03321664
0.48193493 -0.026073027 0.033726487
0.48191878 -0.025104398 0.033718307
0.48190263 -0.024135767 0.033710126
0.48275343 -0.023135448 0.034220029
0.4827373 -0.022168413 0.034211859
0.48272118 -0.021201376 0.034203693
0.48357216 -0.020207427 0.034713682
0.48355603 -0.019241983 0.034705527
0.48440704 -0.018252816 0.035215523
0.48439094 -0.017288966 0.035207383
0.48437488 -0.016325116 0.035199244
0.48522598 -0.015342321 0.035709292
0.48520994 -0.014380065 0.035701167
0.48519388 -0.013417807 0.035693038
0.48517784 -0.01245555 0.035684913
0.48602906 -0.011480721 0.036195029
0.48601305 -0.010520058 0.036186915
0.48599702 -0.0095593929 0.036178805
0.48598099 -0.0085987281 0.036170691
0.48596498 -0.0076380642 0.036162578
0.48594895 -0.0066774003 0.036154464
0.48593295 -0.0057167364 0.03614635
0.48678437 -0.0047546523 0.036656573
0.48676839 -0.0037955819 0.036648475
0.48675239 -0.0028365103 0.036640376
0.48673639 -0.0018774398 0.036632277
0.48672041 -0.0009183684 0.036624175
0.48670441 4.0702089e-05 0.036616076
0.4875561 0.00099163398 0.037126426
0.48754013 0.0019491122 0.037118342
0.48752415 0.0029065905 0.037110254
0.48750818 0.0038640685 0.037102167
0.48749223 0.004821545 0.037094083
0.48834401 0.0057629175 0.037604481
0.48832807 0.0067188013 0.037596408
0.48831213 0.0076746875 0.037588336
0.48829618 0.0086305728 0.037580263
0.48828024 0.0095864572 0.03757219
0.48826429 0.010542342 0.037564117
0.48824838 0.011498228 0.037556045
0.48823243 0.012454111 0.037547972
0.48734853 0.013438845 0.037021305
0.48733255 0.014396322 0.037013218
0.48731658 0.015353802 0.03700513
0.48730063 0.01631128 0.036997046
0.48728466 0.017268755 0.036988959
0.48640054 0.018263051 0.03646218
0.48638454 0.019222124 0.036454082
0.48550043 0.020221194 0.035927292
0.48548439 0.021181861 0.035919178
0.48460016 0.022185709 0.035392351
0.48371589 0.02319275 0.034865499
0.48369983 0.0241566 0.034857359
0.48281547 0.025168417 0.034330461
0.48279938 0.026133858 0.03432231
0.48191488 0.027150458 0.033795342
0.48189875 0.028117498 0.033787172
0.47926101 -0.036940072 0.030987881
0.47924474 -0.035965066 0.030979646
0.48009416 -0.034939259 0.031490602
0.48007795 -0.033965852 0.03148238
0.48006171 -0.032992445 0.031474162
0.4809112 -0.031973012 0.031985138
0.48089498 -0.031001197 0.031976931
0.48087877 -0.030029383 0.031968724
0.48086256 -0.029057566 0.031960517
0.48171216 -0.028046101 0.03247156
0.48169601 -0.027075879 0.032463368
0.48167983 -0.026105655 0.032455172
0.48166364 -0.025135433 0.03244698
0.48251337 -0.024131933 0.032958094
0.48249722 -0.023163304 0.032949913
0.48248106 -0.022194674 0.032941733
0.48333094 -0.021197548 0.033452898
0.48331478 -0.020230511 0.033444732
0.48329866 -0.019263474 0.033436563
0.48414868 -0.018272718 0.033947811
0.48413259 -0.017307276 0.033939656
0.48411649 -0.016341833 0.033931501
0.48496655 -0.015357452 0.034442775
0.48495045 -0.014393601 0.034434635
0.48493439 -0.013429751 0.034426495
0.48578456 -0.012451742 0.034937825
0.48576853 -0.011489484 0.034929696
0.48575246 -0.010527228 0.034921572
0.48573643 -0.0095649706 0.034913443
0.48572037 -0.0086027123 0.034905318
0.48657069 -0.0076342626 0.035416726
0.48655468 -0.0066735987 0.035408612
0.48653865 -0.0057129348 0.035400499
0.48652264 -0.0047522699 0.035392385
0.48650661 -0.0037916063 0.035384275
0.48649061 -0.0028309417 0.035376161
0.48647457 -0.001870279 0.035368048
0.48732513 -0.00091457303 0.035879564
0.48730913 4.4497483e-05 0.035871465
0.48729312 0.0010035689 0.035863362
0.48727715 0.0019626394 0.035855263
0.48812786 0.0029103796 0.036366872
0.48811191 0.0038678576 0.036358789
0.48809594 0.0048253341 0.036350701
0.48807997 0.0057828124 0.036342613
0.48806399 0.0067402888 0.03633453
0.48804805 0.0076977685 0.036326442
0.4888989 0.0086343559 0.036838118
0.48888296 0.0095902402 0.036830045
0.48886701 0.010546125 0.036821973
0.48798418 0.01152768 0.036294095
0.48796821 0.012485156 0.036286011
0.48795223 0.013442635 0.036277924
0.48793626 0.014400111 0.036269836
0.48792031 0.01535759 0.036261752
0.48790434 0.016315069 0.036253665
0.48702124 0.017307775 0.035725668
0.48700526 0.018266847 0.035717569
0.48698926 0.01922592 0.035709467
0.48610613 0.020224996 0.035181444
0.48609012 0.021185663 0.03517333
0.4852069 0.022189517 0.034645263
0.48519084 0.023151778 0.034637138
0.48430756 0.024160415 0.03410903
0.48342422 0.025172237 0.033580899
0.48340809 0.026137678 0.033572745
0.48252463 0.027154285 0.033044547
0.48250851 0.028121324 0.033036377
0.48249236 0.029088361 0.033028211
0.47814661 -0.037044171 0.02919017
0.47813031 -0.036065985 0.029181909
0.47897863 -0.035037 0.029694043
0.47982699 -0.034011204 0.030206205
0.47981071 -0.033036202 0.030197971
0.48065922 -0.032015182 0.0307102
0.480643 -0.031041773 0.030701978
0.48149151 -0.030025536 0.03121422
0.48147532 -0.02905372 0.031206014
0.48145911 -0.028081903 0.031197807
0.4814429 -0.027110089 0.031189598
0.48229155 -0.026101816 0.031701908
0.48227537 -0.025131593 0.031693716
0.48225921 -0.02416137 0.03168552
0.48224303 -0.023191147 0.031677328
0.4830918 -0.022190841 0.032189697
0.48307565 -0.021222211 0.032181516
0.4830595 -0.020253582 0.032173336
0.48390841 -0.019259648 0.032685768
0.48389229 -0.018292611 0.032677602
0.48387614 -0.017325575 0.032669432
0.48472521 -0.016338011 0.03318195
0.48470911 -0.015372569 0.033173796
0.48469299 -0.014407125 0.033165645
0.48554212 -0.013425936 0.033678178
0.48552606 -0.012462086 0.033670034
0.48550996 -0.011498235 0.033661895
0.4854939 -0.010534385 0.033653755
0.48634315 -0.0095611624 0.034166362
0.48632708 -0.0085989041 0.034158234
0.48631105 -0.0076366477 0.034150109
0.48629501 -0.0066743903 0.03414198
0.48627895 -0.0057121334 0.034133855
0.48626292 -0.0047498755 0.034125727
0.48624685 -0.0037876193 0.034117602
0.48709631 -0.00282714 0.034630314
0.48708031 -0.0018664773 0.034622204
0.48706427 -0.00090581173 0.03461409
0.48704827 5.4851065e-05 0.034605976
0.48789784 0.0010073642 0.035118755
0.48788184 0.0019664348 0.035110656
0.48786587 0.002925507 0.035102557
0.48784986 0.0038845777 0.035094459
0.48869964 0.0048291232 0.035607331
0.48868367 0.0057866015 0.035599243
0.4886677 0.0067440779 0.035591159
0.48865175 0.0077015576 0.035583071
0.48863578 0.008659034 0.035574988
0.4886198 0.0096165119 0.0355669
0.48860383 0.010573989 0.035558812
0.48858789 0.011531468 0.035550728
0.48857191 0.012488945 0.035542641
0.48855594 0.013446423 0.035534553
0.48853996 0.0144039 0.035526469
0.48765793 0.015393429 0.034997258
0.48764196 0.016352501 0.03498916
0.48762596 0.017311569 0.034981061
0.48760995 0.018270643 0.034972962
0.48759398 0.019229716 0.034964859
0.48671183 0.020228798 0.034435596
0.48669583 0.021189464 0.034427483
0.48581362 0.022193326 0.033898182
0.48579755 0.023155585 0.033890054
0.48491529 0.02416423 0.033360712
0.48403293 0.025176058 0.032831345
0.48401684 0.026141498 0.032823194
0.48400074 0.027106944 0.032815039
0.48398462 0.028072389 0.032806884
0.48310211 0.029092187 0.032277416
0.47618905 -0.038185194 0.026874172
0.47789982 -0.037094273 0.027909109
0.47788349 -0.036114492 0.027900835
0.47873077 -0.035083923 0.028414194
0.47957811 -0.034056541 0.028927574
0.47956181 -0.033079945 0.028919326
0.48040923 -0.032057341 0.029432753
0.48125675 -0.031037921 0.029946232
0.48124051 -0.030064512 0.02993801
0.4812243 -0.029091103 0.029929791
0.48120806 -0.028117694 0.029921569
0.48205566 -0.027106242 0.030435091
0.48203945 -0.026134426 0.030426882
0.48202324 -0.025162609 0.030418675
0.48200703 -0.024190793 0.030410469
0.48285478 -0.023187308 0.03092405
0.4828386 -0.022217086 0.030915856
0.48282242 -0.021246862 0.030907663
0.48367023 -0.020249749 0.031421304
0.48365408 -0.019281119 0.031413123
0.48363793 -0.018312488 0.031404942
0.48362178 -0.017343858 0.031396762
0.48446977 -0.016354712 0.031910464
0.48445365 -0.015387674 0.031902298
0.48530173 -0.014403304 0.032416079
0.48528564 -0.013437861 0.032407925
0.48526955 -0.012472417 0.032399774
0.48525345 -0.011506974 0.032391619
0.48610163 -0.010530571 0.03290543
0.48608556 -0.0095667206 0.03289729
0.48606947 -0.0086028697 0.03288915
0.48605341 -0.0076390193 0.03288101
0.48603734 -0.0066751693 0.032872871
0.48602125 -0.0057113189 0.032864731
0.48686963 -0.0047460673 0.033378638
0.4868536 -0.0037838113 0.033370513
0.48683754 -0.0028215535 0.033362385
0.4868215 -0.0018592966 0.03335426
0.48680544 -0.00089703873 0.033346131
0.48765397 5.8652771e-05 0.033860125
0.48763797 0.0010193174 0.033852011
0.48762193 0.001979982 0.033843897
0.48760593 0.0029406466 0.033835784
0.48845458 0.003888373 0.034349836
0.48843858 0.0048474437 0.034341738
0.4884226 0.0058065141 0.034333639
0.4884066 0.0067655845 0.03432554
0.48839059 0.0077246567 0.034317438
0.48837462 0.0086837271 0.034309339
0.48922351 0.0096203014 0.034823526
0.48920754 0.010577777 0.034815438
0.48919159 0.011535258 0.03480735
0.48917562 0.012492734 0.034799267
0.48829466 0.013479082 0.034268841
0.48827866 0.014438152 0.034260742
0.48826265 0.015397225 0.03425264
0.48824668 0.016356297 0.034244541
0.48823068 0.017315365 0.034236442
0.4873496 0.01831127 0.033705972
0.4873336 0.019271936 0.033697858
0.48731756 0.020232599 0.033689748
0.4864364 0.021234876 0.033159219
0.48642033 0.022197133 0.033151094
0.4864043 0.023159394 0.033142965
0.48552302 0.024168044 0.032612383
0.48550692 0.025131891 0.032604244
0.48549086 0.026095742 0.032596104
0.48460945 0.027110765 0.032065477
0.48372796 0.028128978 0.03153478
0.48371184 0.029096015 0.031526614
0.47510019 -0.039278578 0.025073683
0.47594628 -0.038236864 0.025588179
0.47592986 -0.037252303 0.025579864
0.4776386 -0.036162995 0.026617259
0.47848493 -0.035130832 0.027131874
0.47933123 -0.034101862 0.02764648
0.47931489 -0.033123676 0.027638217
0.48016128 -0.032099485 0.028152868
0.48100773 -0.03107848 0.028667541
0.48099145 -0.030103477 0.028659306
0.48097521 -0.029128475 0.028651072
0.48182181 -0.028113842 0.029165829
0.48180556 -0.027140433 0.029157609
0.48178935 -0.026167022 0.029149387
0.48263597 -0.025158765 0.029664172
0.48261979 -0.024186948 0.029655965
0.48260358 -0.023215132 0.029647758
0.48258737 -0.022243315 0.02963955
0.48343414 -0.021243023 0.030154398
0.48341796 -0.020272799 0.030146204
0.48340181 -0.019302577 0.03013801
0.48338562 -0.018332353 0.030129815
0.48423252 -0.017340025 0.030644735
0.48421636 -0.016371395 0.030636555
0.48420021 -0.015402766 0.030628374
0.48504725 -0.01441681 0.031143341
0.48503113 -0.013449774 0.031135175
0.485015 -0.012482737 0.031127008
0.48499885 -0.0115157 0.03111884
0.48584607 -0.01053771 0.031633906
0.48582998 -0.0095722666 0.031625755
0.48581389 -0.0086068222 0.0316176
0.48579776 -0.0076413788 0.031609446
0.48578167 -0.0066759358 0.031601295
0.48662898 -0.0057075047 0.032116413
0.48661292 -0.0047436547 0.032108273
0.48659685 -0.0037798046 0.032100134
0.48658076 -0.0028159535 0.032091994
0.4865647 -0.0018521033 0.032083854
0.48741215 -0.00089323072 0.032599051
0.48739612 6.902621e-05 0.032590926
0.48738009 0.0010312832 0.032582797
0.48736402 0.00199354 0.032574672
0.48821163 0.0029444483 0.03308994
0.4881956 0.0039051131 0.033081826
0.48817959 0.0048657758 0.033073712
0.48816356 0.0058264388 0.033065602
0.48901132 0.0067693801 0.033580933
0.48899531 0.0077284523 0.03357283
0.48897931 0.0086875232 0.033564731
0.48896334 0.0096465936 0.033556633
0.48894733 0.010605664 0.033548534
0.48893136 0.011564736 0.033540431
0.48891535 0.012523807 0.033532333
0.48889935 0.013482877 0.033524234
0.48888338 0.014441947 0.033516135
0.48886737 0.01540102 0.033508033
0.48798737 0.016393745 0.032976355
0.48797134 0.017354408 0.032968242
0.4879553 0.018315071 0.032960128
0.4879393 0.019275738 0.032952014
0.48705915 0.020276427 0.032420263
0.48704311 0.021238685 0.032412138
0.48702705 0.02220094 0.032404009
0.48614681 0.023208007 0.031872209
0.48613071 0.024171857 0.031864069
0.48525038 0.025183698 0.031332225
0.48523429 0.026149141 0.03132407
0.48435384 0.027165767 0.030792158
0.48433769 0.028132806 0.030783992
0.48345721 0.029154208 0.030252071
0.48344105 0.030122837 0.03024389
0.47401541 -0.040378314 0.02326826
0.47486046 -0.039331824 0.023783991
0.47570553 -0.038288523 0.024299713
0.47568908 -0.037302367 0.024291383
0.47653422 -0.036263846 0.024807146
0.47737941 -0.035228509 0.025322938
0.47908634 -0.034147173 0.026362903
0.47907001 -0.033167392 0.026354628
0.47991538 -0.032141615 0.026870497
0.48076075 -0.031119026 0.027386399
0.48074448 -0.030142428 0.027378151
0.48158997 -0.029124618 0.027894087
0.4815737 -0.028149614 0.027885854
0.48155746 -0.027174613 0.027877619
0.48154119 -0.026199609 0.027869385
0.48238686 -0.025189761 0.028385421
0.48237062 -0.024216352 0.0283772
0.4823544 -0.023242945 0.028368978
0.48233816 -0.022269534 0.028360758
0.48318392 -0.021267654 0.028876828
0.48316771 -0.020295838 0.028868621
0.4831515 -0.019324021 0.028860414
0.48399734 -0.018328514 0.029376544
0.48398119 -0.017358292 0.02936835
0.48396501 -0.016388068 0.029360157
0.48394883 -0.015417845 0.029351963
0.48479483 -0.014430303 0.029868154
0.48477867 -0.013461673 0.029859975
0.48476252 -0.012493043 0.029851794
0.48560861 -0.011511873 0.030368039
0.48559248 -0.010544837 0.030359872
0.48557636 -0.0095778005 0.030351706
0.48556024 -0.0086107627 0.030343538
0.48554412 -0.0076437262 0.03033537
0.48552796 -0.0066766897 0.030327205
0.48637432 -0.0057066716 0.030843582
0.4863582 -0.0047412282 0.030835427
0.4863421 -0.003775785 0.030827275
0.48632601 -0.0028103406 0.030819122
0.48630992 -0.0018448982 0.030810967
0.48715636 -0.00088443881 0.031327389
0.48714027 7.9411337e-05 0.031319249
0.4871242 0.0010432615 0.03131111
0.48797074 0.0019973482 0.031827584
0.48795471 0.0029596069 0.031819455
0.48793867 0.0039218636 0.03181133
0.48792261 0.0048841205 0.031803202
0.48790658 0.0058463775 0.031795077
0.48875329 0.0067909048 0.03231163
0.48873726 0.0077515715 0.03230352
0.48872122 0.008712234 0.032295406
0.48870522 0.0096728969 0.032287292
0.48868918 0.010633562 0.032279179
0.48867318 0.011594227 0.032271065
0.48865715 0.012554891 0.032262951
0.48864114 0.013515553 0.032254837
0.48862511 0.014476218 0.032246724
0.48860911 0.015436883 0.032238614
0.48859307 0.016397547 0.0322305
0.48857707 0.01735821 0.032222386
0.48769796 0.018355722 0.031689428
0.48768193 0.019317979 0.031681303
0.48766586 0.020280235 0.031673174
0.48764983 0.021242492 0.031665049
0.4867706 0.02224797 0.031132026
0.48675454 0.023211822 0.031123884
0.48673844 0.024175672 0.031115744
0.48585913 0.02518752 0.030582666
0.48497969 0.026202558 0.030049525
0.48496357 0.027169593 0.030041358
0.4840841 0.028189411 0.029508213
0.48406795 0.029158041 0.029500032
0.48405179 0.03012667 0.029491851
0.47293481 -0.041484393 0.021457989
0.47377872 -0.040433135 0.02197488
0.4746227 -0.039385058 0.022491798
0.47546679 -0.038340166 0.023008775
0.47545031 -0.03735242 0.023000434
0.47629443 -0.036312312 0.023517419
0.47713858 -0.035275389 0.024034431
0.47798282 -0.03424165 0.024551472
0.47882706 -0.033211101 0.025068544
0.47967145 -0.032183733 0.025585668
0.48051581 -0.031159556 0.026102789
0.48049951 -0.030181367 0.026094528
0.48134395 -0.029161969 0.026611688
0.48132768 -0.028185373 0.02660344
0.48131138 -0.027208779 0.026595192
0.48215595 -0.026195752 0.027112408
0.48213968 -0.02522075 0.027104173
0.48212343 -0.024245748 0.027095938
0.48296815 -0.023239091 0.027613238
0.48295191 -0.022265682 0.027605018
0.4829357 -0.021292273 0.027596796
0.48291945 -0.020318864 0.027588576
0.48376426 -0.019320177 0.028105911
0.48374805 -0.01834836 0.028097704
0.48373184 -0.017376544 0.028089495
0.48371562 -0.016404727 0.028081289
0.48456055 -0.015414006 0.028598698
0.4845444 -0.014443783 0.028590504
0.48452821 -0.01347356 0.02858231
0.48451203 -0.012503337 0.028574115
0.48535708 -0.01152058 0.029091585
0.48534092 -0.010551951 0.029083405
0.48532477 -0.0095833205 0.029075224
0.48530862 -0.00861469 0.029067043
0.48529249 -0.0076460605 0.029058864
0.48613772 -0.0066728629 0.029576415
0.48612157 -0.005705826 0.029568247
0.48610544 -0.0047387895 0.02956008
0.48608932 -0.0037717531 0.029551914
0.4860732 -0.0028047157 0.029543746
0.48691863 -0.0018410777 0.030061409
0.48690253 -0.00087563338 0.030053256
0.48688644 8.9809044e-05 0.030045103
0.48687035 0.0010552543 0.030036949
0.48771584 0.0020109268 0.030554648
0.48769978 0.0029747779 0.030546507
0.48768371 0.0039386288 0.030538367
0.48766765 0.0049024783 0.030530227
0.48851329 0.0058501856 0.031047992
0.48849723 0.0068124426 0.031039866
0.48848119 0.0077747013 0.031031739
0.48846516 0.0087369587 0.031023612
0.4884491 0.0096992152 0.031015487
0.48843306 0.010661471 0.031007361
0.488417 0.011623729 0.030999234
0.48840097 0.012585986 0.030991107
0.4883849 0.013548243 0.030982981
0.48836887 0.0145105 0.030974854
0.48835284 0.015472759 0.030966727
0.48833677 0.016435016 0.0309586
0.48832074 0.017397273 0.030950474
0.48830467 0.018359529 0.030942347
0.48828864 0.019321786 0.03093422
0.48741049 0.020324083 0.030399986
0.48739439 0.021287933 0.030391844
0.48737833 0.022251785 0.030383704
0.48736227 0.023215635 0.030375564
0.48648396 0.024225898 0.029841263
0.48646784 0.025191341 0.029833108
0.48645175 0.026156781 0.029824955
0.48557329 0.02717342 0.029290568
0.48469484 0.028193245 0.028756185
0.48381633 0.029216252 0.028221775
0.48380014 0.030186472 0.028213581
0.48292157 0.03121426 0.027679127
0.47356063 -0.041480467 0.020687396
0.47440353 -0.040429212 0.021205524
0.47438702 -0.039438277 0.021197155
0.47523001 -0.038391802 0.021715326
0.47607312 -0.037348509 0.022233553
0.47605664 -0.036360763 0.022225212
0.47689977 -0.035322253 0.022743449
0.47774297 -0.034286927 0.023261713
0.4785862 -0.033254795 0.023780003
0.47942948 -0.032225844 0.02429832
0.48027289 -0.031200076 0.024816697
0.48111627 -0.030177496 0.025335068
0.48109996 -0.029199308 0.025326807
0.48108366 -0.028221119 0.025318546
0.48192716 -0.027204914 0.025836971
0.48191085 -0.026228316 0.025828723
0.48189458 -0.025251722 0.025820475
0.4827382 -0.024241889 0.026338954
0.48272192 -0.023266887 0.026330721
0.48270568 -0.022291884 0.026322486
0.48268941 -0.021316882 0.026314251
0.4835332 -0.020315012 0.02683283
0.48351696 -0.019341603 0.026824608
0.48350075 -0.018368194 0.026816387
0.4843446 -0.017372698 0.027334988
0.48432839 -0.016400883 0.027326779
0.48431218 -0.015429066 0.027318573
0.48429596 -0.01445725 0.027310366
0.48427978 -0.013485434 0.027302159
0.48512378 -0.012499497 0.027820839
0.4851076 -0.011529274 0.027812645
0.48509142 -0.010559051 0.027804451
0.48507524 -0.0095888283 0.027796257
0.48591939 -0.0086108577 0.028315006
0.48590323 -0.0076422277 0.028306825
0.48588708 -0.0066735977 0.028298644
0.48587093 -0.0057049678 0.028290464
0.48585477 -0.0047363383 0.028282283
0.48583862 -0.0037677083 0.028274102
0.48668295 -0.0028008886 0.028792946
0.48666683 -0.001833853 0.028784778
0.48665068 -0.00086681551 0.02877661
0.48663455 0.00010022015 0.028768444
0.48747906 0.0010590749 0.029287385
0.48746297 0.0020245165 0.029279232
0.48744687 0.0029899615 0.029271077
0.48743078 0.0039554047 0.029262925
0.48741469 0.0049208482 0.02925477
0.48825929 0.0058701416 0.029773761
0.48824322 0.0068339929 0.029765621
0.48822716 0.0077978438 0.029757481
0.48821107 0.0087616928 0.029749341
0.488195 0.0097255446 0.0297412
0.48817894 0.010689394 0.02973306
0.48902375 0.011627537 0.030252146
0.48900768 0.012589794 0.030244019
0.48899165 0.013552051 0.030235892
0.48897558 0.014514307 0.030227765
0.48809856 0.015508647 0.029692359
0.4880825 0.016472496 0.02968422
0.48806641 0.017436348 0.02967608
0.48805034 0.018400194 0.02966794
0.48803428 0.01936405 0.029659798
0.48801818 0.020327896 0.029651659
0.48714098 0.021333387 0.029116159
0.48712489 0.02229883 0.029108007
0.4871088 0.023264274 0.029099852
0.48709267 0.024229718 0.029091699
0.48621529 0.025243176 0.028556101
0.48619917 0.026210211 0.028547933
0.48532173 0.027228443 0.028012326
0.48530558 0.028197078 0.028004145
0.48442808 0.029220093 0.027468499
0.4844119 0.030190313 0.027460305
0.48353431 0.031218106 0.026924618
0.48179519 0.032308251 0.025861364
0.48091745 0.033344008 0.025325609
0.47418642 -0.04147654 0.019916808
0.47416988 -0.040484015 0.019908426
0.47501183 -0.039434358 0.020427801
0.4758538 -0.038387887 0.020947209
0.47583732 -0.037398547 0.020938853
0.47667944 -0.036356855 0.021458331
0.47752157 -0.035318349 0.021977806
0.47836375 -0.034283035 0.022497308
0.47834733 -0.033298474 0.022488993
0.47918957 -0.032267936 0.023008535
0.48003191 -0.031240582 0.023528103
0.48087433 -0.030216414 0.024047725
0.48085797 -0.029236633 0.024039451
0.48084164 -0.028256852 0.024031175
0.48168412 -0.027239058 0.024550825
0.48166779 -0.02626087 0.024542565
0.48251036 -0.025247857 0.025062254
0.48249406 -0.024271263 0.025054006
0.48247778 -0.023294667 0.025045758
0.48246148 -0.022318071 0.02503751
0.48330417 -0.021313023 0.025557267
0.4832879 -0.020338021 0.025549034
0.48327166 -0.019363018 0.025540799
0.4841145 -0.018364342 0.026060641
0.48409826 -0.017390933 0.026052421
0.48408204 -0.016417522 0.026044199
0.4840658 -0.015444114 0.026035979
0.48490873 -0.014453405 0.026555857
0.48489252 -0.013481588 0.02654765
0.4848763 -0.012509772 0.026539441
0.48486009 -0.011537956 0.026531234
0.48570317 -0.010555212 0.027051181
0.48568699 -0.0095849894 0.027042987
0.4856708 -0.0086147655 0.027034793
0.48565462 -0.0076445425 0.027026597
0.48563844 -0.00667432 0.027018404
0.48562226 -0.005704097 0.02701021
0.48560607 -0.004733874 0.027002016
0.48644936 -0.0037638752 0.02752207
0.48643321 -0.0027952453 0.02751389
0.48641706 -0.0018266155 0.027505709
0.4864009 -0.00085798575 0.027497528
0.48724431 0.00010404706 0.028017648
0.48722818 0.0010710855 0.028009482
0.48721203 0.0020381212 0.028001314
0.48719591 0.0030051586 0.027993146
0.48717979 0.003972196 0.02798498
0.4880234 0.0049246689 0.028505208
0.48800731 0.0058901124 0.028497053
0.48799121 0.0068555539 0.028488901
0.48797512 0.0078209992 0.028480746
0.487959 0.0087864427 0.028472593
0.4879429 0.0097518861 0.028464438
0.48878667 0.010693207 0.028984735
0.48877057 0.011657061 0.028976595
0.48875451 0.01262091 0.028968453
0.48873845 0.013584759 0.028960314
0.48872235 0.01454861 0.028952174
0.48870629 0.015512461 0.028944034
0.48869023 0.016476311 0.028935894
0.48781413 0.017475434 0.02839921
0.48779801 0.018440876 0.028391058
0.48778191 0.019406321 0.028382903
0.48776582 0.020371763 0.02837475
0.48774973 0.021337207 0.028366596
0.48773363 0.02230265 0.028358443
0.48685727 0.023312928 0.02782164
0.48684114 0.024279967 0.027813472
0.48682502 0.025247002 0.027805304
0.48594862 0.026263647 0.027268473
0.48593247 0.027232276 0.027260294
0.48505598 0.028253708 0.026723422
0.48503983 0.029223932 0.026715228
0.48416325 0.030250138 0.026178315
0.48328665 0.031279527 0.025641378
0.48240995 0.03231211 0.025104379
0.48153323 0.033347871 0.024567388
0.47979596 0.034449179 0.023501595
0.4739714 -0.042527042 0.018625645
0.47481224 -0.04147261 0.019146223
0.4747957 -0.040480085 0.019137839
0.47563663 -0.039430436 0.019658457
0.47562009 -0.038439501 0.019650089
0.47646111 -0.037394632 0.020170746
0.47730222 -0.036352947 0.020691458
0.47728577 -0.035365198 0.020683117
0.47812691 -0.034328293 0.021203842
0.47896811 -0.033294577 0.021724595
0.47980937 -0.032264046 0.022245374
0.47979298 -0.031281076 0.022237072
0.4806343 -0.030255325 0.022757886
0.48061794 -0.02927395 0.022749599
0.48145941 -0.028252974 0.02327049
0.48144308 -0.027273193 0.023262216
0.48142672 -0.02629341 0.02325394
0.48226824 -0.02527881 0.023774855
0.48225194 -0.024300622 0.023766594
0.48223561 -0.023322433 0.023758333
0.48307726 -0.022314206 0.0242793
0.48306096 -0.02133761 0.024271052
0.48304468 -0.020361016 0.024262805
0.48388642 -0.01935916 0.02478382
0.48387015 -0.018384157 0.024775587
0.48385391 -0.017409155 0.024767352
0.48469579 -0.01641367 0.025288459
0.48467955 -0.015440262 0.025280239
0.48466331 -0.014466853 0.025272017
0.4846471 -0.013493443 0.025263797
0.48463085 -0.012520034 0.025255576
0.48547286 -0.01153411 0.025776733
0.48545665 -0.010562294 0.025768524
0.48544043 -0.0095904786 0.025760317
0.48542422 -0.0086186621 0.02575211
0.48540804 -0.0076468457 0.025743902
0.48539183 -0.0066750296 0.025735695
0.48623401 -0.0057002576 0.026256945
0.48621783 -0.0047300346 0.026248751
0.48620164 -0.0037598123 0.026240557
0.48618546 -0.0027895884 0.026232364
0.48616928 -0.0018193665 0.02622417
0.48701164 -0.00085415255 0.026745494
0.48699549 0.00011447725 0.026737314
0.48697934 0.001083108 0.026729133
0.48696318 0.002051736 0.026720954
0.48780566 0.0030089854 0.027242351
0.48778954 0.0039760228 0.027234184
0.48777339 0.0049430588 0.027226018
0.48775727 0.0059100944 0.02721785
0.48774114 0.0068771299 0.027209684
0.48772502 0.0078441696 0.027201517
0.48856774 0.008790263 0.02772304
0.48855165 0.0097557064 0.027714888
0.48853552 0.01072115 0.027706733
0.48851943 0.011686595 0.02769858
0.48850334 0.012652037 0.027690426
0.48848724 0.01361748 0.027682273
0.48847115 0.014582923 0.02767412
0.48845503 0.015548368 0.027665965
0.48843893 0.01651381 0.027657812
0.48842284 0.017479256 0.027649658
0.48754764 0.018481573 0.027111679
0.48753151 0.019448608 0.027103512
0.48751539 0.020415643 0.027095344
0.48749927 0.021382684 0.027087178
0.48748314 0.022349719 0.02707901
0.48746702 0.023316754 0.027070845
0.48659167 0.024330225 0.026532801
0.48657551 0.025298851 0.026524622
0.48655936 0.02626748 0.026516441
0.48568392 0.027287319 0.025978351
0.48566774 0.028257547 0.025970157
0.4847922 0.029282166 0.02543202
0.48477602 0.030253984 0.025423814
0.4839004 0.031283379 0.024885638
0.48216528 0.032375146 0.023817426
0.48128954 0.033412509 0.023279181
0.48041373 0.034453057 0.02274091
0.47867835 0.035560749 0.021672564
0.47780243 0.036609273 0.021134226
0.47692645 0.037660975 0.020595862
0.47605041 0.038715862 0.02005747
0.47547114 -0.043453738 0.018392399
0.4754546 -0.042461209 0.018384017
0.47543806 -0.041468684 0.018375635
0.47542149 -0.040476158 0.018367253
0.47626144 -0.039426513 0.018889103
0.4762449 -0.038435578 0.018880734
0.4770849 -0.037390716 0.019402631
0.47706842 -0.036401376 0.019394275
0.47790855 -0.03536129 0.019916242
0.47874871 -0.034324389 0.0204382
0.47873226 -0.033338238 0.020429872
0.47957247 -0.03230612 0.020951875
0.47955605 -0.031321559 0.02094356
0.48039636 -0.030294217 0.021465598
0.48037997 -0.029311251 0.021457298
0.48122036 -0.02828869 0.021979382
0.48120397 -0.027307317 0.021971093
0.48204449 -0.026289534 0.022493251
0.48202816 -0.025309753 0.022484975
0.48201182 -0.02432997 0.022476701
0.4828524 -0.023318563 0.022998873
0.48283607 -0.022340374 0.022990612
0.48281977 -0.021362185 0.022982351
0.48366043 -0.020357151 0.023504583
0.48364416 -0.019380555 0.023496335
0.48362786 -0.018403959 0.023488088
0.48446867 -0.017405296 0.024010368
0.4844524 -0.016430294 0.024002133
0.48443612 -0.015455292 0.0239939
0.48441988 -0.014480289 0.023985665
0.48440361 -0.013505287 0.023977431
0.4852446 -0.012516182 0.02449983
0.48522839 -0.011542773 0.024491608
0.48521215 -0.010569364 0.024483388
0.4851959 -0.0095959548 0.024475167
0.48517969 -0.0086225448 0.024466947
0.48602077 -0.0076429998 0.024989394
0.48600456 -0.0066711837 0.024981186
0.48598838 -0.0056993687 0.024972979
0.48597217 -0.0047275512 0.024964772
0.48595595 -0.0037557362 0.024956563
0.48593974 -0.002783919 0.024948357
0.48678103 -0.0018155269 0.025470892
0.48676485 -0.00084530294 0.025462698
0.48674867 0.00012491911 0.025454504
0.48759007 0.0010869412 0.025977101
0.48757392 0.0020555691 0.02596892
0.48755777 0.0030242007 0.02596074
0.48754162 0.0039928304 0.025952559
0.48752546 0.0049614604 0.025944378
0.48750931 0.0059300885 0.025936197
0.4883509 0.0068809567 0.026458882
0.48833477 0.0078479964 0.026450714
0.48831862 0.0088150315 0.026442548
0.4883025 0.0097820675 0.026434381
0.48828638 0.010749105 0.026426215
0.48827025 0.011716142 0.026418047
0.48825413 0.012683178 0.026409879
0.48823801 0.013650215 0.026401713
0.48822188 0.014617251 0.026393546
0.48820576 0.015584289 0.026385378
0.48818964 0.016551325 0.026377212
0.48817351 0.01751836 0.026369045
0.48815739 0.018485399 0.026360877
0.48814124 0.019452436 0.026352711
0.48812512 0.020419471 0.026344543
0.48725086 0.021428164 0.025805309
0.48723471 0.022396795 0.025797129
0.48721856 0.023365429 0.02578895
0.48720241 0.024334058 0.025780769
0.48718625 0.025302684 0.025772588
0.48631185 0.02632094 0.025233269
0.48629567 0.02729116 0.025225075
0.48542118 0.028314197 0.02468572
0.48540497 0.029286012 0.024677511
0.48453039 0.030313823 0.024138112
0.48451415 0.031287234 0.02412989
0.48278102 0.032379009 0.023059204
0.48190629 0.033416379 0.022519723
0.48103151 0.034456935 0.021980219
0.47929811 0.035564642 0.020909391
0.47842321 0.03661317 0.020369822
0.47754824 0.037664875 0.019830219
0.47581458 0.038788516 0.018759264
0.47609696 -0.043449812 0.017621813
0.47608042 -0.042457283 0.017613431
0.47691926 -0.04140446 0.018136498
0.47690275 -0.040413529 0.018128129
0.47688621 -0.039422594 0.01811976
0.47772521 -0.038376141 0.018642874
0.4777087 -0.037386801 0.018634519
0.47769222 -0.036397461 0.018626163
0.47853133 -0.035357378 0.019149369
0.47937047 -0.034320489 0.019672563
0.47935405 -0.033334337 0.019664235
0.4793376 -0.032348178 0.019655908
0.48017684 -0.031317662 0.020179162
0.48016042 -0.0303331 0.020170847
0.48099974 -0.029307362 0.020694137
0.48098335 -0.028324392 0.020685835
0.48096696 -0.027341425 0.020677533
0.4818064 -0.026322057 0.021200882
0.48179004 -0.025340682 0.021192594
0.4826296 -0.024326093 0.02171601
0.48261327 -0.02334631 0.021707734
0.4825969 -0.022366529 0.02169946
0.48343652 -0.021358315 0.022222903
0.48342022 -0.020380126 0.022214642
0.48340389 -0.019401938 0.022206381
0.48424363 -0.018400094 0.022729872
0.48422736 -0.017423499 0.022721624
0.48421106 -0.016446903 0.022713376
0.48419479 -0.015470307 0.022705128
0.48503461 -0.014476431 0.023228692
0.48501837 -0.013501428 0.023220459
0.4850021 -0.012526426 0.023212224
0.48498586 -0.011551424 0.023203989
0.48496959 -0.010576421 0.023195755
0.48495334 -0.0096014189 0.023187522
0.48493707 -0.0086264163 0.023179287
0.4857772 -0.0076452838 0.023702985
0.48576096 -0.0066718748 0.023694763
0.48574474 -0.0056984662 0.023686543
0.4857285 -0.0047250558 0.023678321
0.48571226 -0.0037516474 0.023670102
0.48655251 -0.0027800733 0.024193853
0.48653629 -0.001808258 0.024185646
0.48652008 -0.00083644176 0.02417744
0.48736042 0.00012875862 0.02470124
0.48734424 0.0010989825 0.024693046
0.48732805 0.0020692046 0.024684852
0.48731187 0.0030394285 0.024676658
0.48729572 0.0040096524 0.024668464
0.4881362 0.0049652937 0.025192345
0.48812005 0.0059339213 0.025184166
0.4881039 0.0069025513 0.025175985
0.48808774 0.0078711826 0.025167804
0.48807159 0.0088398131 0.025159623
0.48805544 0.0098084426 0.025151443
0.48803928 0.01077707 0.025143262
0.48802313 0.011745702 0.025135081
0.48800698 0.012714332 0.025126901
0.48799083 0.013682961 0.025118722
0.48797467 0.014651589 0.025110541
0.48795852 0.015620221 0.02510236
0.48794237 0.016588854 0.025094179
0.48792621 0.017557479 0.025085999
0.48791006 0.018526109 0.025077818
0.48789391 0.019494742 0.025069637
0.48787776 0.020463372 0.025061456
0.4878616 0.021431997 0.025053278
0.48698831 0.022443887 0.024512779
0.48697212 0.023414111 0.024504585
0.48695594 0.024384335 0.024496391
0.48693976 0.025354555 0.024488198
0.48692358 0.026324779 0.024480002
0.48690739 0.027294999 0.024471808
0.48603392 0.028318042 0.023931216
0.4860177 0.029289857 0.02392301
0.48514414 0.030317675 0.023382371
0.48427045 0.031348683 0.022841679
0.4833968 0.032382876 0.022300988
0.48252305 0.03342025 0.021760274
0.48079175 0.034523193 0.020687018
0.47991791 0.035568532 0.02014623
0.47904399 0.036617067 0.019605424
0.47817001 0.037668779 0.019064583
0.47729599 0.038723681 0.018523723
0.47470668 0.039922453 0.016917698
0.47672275 -0.043445885 0.016851226
0.47756061 -0.042391472 0.01737551
0.47754407 -0.041400541 0.017367141
0.47752756 -0.040409606 0.017358772
0.47751102 -0.039418671 0.017350404
0.478349 -0.038372226 0.017874762
0.47833252 -0.037382886 0.017866407
0.47831601 -0.036393546 0.017858051
0.47915414 -0.035353471 0.01838249
0.47999227 -0.034316584 0.018906923
0.47997582 -0.033330433 0.018898593
0.4799594 -0.032344278 0.018890265
0.48079762 -0.031313766 0.019414758
0.4807812 -0.030329203 0.019406443
0.48076478 -0.029344643 0.019398127
0.48074839 -0.02836008 0.019389812
0.48158675 -0.027337534 0.019914366
0.48157036 -0.026354566 0.019906064
0.48155397 -0.025371598 0.019897763
0.48239243 -0.024355425 0.020422371
0.48237607 -0.023374049 0.020414082
0.48321468 -0.022362651 0.020938769
0.48319834 -0.02138287 0.020930493
0.48318201 -0.020403089 0.020922219
0.48402068 -0.019398065 0.021446921
0.48400438 -0.018419877 0.02143866
0.48398805 -0.017441688 0.021430399
0.48397174 -0.0164635 0.021422138
0.48481053 -0.015466443 0.021946907
0.48479426 -0.014489847 0.021938659
0.48477796 -0.013513252 0.021930411
0.48476169 -0.012536656 0.021922164
0.48474541 -0.011560061 0.021913916
0.48472911 -0.010583466 0.021905668
0.48556811 -0.0095975604 0.022430537
0.48555183 -0.0086225579 0.022422303
0.48553559 -0.0076475553 0.022414068
0.48551932 -0.0066725533 0.022405835
0.48550305 -0.0056975512 0.0223976
0.48548681 -0.0047225477 0.022389365
0.48632604 -0.0037477952 0.022914356
0.4863098 -0.0027743857 0.022906134
0.48629355 -0.0018009773 0.022897914
0.48713285 -0.00083259586 0.023422925
0.48711663 0.00013921941 0.023414718
0.48710042 0.0011110365 0.023406509
0.48708421 0.0020828529 0.023398302
0.48792362 0.0030432681 0.023923388
0.48790744 0.0040134918 0.023915192
0.48789126 0.0049837139 0.023906998
0.4878751 0.0059539359 0.023898805
0.48785892 0.0069241584 0.023890611
0.48784274 0.0078943819 0.023882417
0.48782656 0.0088646058 0.023874223
0.48781037 0.0098348279 0.023866029
0.48779419 0.01080505 0.023857836
0.48863387 0.011749535 0.024383049
0.48861772 0.012718165 0.024374869
0.48860157 0.013686795 0.024366688
0.48772949 0.014685942 0.023825059
0.48771331 0.015656166 0.023816865
0.48769712 0.01662639 0.023808671
0.48768094 0.01759661 0.023800477
0.48766476 0.018566834 0.023792284
0.48764858 0.019537058 0.02378409
0.48763239 0.020507282 0.023775896
0.48761621 0.021477502 0.023767702
0.48760006 0.022447726 0.023759509
0.48758388 0.02341795 0.023751315
0.48756769 0.024388174 0.023743119
0.48669529 0.025406439 0.023201324
0.48667908 0.026378252 0.023193117
0.48666286 0.027350066 0.02318491
0.48664668 0.028321888 0.023176702
0.48577413 0.02934812 0.022634845
0.48575789 0.030321529 0.022626625
0.48488522 0.031352542 0.022084696
0.48401254 0.032386739 0.021542765
0.48228338 0.033484906 0.020467112
0.48141053 0.034527075 0.019925082
0.48053768 0.035572421 0.019383065
0.47966477 0.036620963 0.018841019
0.4787918 0.03767268 0.018298941
0.4779188 0.038727589 0.017756842
0.47533247 0.03992638 0.016147111
0.47734857 -0.043441955 0.01608064
0.47818542 -0.042387549 0.016606161
0.47816887 -0.041396618 0.016597793
0.47900581 -0.040346995 0.017123356
0.47813582 -0.039414749 0.016581055
0.47897279 -0.038368311 0.017106645
0.47895631 -0.037378971 0.017098289
0.4789398 -0.03638963 0.017089935
0.47977692 -0.035349563 0.017615616
0.47976047 -0.034361817 0.017607274
0.48059762 -0.033326529 0.018132957
0.48058116 -0.032340374 0.018124629
0.48056474 -0.031354222 0.018116301
0.48140198 -0.030325308 0.018642038
0.48138559 -0.029340746 0.018633723
0.48136917 -0.028356185 0.018625408
0.48135275 -0.027371624 0.018617094
0.48133633 -0.026387062 0.018608779
0.48217374 -0.025367709 0.019134596
0.48215735 -0.024384741 0.019126296
0.48214096 -0.023401773 0.019117994
0.48297849 -0.02238879 0.019643866
0.48296213 -0.021407416 0.019635579
0.48379979 -0.020399211 0.020161528
0.48378345 -0.01941943 0.020153254
0.48376709 -0.018439647 0.020144979
0.48375076 -0.017459866 0.020136705
0.4845885 -0.016459629 0.020662684
0.4845722 -0.01548144 0.020654423
0.48455587 -0.014503252 0.020646162
0.48453957 -0.013525063 0.0206379
0.48452327 -0.012546875 0.020629639
0.48536116 -0.011556196 0.0211557
0.48534489 -0.010579601 0.021147452
0.48532858 -0.0096030049 0.021139205
0.48531231 -0.0086264098 0.021130957
0.48529601 -0.0076498142 0.021122709
0.48527974 -0.0066732187 0.021114461
0.48526344 -0.0056966236 0.021106213
0.48610157 -0.0047186892 0.021632381
0.4860853 -0.0037436876 0.021624148
0.48606905 -0.0027686849 0.021615913
0.48605278 -0.0017936833 0.021607678
0.48689109 -0.00082371477 0.022133946
0.48687485 0.00014969373 0.022125725
0.48771316 0.0011148824 0.022652008
0.48769698 0.0020866985 0.022643799
0.48768076 0.0030585148 0.022635592
0.48766455 0.004030331 0.022627385
0.48764834 0.0050021471 0.022619177
0.48848683 0.0059577757 0.023145534
0.48847064 0.0069279978 0.02313734
0.48845449 0.0078982217 0.023129147
0.48843831 0.0088684456 0.023120953
0.48842213 0.0098386677 0.023112759
0.48840594 0.01080889 0.023104565
0.48838976 0.011779114 0.02309637
0.48837358 0.012749336 0.023088176
0.48835739 0.01371956 0.023079982
0.48834121 0.014689782 0.023071788
0.48832503 0.015660007 0.023063594
0.48830888 0.01663023 0.023055401
0.48829269 0.017600451 0.023047207
0.48742148 0.018607568 0.022504274
0.48740527 0.019579386 0.022496067
0.48738906 0.020551205 0.022487858
0.48737285 0.021523019 0.022479651
0.48735663 0.022494834 0.022471445
0.48734045 0.023466652 0.022463236
0.48732424 0.024438465 0.022455029
0.48730803 0.025410283 0.022446822
0.48729181 0.026382098 0.022438614
0.48727563 0.027353913 0.022430407
0.48640412 0.028378563 0.021887321
0.48638788 0.029351972 0.021879099
0.48551625 0.030381396 0.021335946
0.48464459 0.031414006 0.020792797
0.4837729 0.032449801 0.020249622
0.48290116 0.033488784 0.019706421
0.48202932 0.03453096 0.019163154
0.48115745 0.03557631 0.018619899
0.48114106 0.036559284 0.018611597
0.4794136 0.037676584 0.017533306
0.47854158 0.038731497 0.016989969
0.47595829 0.03993031 0.015376524
0.47882673 -0.043374564 0.015845181
0.47881022 -0.04238363 0.015836813
0.47879368 -0.041392695 0.015828444
0.47877717 -0.040401764 0.015820075
0.4796131 -0.039353736 0.016346889
0.47959661 -0.038364399 0.016338535
0.4795801 -0.037375055 0.016330179
0.47956359 -0.036385715 0.016321823
0.48039973 -0.035345655 0.016848736
0.48038325 -0.034357905 0.016840395
0.48121941 -0.033322629 0.017367316
0.48120296 -0.032336473 0.017358987
0.48118651 -0.031350318 0.017350659
0.48117009 -0.030364163 0.017342331
0.48115364 -0.02937801 0.017334001
0.48198995 -0.028352289 0.017861005
0.48197353 -0.027367728 0.017852688
0.48195711 -0.026383167 0.017844373
0.48194069 -0.025398605 0.017836059
0.48192427 -0.024414044 0.017827744
0.48276073 -0.023397883 0.018354828
0.48274434 -0.022414915 0.018346526
0.48272794 -0.021431947 0.018338224
0.48356453 -0.020422157 0.018865367
0.48354816 -0.019440781 0.018857079
0.4835318 -0.018459408 0.01884879
0.48436853 -0.017455989 0.019376013
0.4843522 -0.016476206 0.019367738
0.48433587 -0.015496425 0.019359464
0.48431951 -0.014516643 0.019351188
0.48515633 -0.013521192 0.019878447
0.48514003 -0.012543003 0.019870186
0.48512372 -0.011564814 0.019861925
0.48510739 -0.010586627 0.019853663
0.48509109 -0.0096084382 0.019845402
0.48507479 -0.0086302487 0.019837141
0.48505846 -0.0076520597 0.01982888
0.48504215 -0.0066738715 0.019820618
0.48587921 -0.0056927591 0.020347998
0.48586291 -0.0047161621 0.02033975
0.48584664 -0.0037395672 0.020331502
0.48583037 -0.0027629714 0.020323254
0.48666754 -0.0017898248 0.020850701
0.48665127 -0.00081482128 0.020842467
0.4874886 0.00015354584 0.021369984
0.48747236 0.0011269553 0.021361765
0.48745614 0.0021003638 0.021353543
0.4874399 0.003073774 0.021345323
0.48827732 0.0040341769 0.021872876
0.4882611 0.0050059929 0.021864669
0.48824489 0.0059778076 0.021856461
0.48822868 0.0069496236 0.021848254
0.4882125 0.0079214415 0.021840047
0.48819628 0.0088932561 0.021831838
0.48818007 0.0098650726 0.021823632
0.48816386 0.010836888 0.021815425
0.48900151 0.011782954 0.022343099
0.48813146 0.012780521 0.021799009
0.48811525 0.013752338 0.021790802
0.48809904 0.014724151 0.021782596
0.48808283 0.015695969 0.021774387
0.48806664 0.016667785 0.02176618
0.48805043 0.0176396 0.021757973
0.48803422 0.018611414 0.021749765
0.48801801 0.019583233 0.021741558
0.48800182 0.020555051 0.021733351
0.48798561 0.021526866 0.021725142
0.48711526 0.022541957 0.021180905
0.48709902 0.023515366 0.021172684
0.48708281 0.024488773 0.021164464
0.48706657 0.025462182 0.021156242
0.48705032 0.026435595 0.021148022
0.48703411 0.027409004 0.021139801
0.48701787 0.028382415 0.021131579
0.48700163 0.029355824 0.021123359
0.48613101 0.030385256 0.020578967
0.48526037 0.031417873 0.020034581
0.48438966 0.032453671 0.019490169
0.48437336 0.033431865 0.019481909
0.4835026 0.034472443 0.018937455
0.48177725 0.035580199 0.017856732
0.48090634 0.036628757 0.01731221
0.48088992 0.037613314 0.017303895
0.47916439 0.038735405 0.01622309
0.47658408 0.039934237 0.014605938
0.47314903 0.041214574 0.012452433
0.47946805 -0.044361576 0.015084201
0.47945154 -0.043370645 0.015075833
0.479435 -0.042379707 0.015067464
0.47941849 -0.041388776 0.015059095
0.4802534 -0.040339164 0.015587133
0.48023689 -0.03934982 0.015578778
0.48022041 -0.038360484 0.015570423
0.4802039 -0.03737114 0.015562067
0.48018742 -0.0363818 0.015553712
0.48102251 -0.035341743 0.016081862
0.48100606 -0.034353998 0.016073519
0.48098958 -0.033366248 0.016065178
0.48097309 -0.032378502 0.016056836
0.4818083 -0.031346418 0.016585022
0.48179185 -0.030360261 0.016576694
0.48177543 -0.029374108 0.016568366
0.48175898 -0.028387953 0.016560037
0.48174253 -0.027401799 0.016551709
0.48257789 -0.02637927 0.017079975
0.48256147 -0.02539471 0.017071661
0.48254505 -0.024410147 0.017063346
0.48252863 -0.023425587 0.017055031
0.48251221 -0.022441026 0.017046716
0.48334774 -0.021428056 0.017575063
0.48333135 -0.020445088 0.017566761
0.48331496 -0.01946212 0.017558459
0.48329857 -0.018479152 0.017550159
0.4841342 -0.017474148 0.018078573
0.48411784 -0.016492773 0.018070286
0.48410147 -0.015511398 0.018061997
0.48493728 -0.014512766 0.018590497
0.48492095 -0.013532984 0.018582223
0.48490462 -0.012553202 0.018573949
0.48488829 -0.011573421 0.018565673
0.48487192 -0.01059364 0.0185574
0.48485559 -0.0096138576 0.018549124
0.48483926 -0.0086340755 0.01854085
0.48482293 -0.0076542934 0.018532574
0.48565891 -0.0066700005 0.019061165
0.48564261 -0.0056918124 0.019052904
0.48562628 -0.0047136224 0.019044643
0.48560998 -0.0037354352 0.019036381
0.48644611 -0.0027591067 0.019565038
0.48642984 -0.0017825117 0.019556791
0.48641354 -0.00080591592 0.019548543
0.48724979 0.00016403889 0.020077247
0.48723352 0.0011390415 0.020069014
0.48806989 0.002104216 0.020597797
0.48805365 0.0030776262 0.020589575
0.48803744 0.0040510367 0.020581355
0.48887384 0.0050098388 0.02111016
0.48885766 0.0059816535 0.021101953
0.48884144 0.0069534695 0.021093745
0.48882523 0.0079252878 0.021085538
0.48880902 0.0088971015 0.021077331
0.48879281 0.009868918 0.021069122
0.48877662 0.010840734 0.021060916
0.48876041 0.011812551 0.021052709
0.4887442 0.012784366 0.0210445
0.48872799 0.013756183 0.021036293
0.4887118 0.014727998 0.021028087
0.48869559 0.015699815 0.02101988
0.48782641 0.016705355 0.020474484
0.48781016 0.017678764 0.020466262
0.48779395 0.018652171 0.020458043
0.48777771 0.019625584 0.020449821
0.48776147 0.020598993 0.020441601
0.48774526 0.0215724 0.020433379
0.48772901 0.022545809 0.020425159
0.48771277 0.023519218 0.020416938
0.48769656 0.024492627 0.020408718
0.48768032 0.025466034 0.020400496
0.48766407 0.026439447 0.020392274
0.48764786 0.027412856 0.020384055
0.48677829 0.028439112 0.019838452
0.48676202 0.029414114 0.019830218
0.48674577 0.030389113 0.019821985
0.48587611 0.031421736 0.019276366
0.48585984 0.032398332 0.019268118
0.48499012 0.033435736 0.018722454
0.48412037 0.034476321 0.018176764
0.4832505 0.035520099 0.017631015
0.48238063 0.036567066 0.017085269
0.4815107 0.03761721 0.016539497
0.47978717 0.038739316 0.015456215
0.47635633 0.040008526 0.013297854
0.47377884 0.041218527 0.011676895
0.46778667 0.042732291 0.0079057654
0.48009285 -0.044357654 0.014314853
0.48007634 -0.043366723 0.014306484
0.4800598 -0.042375784 0.014298115
0.48004329 -0.041384853 0.014289746
0.48002675 -0.040393919 0.014281377
0.48086068 -0.039345905 0.014810666
0.4808442 -0.038356569 0.014802311
0.48082769 -0.037367225 0.014793956
0.48081121 -0.036377884 0.0147856
0.48164532 -0.035337836 0.015314989
0.48162884 -0.03435009 0.015306647
0.48161238 -0.03336234 0.015298304
0.4815959 -0.032374594 0.015289962
0.48157942 -0.031386845 0.01528162
0.48156294 -0.030399099 0.015273279
0.4823972 -0.029370205 0.015802724
0.48238078 -0.02838405 0.015794395
0.48236433 -0.027397897 0.015786067
0.48234788 -0.026411742 0.015777739
0.48233142 -0.025425587 0.015769409
0.48316583 -0.024406252 0.016298942
0.48314941 -0.023421692 0.016290626
0.48313299 -0.022437129 0.016282311
0.4831166 -0.021452568 0.016273996
0.48310018 -0.020468008 0.016265681
0.48393473 -0.019458231 0.016795294
0.48391834 -0.018475262 0.016786993
0.48390195 -0.017492294 0.016778691
0.48388556 -0.016509326 0.016770389
0.48386917 -0.015526358 0.016762087
0.48385277 -0.01454339 0.016753785
0.48468754 -0.013544764 0.017283492
0.48467118 -0.01256339 0.017275203
0.48465478 -0.011582015 0.017266916
0.48463842 -0.01060064 0.017258627
0.48462206 -0.0096192649 0.017250339
0.4846057 -0.0086378893 0.017242052
0.4854407 -0.0076504159 0.017771883
0.48542434 -0.0066706338 0.017763609
0.48540801 -0.0056908531 0.017755335
0.48539168 -0.004711071 0.017747059
0.48622677 -0.0037315642 0.018276922
0.48621044 -0.0027533742 0.018268662
0.48619413 -0.001775187 0.018260399
0.48702931 -0.0008020511 0.018790321
0.48701301 0.00017454381 0.018782074
0.48784828 0.0011429 0.019312035
0.48783201 0.0021179025 0.019303801
0.48781577 0.0030929053 0.019295568
0.48865119 0.0040548886 0.019825615
0.48863494 0.0050282972 0.019817393
0.4886187 0.0060017058 0.019809173
0.48860249 0.0069751143 0.019800952
0.48858625 0.0079485243 0.019792732
0.48857 0.0089219334 0.01978451
0.48855379 0.0098953415 0.01977629
0.48853755 0.010868751 0.019768069
0.48852131 0.01184216 0.019759847
0.4885051 0.012815569 0.019751627
0.48848885 0.01378898 0.019743405
0.48847261 0.014762388 0.019735185
0.4884564 0.015735798 0.019726964
0.48844016 0.016709207 0.019718744
0.48842391 0.017682616 0.019710522
0.4884077 0.018656023 0.019702302
0.48839146 0.019629436 0.019694081
0.48752311 0.020642949 0.01914735
0.48750684 0.021617947 0.019139115
0.48749059 0.022592951 0.01913088
0.48747432 0.023567958 0.019122647
0.48745808 0.024542956 0.019114412
0.48744181 0.025517959 0.019106178
0.48742557 0.026492961 0.019097943
0.48740929 0.027467964 0.019089708
0.48739302 0.02844297 0.019081475
0.48737678 0.029417973 0.01907324
0.48736051 0.030392971 0.019065006
0.48649189 0.031425603 0.018518144
0.48647562 0.032402199 0.018509896
0.48560691 0.033439606 0.017962996
0.48473814 0.034480199 0.017416073
0.48472181 0.03545998 0.017407797
0.48385292 0.03650536 0.016860796
0.48298401 0.037553921 0.016313801
0.48040995 0.038743224 0.014689342
0.47698313 0.04001246 0.012526035
0.47440869 0.041222479 0.010901364
0.46927616 0.042662732 0.0076603317
0.45474666 0.045984317 -0.0015162099
0.47903562 -0.045477927 0.012476248
0.47986835 -0.044418771 0.013006674
0.47985181 -0.043426245 0.012998292
0.48068461 -0.042371865 0.013528765
0.4806681 -0.041380931 0.013520396
0.48065156 -0.04039 0.013512027
0.48063505 -0.039399065 0.013503659
0.48061851 -0.03840813 0.01349529
0.48145148 -0.037363313 0.014025844
0.481435 -0.036373969 0.014017489
0.48141849 -0.035384629 0.014009133
0.48140201 -0.034395289 0.014000778
0.48223516 -0.033358432 0.014531425
