# .PCD v0.7 - Point Cloud Data file format
VERSION 0.7
FIELDS x y z
SIZE 4 4 4
TYPE F F F
COUNT 1 1 1
WIDTH 1385
HEIGHT 1
VIEWPOINT 0 0 0 1 0 0 0
POINTS 1385
DATA ascii
0.57262135 0.25608116 0.058285121
0.57261568 0.25686499 0.058273356
0.57344621 0.25716788 0.058828123
0.57427675 0.25746754 0.059382956
0.57594347 0.25727987 0.060504399
0.57677412 0.25757155 0.061059352
0.57927161 0.25765646 0.062736034
0.58093852 0.25744644 0.063857831
0.53407061 0.01746357 0.033784211
0.53572774 0.01833538 0.034892254
0.5365532 0.019197464 0.035439875
0.53654706 0.020054605 0.035427008
0.53737265 0.02091191 0.035974734
0.53819817 0.021766027 0.036522474
0.53985548 0.022613937 0.037630871
0.54151285 0.023455475 0.038739398
0.54317027 0.02429064 0.039847989
0.54482776 0.025119429 0.040956706
0.54731697 0.025932454 0.042626195
0.54897457 0.026746906 0.043735128
0.5498004 0.027567567 0.044283371
0.55062616 0.028385041 0.044831663
0.55145204 0.029199332 0.045380004
0.55227786 0.030010434 0.045928389
0.5531038 0.030818349 0.04647686
0.5530979 0.031643625 0.046464469
0.55309194 0.032468904 0.046452079
0.55308598 0.033294179 0.046439692
0.55308008 0.034119457 0.046427302
0.55307412 0.034944732 0.046414912
0.55306822 0.03577001 0.046402525
0.55389416 0.036565181 0.046951152
0.55388826 0.037388865 0.046938788
0.5538823 0.038212549 0.046926424
0.5538764 0.039036229 0.046914056
0.55387044 0.039859917 0.046901692
0.55386454 0.040683597 0.046889327
0.55385864 0.041507281 0.04687696
0.55385268 0.042330965 0.046864595
0.55384678 0.043154653 0.046852231
0.55384082 0.043978333 0.046839867
0.55383492 0.044802018 0.046827499
0.55382895 0.045625702 0.046815135
0.55382305 0.046449386 0.04680277
0.55381715 0.047273066 0.046790406
0.55381119 0.048096754 0.046778038
0.55380529 0.048920434 0.046765674
0.55379933 0.049744118 0.04675331
0.55379343 0.050567806 0.046740942
0.55378747 0.05139149 0.046728577
0.55378157 0.052215174 0.046716213
0.55377567 0.053038854 0.046703849
0.55376971 0.053862538 0.046691481
0.55376381 0.054686222 0.046679117
0.55375785 0.055509906 0.046666753
0.55375195 0.056333587 0.046654388
0.55374599 0.057157278 0.04664202
0.55374008 0.057980958 0.046629656
0.55290192 0.058877766 0.046055626
0.55289596 0.059703041 0.04604324
0.55289006 0.060528319 0.046030849
0.5528841 0.061353594 0.046018459
0.5528782 0.062178869 0.046006072
0.55287224 0.063004144 0.045993682
0.55286628 0.063829422 0.045981292
0.55286038 0.064654708 0.045968901
0.55285442 0.065479979 0.045956515
0.55284846 0.066305257 0.045944124
0.55284256 0.067130528 0.045931734
0.5528366 0.067955807 0.045919348
0.5528307 0.068781085 0.045906957
0.55282474 0.069606356 0.045894567
0.55198634 0.070527077 0.04532015
0.55031562 0.071547985 0.044183698
0.54947722 0.072476648 0.043609191
0.54696792 0.074445352 0.041897912
0.54112256 0.077700697 0.037925065
0.57312441 0.25372386 0.057705414
0.57311875 0.25450772 0.057693645
0.57311314 0.25529155 0.057681877
0.57310748 0.25607541 0.057670113
0.573937 0.2563799 0.058226105
0.5739314 0.25716212 0.058214359
0.57476091 0.25746182 0.058770444
0.57559049 0.25775832 0.059326556
0.57725531 0.25756589 0.060450591
0.57808495 0.2578544 0.061006822
0.57974982 0.25765079 0.062131025
0.58141476 0.25744084 0.063255318
0.5354358 0.017463814 0.033669665
0.53709096 0.018334052 0.03478023
0.53791553 0.019194555 0.035329159
0.53790939 0.020050103 0.035316318
0.53873396 0.020905826 0.035865285
0.53955853 0.021758363 0.036414299
0.5403831 0.022607714 0.036963362
0.5420385 0.023449274 0.038074389
0.54369396 0.024284462 0.039185479
0.54534942 0.025113275 0.0402967
0.54700494 0.025935719 0.04140798
0.54866052 0.026751786 0.042519357
0.55031615 0.027561484 0.043630864
0.55114096 0.028378969 0.044180404
0.55196583 0.029193271 0.044729996
0.5527907 0.030004384 0.045279633
0.55278474 0.030831255 0.045267221
0.55277878 0.031658124 0.045254808
0.55277288 0.032484993 0.045242395
0.55359781 0.033288144 0.045792181
0.55359191 0.034113418 0.045779794
0.55358595 0.034938693 0.045767404
0.55358005 0.035763972 0.045755014
0.55357409 0.03658925 0.045742624
0.55356812 0.037414525 0.045730237
0.55356222 0.038239803 0.045717847
0.55355626 0.039065078 0.045705456
0.5535503 0.039890356 0.04569307
0.5535444 0.040715635 0.045680679
0.55353844 0.04154091 0.045668289
0.55353254 0.042366188 0.045655902
0.55352658 0.043191463 0.045643512
0.55352062 0.044016741 0.045631122
0.55351472 0.044842016 0.045618735
0.55350876 0.045667294 0.045606345
0.5535028 0.046492573 0.045593955
0.55432796 0.047267042 0.046144143
0.55432206 0.048090726 0.046131779
0.5543161 0.048914406 0.046119414
0.5543102 0.049738094 0.046107046
0.55347311 0.050618958 0.04553201
0.55346721 0.051444232 0.04551962
0.55346125 0.052269511 0.04550723
0.55345529 0.053094786 0.045494843
0.55344939 0.053920064 0.045482453
0.55344343 0.054745343 0.045470063
0.55343753 0.055570617 0.045457676
0.55343157 0.056395892 0.045445286
0.55342561 0.057221174 0.045432895
0.55341971 0.058046449 0.045420509
0.55341375 0.058871727 0.045408119
0.55340779 0.059697002 0.045395728
0.55340189 0.060522281 0.045383338
0.55339593 0.061347555 0.045370951
0.55339003 0.06217283 0.045358561
0.55338407 0.062998109 0.045346171
0.55337811 0.063823387 0.045333784
0.5533722 0.064648665 0.045321394
0.55336624 0.065473944 0.045309003
0.55336028 0.066299215 0.045296617
0.55335438 0.067124493 0.045284227
0.55334842 0.067949772 0.045271836
0.5525111 0.068867281 0.044696219
0.55250514 0.069694154 0.044683807
0.55166775 0.070616439 0.044108145
0.55083042 0.071541905 0.043532439
0.54916161 0.072569169 0.042393386
0.54832411 0.073502608 0.041817527
0.54665524 0.074541025 0.040678311
0.54581773 0.075482428 0.040102366
0.54414874 0.076531991 0.038962945
0.54164821 0.077694498 0.037260056
0.57360488 0.25450197 0.057078637
0.57443339 0.25480965 0.057635833
0.57442778 0.2555919 0.05762409
0.57442212 0.25637418 0.057612345
0.57525069 0.25667545 0.058169652
0.57607925 0.25697353 0.058726992
0.57690787 0.25726849 0.059284378
0.57857072 0.25707445 0.060410935
0.57939941 0.25736141 0.060968459
0.58022803 0.25764516 0.061526012
0.581891 0.2574352 0.062652811
0.53762871 0.017470639 0.034120586
0.53928196 0.018337714 0.035233732
0.53927583 0.019191669 0.035220914
0.54009938 0.020047404 0.035771132
0.54009324 0.020899765 0.035758335
0.54091686 0.02175072 0.036308624
0.54174048 0.02259849 0.036858961
0.54256421 0.023443073 0.03740938
0.54421765 0.024278283 0.03852297
0.54587114 0.025107121 0.03963669
0.54752469 0.025929587 0.04075047
0.54834843 0.026756644 0.041301116
0.5500021 0.027567957 0.042415101
0.55082595 0.028387049 0.04296587
0.55164981 0.029202955 0.043516684
0.55247366 0.030015673 0.044067547
0.5524677 0.030844137 0.044055112
0.55329162 0.031652074 0.044606045
0.55328566 0.032478947 0.044593632
0.5532797 0.033305816 0.04458122
0.55327374 0.034132686 0.044568807
0.55326784 0.034959555 0.044556394
0.55326188 0.035786428 0.044543982
0.55408591 0.036583211 0.045095116
0.55407995 0.037408486 0.045082726
0.55407405 0.038233764 0.045070339
0.55406809 0.039059043 0.045057949
0.55406213 0.039884318 0.045045558
0.55405623 0.040709596 0.045033172
0.55405027 0.041534875 0.045020781
0.55404437 0.042360149 0.045008391
0.55403841 0.043185428 0.044996001
0.55403244 0.044010703 0.044983614
0.55402654 0.044835977 0.044971224
0.55402058 0.045661259 0.044958834
0.55401462 0.046486534 0.044946447
0.55400872 0.047311809 0.044934057
0.55400276 0.048137087 0.044921666
0.55399686 0.048962366 0.04490928
0.5539909 0.049787641 0.044896889
0.55398494 0.050612919 0.044884499
0.55397904 0.051438197 0.044872113
0.55397308 0.052263472 0.044859722
0.55396712 0.053088747 0.044847332
0.55396122 0.053914029 0.044834945
0.55395526 0.054739304 0.044822555
0.55394936 0.055564579 0.044810165
0.5531131 0.056458179 0.044233654
0.5531072 0.057285052 0.044221241
0.55310124 0.058111921 0.044208828
0.55309528 0.05893879 0.044196416
0.55308932 0.059765663 0.044184003
0.55308336 0.060592532 0.04417159
0.55307746 0.061419401 0.044159174
0.5530715 0.06224627 0.044146761
0.55306554 0.063073136 0.044134349
0.55305958 0.063900009 0.044121936
0.55305362 0.064726882 0.044109523
0.55304766 0.065553755 0.044097111
0.55304176 0.06638062 0.044084698
0.5530358 0.067207493 0.044072285
0.55302984 0.068034366 0.044059873
0.55302387 0.068861231 0.044047456
0.55218756 0.069781914 0.043470573
0.55135119 0.070705779 0.042893641
0.55051476 0.071632832 0.042316657
0.54967839 0.072563075 0.041739628
0.54801142 0.073596686 0.040597949
0.54717493 0.074534893 0.040020801
0.54550797 0.075579651 0.038878988
0.54467142 0.07652583 0.038301688
0.54300439 0.077581741 0.037159707
0.54216778 0.078535885 0.036582317
0.57575172 0.25432771 0.057592303
0.57574612 0.25510842 0.057580583
0.57574046 0.25588906 0.057568867
0.57656807 0.25618878 0.058127429
0.57739562 0.25648531 0.05868604
0.57822329 0.25677863 0.059244718
0.5790509 0.25706878 0.059803426
0.57987857 0.25735575 0.060362197
0.58153957 0.25715059 0.061491426
0.58236724 0.2574296 0.062050298
0.5365091 0.016590899 0.032332562
0.53898907 0.017470941 0.034012329
0.54064029 0.018336445 0.03512796
0.54063416 0.019188806 0.035115164
0.54062802 0.020041168 0.035102371
0.54145062 0.020893728 0.035653885
0.54144448 0.021744497 0.035641115
0.54309595 0.022589291 0.036757093
0.54391861 0.02343229 0.037308753
0.54474127 0.024272107 0.037860461
0.54639286 0.025100967 0.03897668
0.54721558 0.025932817 0.039528504
0.54886717 0.026750525 0.040644858
0.54969001 0.027574409 0.041196804
0.55134171 0.028380964 0.04231336
0.55216455 0.029196881 0.042865425
0.55215859 0.030026937 0.042852964
0.5529815 0.030838076 0.043405101
0.55297554 0.031666536 0.043392662
0.55296957 0.032494999 0.043380227
0.55379254 0.033299766 0.04393246
0.55378658 0.034126636 0.043920048
0.55378062 0.034953505 0.043907635
0.55377465 0.035780378 0.043895222
0.55376875 0.036607247 0.04388281
0.55376279 0.037434116 0.043870393
0.55375683 0.038260985 0.043857981
0.55375087 0.039087858 0.043845568
0.55374491 0.039914727 0.043833155
0.55373901 0.0407416 0.043820743
0.55373305 0.041568466 0.04380833
0.55372709 0.042395338 0.043795917
0.55372113 0.043222208 0.043783505
0.55371517 0.04404908 0.043771092
0.55370921 0.044875946 0.043758675
0.55370331 0.045702819 0.043746263
0.55369735 0.046529692 0.04373385
0.55369139 0.047356557 0.043721437
0.55368543 0.048183426 0.043709025
0.55367947 0.049010299 0.043696612
0.55367357 0.049837168 0.043684199
0.5536676 0.050664041 0.043671787
0.55366164 0.05149091 0.043659374
0.55365568 0.052317783 0.043646958
0.55364972 0.053144652 0.043634545
0.55364376 0.053971522 0.043622132
0.55363786 0.054798391 0.04360972
0.5536319 0.05562526 0.043597307
0.55362594 0.056452129 0.043584894
0.55361998 0.057279002 0.043572482
0.55361402 0.058105871 0.043560069
0.55360812 0.058932744 0.043547656
0.55360216 0.059759613 0.04353524
0.5535962 0.060586482 0.043522827
0.55359024 0.061413351 0.043510415
0.55358428 0.062240221 0.043498002
0.55357832 0.063067086 0.043485589
0.55357242 0.063893959 0.043473177
0.55356646 0.064720832 0.043460764
0.5535605 0.065547705 0.043448351
0.5527252 0.066462003 0.042870309
0.55271924 0.067290463 0.04285787
0.55271327 0.068118922 0.042845435
0.55270731 0.06894739 0.042832997
0.55270135 0.06977585 0.042820562
0.55186594 0.070699707 0.042242378
0.55020112 0.071723729 0.041098379
0.54936564 0.072655559 0.040520038
0.54853016 0.073590569 0.039941691
0.54686522 0.074630521 0.038797449
0.54602969 0.075573497 0.038218979
0.54436463 0.076624617 0.03707454
0.54352903 0.077575549 0.036495946
0.54269344 0.078529678 0.035917308
0.54185778 0.079486996 0.035338592
0.57706803 0.25384584 0.057551257
0.57706243 0.25462493 0.05753956
0.57705683 0.25540403 0.057527862
0.57788342 0.25570214 0.058087703
0.57871008 0.25599706 0.058647607
0.57870448 0.25677297 0.058635958
0.57953113 0.25706312 0.059195917
0.58035779 0.25735009 0.05975594
0.58118451 0.25763389 0.060315996
0.58201122 0.25791448 0.060876112
0.54034734 0.017471265 0.033906534
0.5419966 0.018335199 0.035024691
0.54199052 0.019185968 0.035011921
0.54281211 0.02003854 0.035564687
0.54280603 0.020887716 0.035551939
0.54362768 0.021735506 0.036104809
0.54444939 0.022580113 0.036657695
0.54527104 0.023421532 0.037210628
0.54609275 0.024259767 0.037763607
0.54691458 0.025094813 0.038316671
0.54773635 0.025926674 0.038869746
0.54938591 0.026744405 0.0399886
0.55020773 0.027568301 0.040541794
0.55102962 0.028389007 0.041095074
0.55185151 0.029206529 0.041648366
0.5526734 0.030020865 0.042201705
0.55266744 0.030850921 0.042189244
0.55266148 0.031680975 0.042176783
0.55348337 0.032488938 0.042730216
0.55347741 0.033317406 0.042717781
0.55347145 0.034145866 0.042705342
0.55346549 0.034974329 0.042692907
0.55345953 0.035802793 0.042680468
0.55345356 0.03663126 0.042668033
0.55427557 0.037428066 0.043221634
0.55426967 0.038254935 0.043209221
0.55426371 0.039081808 0.043196809
0.55425775 0.039908677 0.043184396
0.55425179 0.04073555 0.043171983
0.55424583 0.041562416 0.043159571
0.55423987 0.042389289 0.043147158
0.55423397 0.043216158 0.043134741
0.55422801 0.044043031 0.043122329
0.55422205 0.044869896 0.043109916
0.55421609 0.045696769 0.043097503
0.55421013 0.046523642 0.043085091
0.55420423 0.047350507 0.043072678
0.55419827 0.048177376 0.043060265
0.5541923 0.049004249 0.043047853
0.55418634 0.049831118 0.04303544
0.55418038 0.050657991 0.043023024
0.55334628 0.051543601 0.042444166
0.55334032 0.052372061 0.042431731
0.55333436 0.053200524 0.042419292
0.55332839 0.054028984 0.042406857
0.55332243 0.054857451 0.042394418
0.55331647 0.055685915 0.04238198
0.55331051 0.056514375 0.042369545
0.55330455 0.057342842 0.042357106
0.55329859 0.058171302 0.042344671
0.55329263 0.058999769 0.042332232
0.55328667 0.059828233 0.042319797
0.55328071 0.060656693 0.042307358
0.55327475 0.061485156 0.042294923
0.55326879 0.06231362 0.042282484
0.55326283 0.063142084 0.042270049
0.55325687 0.063970551 0.042257611
0.55325091 0.064799011 0.042245176
0.55324495 0.065627478 0.042232737
0.55323899 0.066455938 0.042220302
0.55323303 0.067284398 0.042207863
0.55322707 0.068112865 0.042195424
0.55322111 0.068941325 0.042182989
0.5523867 0.06986358 0.04160358
0.5515523 0.070789017 0.041024122
0.55071789 0.071717635 0.040444616
0.54988337 0.072649457 0.039865032
0.54822046 0.07368461 0.038718361
0.54738593 0.074624382 0.038138691
0.54655141 0.075567342 0.037558969
0.54571682 0.076513492 0.036979169
0.54488224 0.07746283 0.036399353
0.54404759 0.078415357 0.03581949
0.54321301 0.079371057 0.035239577
0.57755679 0.25306109 0.05695169
0.57838237 0.253364 0.057512708
0.57837677 0.25414148 0.057501037
0.57837117 0.25491896 0.057489365
0.57919681 0.2552155 0.058050495
0.57919127 0.2559914 0.058038849
0.58001691 0.25628316 0.058600035
0.58084261 0.25657174 0.059161279
0.58166826 0.25685713 0.059722561
0.58249402 0.25713933 0.060283907
0.58331978 0.25741836 0.060845282
0.53840911 0.015727764 0.031562123
0.54335099 0.018333977 0.034923922
0.54417163 0.019186562 0.03547797
0.54416555 0.020034144 0.035465244
0.54415947 0.020881725 0.035452522
0.54498011 0.021727934 0.036006633
0.54580081 0.02257096 0.036560792
0.54662156 0.023410797 0.037115
0.54744232 0.024247449 0.037669286
0.54826307 0.025080916 0.038223591
0.54908389 0.025911193 0.03877794
0.5499047 0.026738286 0.039332341
0.55072552 0.027562194 0.039886784
0.55154639 0.02838291 0.040441312
0.55236727 0.029200446 0.040995855
0.55236131 0.030032096 0.040983371
0.55318218 0.030844849 0.041537985
0.55317622 0.031674903 0.041525524
0.55317026 0.032504961 0.041513063
0.5531643 0.033335019 0.041500602
0.55315834 0.034165077 0.041488141
0.55397928 0.034968268 0.042042896
0.55397332 0.035796732 0.042030457
0.55396736 0.036625199 0.042018022
0.5539614 0.037453659 0.042005584
0.55395544 0.038282122 0.041993149
0.55394948 0.039110586 0.04198071
0.55394351 0.03993905 0.041968275
0.55393755 0.040767513 0.041955836
0.55393159 0.041595977 0.041943401
0.55392563 0.042424437 0.041930962
0.55391967 0.043252904 0.041918524
0.55391371 0.044081368 0.041906089
0.55390775 0.044909827 0.04189365
0.55390179 0.045738295 0.041881215
0.55389583 0.046566758 0.041868776
0.55388987 0.047395218 0.041856341
0.55388391 0.048223682 0.041843902
0.55387795 0.049052145 0.041831467
0.55387199 0.049880609 0.041819029
0.55386603 0.050709076 0.041806594
0.55386007 0.05153754 0.041794155
0.55385411 0.052366 0.04178172
0.55384815 0.053194463 0.041769281
0.55384219 0.054022923 0.041756846
0.55383623 0.05485139 0.041744407
0.55300301 0.055746544 0.041164156
0.55299705 0.056576598 0.041151695
0.55299109 0.05740666 0.041139234
0.55298513 0.058236714 0.041126773
0.55297917 0.059066769 0.041114312
0.55297315 0.05989683 0.041101851
0.55296719 0.060726885 0.041089389
0.55296123 0.061556939 0.041076932
0.55295527 0.062386997 0.041064471
0.55294931 0.063217051 0.04105201
0.55294329 0.064047113 0.041039549
0.55293733 0.064877167 0.041027088
0.55293137 0.065707222 0.041014627
0.55292541 0.066537276 0.041002166
0.55291945 0.067367338 0.040989704
0.55291343 0.068197392 0.040977243
0.55290747 0.069027446 0.040964782
0.55207407 0.069951281 0.040384099
0.55124062 0.070878305 0.039803367
0.55040717 0.07180851 0.039222553
0.54957366 0.072741896 0.038641728
0.54874015 0.073678479 0.038060851
0.54790664 0.074618243 0.03747993
0.54707313 0.075561188 0.036898959
0.5462395 0.07650733 0.036317907
0.54540592 0.077456653 0.03573684
0.54457229 0.078409165 0.035155728
0.54456621 0.079255149 0.035143029
0.57887018 0.25258085 0.056914371
0.57969475 0.25288215 0.057476681
0.5796892 0.25365806 0.057465032
0.5796836 0.25443396 0.057453383
0.58050823 0.25472891 0.058015771
0.58050269 0.25550321 0.058004148
0.58132738 0.25579339 0.058566622
0.58215207 0.25608039 0.05912913
0.58297682 0.2563642 0.059691697
0.58297127 0.25713369 0.059680145
0.58379602 0.25741273 0.060242772
0.54223841 0.016613016 0.033147275
0.54388374 0.017478589 0.034270409
0.54552913 0.018337792 0.035393674
0.54552305 0.019183781 0.035380971
0.54551697 0.02002977 0.035368271
0.54633665 0.020875992 0.035923634
0.54633057 0.021720387 0.03591096
0.54715031 0.02256183 0.03646639
0.54797006 0.023400087 0.037021905
0.54796404 0.024241295 0.03700928
0.54878378 0.025074773 0.037564829
0.54960358 0.025905063 0.03812043
0.55042344 0.026732167 0.038676079
0.55124325 0.027556086 0.039231777
0.55206317 0.028376816 0.039787553
0.55205721 0.029210059 0.039775044
0.55287707 0.030026011 0.040330861
0.55287111 0.03085766 0.040318377
0.55286509 0.031689309 0.04030589
0.55285913 0.032520957 0.040293407
0.55367911 0.033328947 0.040849339
0.55367309 0.034159001 0.040836878
0.55366713 0.034989059 0.040824417
0.55366117 0.035819113 0.040811956
0.55365521 0.036649171 0.040799495
0.55364925 0.037479226 0.040787034
0.55364323 0.038309284 0.040774573
0.55363727 0.039139342 0.040762112
0.55445737 0.039932989 0.041318264
0.55445135 0.040761452 0.041305829
0.55444539 0.041589916 0.04129339
0.55443943 0.042418376 0.041280955
0.55443347 0.043246843 0.041268516
0.5544275 0.044075307 0.041256081
0.55442154 0.044903766 0.041243643
0.55358952 0.045779791 0.040662427
0.5535835 0.046609849 0.040649965
0.55357754 0.047439903 0.040637504
0.55357158 0.048269965 0.040625043
0.55356562 0.049100019 0.040612582
0.55355966 0.049930073 0.040600121
0.55355364 0.050760135 0.04058766
0.55354768 0.051590189 0.040575199
0.55354172 0.052420244 0.040562738
0.55353576 0.053250302 0.040550277
0.5535298 0.054080356 0.040537816
0.55352378 0.054910414 0.040525354
0.55351782 0.055740472 0.040512893
0.55351186 0.056570526 0.040500432
0.5535059 0.057400588 0.040487975
0.55349994 0.058230642 0.040475514
0.55349392 0.059060697 0.040463053
0.55348796 0.059890755 0.040450592
0.553482 0.060720809 0.04043813
0.55347604 0.061550867 0.040425669
0.55347008 0.062380925 0.040413208
0.55346406 0.063210979 0.040400747
0.55345809 0.064041033 0.040388286
0.55345213 0.064871095 0.040375825
0.55344617 0.065701149 0.040363364
0.55261379 0.066618599 0.039781529
0.55260777 0.067450248 0.039769042
0.55260181 0.068281896 0.039756559
0.55259585 0.069113545 0.039744072
0.55258983 0.069945194 0.039731588
0.5517574 0.070872203 0.039149605
0.5509249 0.0718024 0.038567543
0.5500924 0.072735779 0.037985466
0.5492599 0.073672347 0.037403341
0.54842734 0.074612096 0.036821168
0.54759479 0.075555034 0.03623895
0.54676217 0.076501161 0.035656646
0.54675615 0.077343971 0.035643995
0.54592353 0.078294873 0.035061654
0.54591745 0.07913927 0.03504898
0.58018154 0.25210059 0.056879569
0.580176 0.25287649 0.05686792
0.58099961 0.25317466 0.057431508
0.58099401 0.25394896 0.057419885
0.58181769 0.25424233 0.057983562
0.58181214 0.25501502 0.057971962
0.58263582 0.25530365 0.058535695
0.58345956 0.25558907 0.059099492
0.58345407 0.25635856 0.059087943
0.58427781 0.25663921 0.059651792
0.5851016 0.25691664 0.060215689
0.54441649 0.016623203 0.033616897
0.54605991 0.017485615 0.034742616
0.54687858 0.018336628 0.035299152
0.5468725 0.019181024 0.035286479
0.54686642 0.020025419 0.035273802
0.54768509 0.02087006 0.035830434
0.54767907 0.021712862 0.035817783
0.54849786 0.022552723 0.036374524
0.54849178 0.023393931 0.036361896
0.54931056 0.024229014 0.036918677
0.55012935 0.025060909 0.0374755
0.55012333 0.025898932 0.03746292
0.55094218 0.026726047 0.038019817
0.55176103 0.027549978 0.038576763
0.55175501 0.028384812 0.038564231
0.55257392 0.029203963 0.039121281
0.55256796 0.030037206 0.039108776
0.55338687 0.030851576 0.039665867
0.55338091 0.031683225 0.039653379
0.55337489 0.032514874 0.039640896
0.55336893 0.033346526 0.039628413
0.55336291 0.034178175 0.039615925
0.55335695 0.035009824 0.039603442
0.55335099 0.035841472 0.039590959
0.55417001 0.036643099 0.040148236
0.55416399 0.037473153 0.040135775
0.55415803 0.038303211 0.040123314
0.55415207 0.039133269 0.040110856
0.55414611 0.039963324 0.040098395
0.55414015 0.040793382 0.040085934
0.55413413 0.041623436 0.040073473
0.55412817 0.042453494 0.040061012
0.55412221 0.043283552 0.040048551
0.55411625 0.044113606 0.04003609
0.55411023 0.044943664 0.040023629
0.55410427 0.045773719 0.040011168
0.55409831 0.046603777 0.039998706
0.55409235 0.047433831 0.039986245
0.55326122 0.048316218 0.039403684
0.5532552 0.049147867 0.039391201
0.55324924 0.049979519 0.039378714
0.55324328 0.050811172 0.03936623
0.55323726 0.05164282 0.039353747
0.5532313 0.052474469 0.03934126
0.55322528 0.053306118 0.039328776
0.55321932 0.054137766 0.039316289
0.55321336 0.054969415 0.039303806
0.55320734 0.055801064 0.039291322
0.55320138 0.056632712 0.039278835
0.55319536 0.057464369 0.039266352
0.5531894 0.058296017 0.039253868
0.55318344 0.059127666 0.039241381
0.55317742 0.059959315 0.039228898
0.55317146 0.060790963 0.03921641
0.5531655 0.061622616 0.039203927
0.55315948 0.062454265 0.039191443
0.55315351 0.063285917 0.039178956
0.55314749 0.064117566 0.039166473
0.55314153 0.064949214 0.039153989
0.55313557 0.065780863 0.039141502
0.55312955 0.066612512 0.039129019
0.55312359 0.067444161 0.039116532
0.55311757 0.068275809 0.039104048
0.55228615 0.069199622 0.038520861
0.55228019 0.070032865 0.038508356
0.55227417 0.070866108 0.038495846
0.55144262 0.071796291 0.037912533
0.55061114 0.072729662 0.037329208
0.54977965 0.073666215 0.036745831
0.54894811 0.074605957 0.03616241
0.54894203 0.07544557 0.036149807
0.54811049 0.076390088 0.035566311
0.54727882 0.077337801 0.034982733
0.54727274 0.078180604 0.034970082
0.54726666 0.079023413 0.034957431
0.54726064 0.079866208 0.034944776
0.58066273 0.25209492 0.056270808
0.58148539 0.25239468 0.056835622
0.58147979 0.253169 0.056823999
0.58230251 0.25346398 0.057388902
0.58229691 0.25423667 0.057377305
0.58311963 0.25452688 0.05794226
0.58311409 0.25529802 0.057930686
0.58393681 0.25558344 0.058495734
0.58475959 0.25586566 0.059060812
0.58475405 0.25663358 0.059049282
0.58557683 0.25691104 0.059614431
0.54741442 0.01664166 0.034661993
0.54823208 0.017492685 0.035219781
0.548226 0.018335488 0.03520713
0.54821992 0.01917829 0.035194479
0.54903769 0.020022942 0.035752397
0.54903167 0.020864151 0.035739768
0.5490256 0.021705359 0.03572714
0.54984337 0.022543639 0.036285121
0.54983729 0.023383254 0.036272518
0.55065513 0.024216756 0.036830571
0.55064911 0.025054777 0.03681799
0.55146694 0.0258835 0.037376113
0.55146092 0.026719928 0.037363555
0.55227876 0.027543869 0.037921753
0.55227274 0.028378705 0.037909221
0.55309069 0.029197866 0.038467523
0.55308473 0.030031109 0.038455013
0.55307871 0.030864352 0.038442504
0.55307275 0.031697594 0.038429998
0.55306673 0.032530837 0.038417488
0.55306071 0.03336408 0.038404979
0.55387872 0.034172088 0.038963411
0.5538727 0.035003737 0.038950928
0.55386674 0.035835389 0.03893844
0.55386078 0.036667041 0.038925957
0.55385476 0.03749869 0.038913473
0.5538488 0.038330339 0.038900986
0.55384284 0.039161988 0.038888503
0.55383682 0.039993636 0.038876016
0.55383086 0.040825285 0.038863532
0.55382484 0.041656937 0.038851049
0.55381888 0.042488586 0.038838562
0.55381292 0.043320239 0.038826078
0.5538069 0.044151887 0.038813595
0.55380094 0.044983536 0.038801108
0.55379492 0.045815185 0.038788624
0.55378896 0.046646833 0.038776137
0.553783 0.047478482 0.038763653
0.55377698 0.048310131 0.03875117
0.55377102 0.049141783 0.038738683
0.553765 0.049973436 0.038726199
0.55375904 0.050805088 0.038713716
0.55375308 0.051636737 0.038701229
0.55374706 0.052468386 0.038688745
0.5537411 0.053300034 0.038676262
0.55291086 0.054195154 0.038092259
0.55372912 0.054963332 0.038651291
0.55372316 0.05579498 0.038638804
0.55371714 0.056626629 0.038626321
0.55371118 0.057458282 0.038613837
0.55370516 0.05828993 0.03860135
0.5536992 0.059121579 0.038588867
0.55369323 0.059953228 0.038576383
0.55368721 0.06078488 0.038563896
0.55368125 0.061616533 0.038551413
0.55367523 0.062448181 0.038538925
0.55366927 0.06327983 0.038526442
0.55366331 0.064111479 0.038513958
0.5528329 0.065027311 0.037929647
0.55282694 0.065860555 0.037917137
0.55282092 0.066693798 0.037904628
0.5528149 0.067527033 0.037892122
0.55280894 0.068360277 0.037879612
0.55280292 0.06919352 0.037867103
0.55279696 0.070026763 0.037854593
0.55196643 0.070955351 0.037270054
0.55196041 0.071790189 0.037257522
0.55112988 0.072723538 0.036672946
0.55029935 0.073660083 0.036088321
0.55029333 0.074498102 0.036075741
0.54946274 0.075439431 0.035491042
0.54863214 0.076383933 0.034906298
0.54862612 0.077225141 0.034893669
0.54862005 0.078066356 0.03488104
0.54778939 0.079017244 0.034296166
0.54778332 0.079860039 0.034283515
0.58197117 0.25161475 0.056239735
0.58196557 0.25238901 0.056228112
0.58278728 0.25268564 0.056794241
0.58278173 0.25345832 0.056782641
0.58360338 0.25375015 0.057348825
0.58359784 0.25452125 0.057337251
0.58441961 0.25480828 0.057903524
0.58524138 0.25509211 0.058469828
0.58523583 0.25586006 0.058458298
0.5860576 0.25613913 0.059024673
0.58687943 0.25641498 0.059591115
0.54876083 0.016643716 0.034571175
0.54957759 0.01749316 0.035130274
0.54957151 0.01833437 0.035117645
0.54956543 0.01917558 0.035105016
0.5503822 0.02001865 0.035664178
0.55037618 0.020858265 0.035651572
0.5503701 0.021697881 0.035638969
0.55036408 0.022537498 0.035626363
0.5511809 0.023372602 0.036185641
0.55117482 0.024210624 0.036173061
0.5511688 0.025048647 0.03616048
0.55198568 0.025877379 0.036719855
0.55197966 0.026713809 0.036707297
0.55279654 0.027537761 0.037266746
0.55279052 0.028372597 0.037254211
0.5527845 0.029207435 0.037241679
0.5536015 0.030025013 0.037801255
0.55359548 0.030858256 0.037788745
0.55358946 0.031691499 0.037776235
0.5535835 0.032524742 0.037763726
0.55357748 0.033357985 0.03775122
0.55357152 0.034191228 0.037738711
0.5535655 0.035024472 0.037726201
0.55355954 0.035857711 0.037713692
0.55355352 0.036690958 0.037701182
0.5535475 0.037524197 0.037688676
0.55436456 0.038324252 0.038248479
0.5543586 0.0391559 0.038235996
0.55435258 0.039987553 0.038223512
0.55434662 0.040819202 0.038211025
0.55434066 0.041650854 0.038198542
0.55433464 0.042482503 0.038186055
0.55432868 0.043314151 0.038173571
0.55432266 0.0441458 0.038161088
0.5543167 0.044977453 0.038148601
0.55431074 0.045809101 0.038136117
0.55348158 0.046689868 0.037551079
0.55347556 0.047523111 0.037538569
0.5534696 0.048356354 0.03752606
0.55346358 0.049189597 0.03751355
0.55345762 0.05002284 0.037501045
0.5534516 0.050856084 0.037488535
0.55344558 0.051689327 0.037476026
0.55343962 0.05252257 0.037463516
0.5534336 0.053355813 0.03745101
0.55342764 0.054189056 0.037438501
0.55342162 0.055022296 0.037425991
0.5534156 0.055855539 0.037413482
0.55340964 0.056688782 0.037400972
0.55340362 0.057522029 0.037388466
0.55339766 0.058355272 0.037375957
0.55339164 0.059188511 0.037363447
0.55338567 0.060021754 0.037350938
0.55337965 0.060854997 0.037338428
0.55337363 0.061688241 0.037325922
0.55336767 0.062521487 0.037313413
0.55336165 0.063354723 0.037300903
0.55335569 0.064187974 0.037288394
0.55334967 0.065021217 0.037275884
0.55334365 0.06585446 0.037263379
0.55333769 0.066687703 0.037250869
0.55333167 0.067520939 0.037238359
0.55332571 0.068354182 0.03722585
0.55249619 0.069279566 0.036640111
0.55249017 0.070114404 0.036627579
0.55248415 0.070949242 0.036615048
0.55165464 0.071880996 0.036029242
0.55164862 0.072717421 0.036016684
0.5508191 0.073653951 0.035430811
0.55081308 0.074491978 0.035418231
0.5499835 0.075433284 0.034832284
0.54997742 0.076272897 0.034819681
0.5499714 0.077112518 0.034807075
0.54996538 0.077952132 0.034794472
0.54913574 0.07890141 0.034208406
0.54912966 0.07974261 0.034195777
0.58245134 0.25160909 0.055632226
0.58327204 0.25190726 0.056199584
0.58409274 0.25220227 0.056766968
0.58408719 0.25297338 0.056755394
0.58408165 0.25374448 0.056743819
0.58490241 0.25403312 0.057311319
0.58489686 0.25480264 0.057299767
0.58571762 0.25508651 0.057867318
0.58571208 0.25585443 0.057855792
0.58653289 0.2561335 0.058423419
0.58735371 0.25640938 0.058991108
0.55092102 0.01749366 0.035043225
0.550915 0.018333275 0.035030622
0.55090898 0.019172892 0.035018016
0.55172473 0.020014381 0.035578452
0.55171871 0.020852404 0.035565872
0.55171269 0.021690425 0.035553291
0.55170661 0.022528449 0.035540711
0.55170059 0.02336647 0.035528131
0.55169457 0.024204493 0.035515551
0.55251044 0.02503483 0.036076151
0.55250442 0.02587126 0.036063593
0.5524984 0.026707688 0.036051035
0.55249238 0.027544118 0.036038481
0.55330825 0.028366489 0.0365992
0.55330229 0.029201327 0.036586668
0.55329627 0.030036164 0.036574136
0.55329025 0.030870998 0.036561605
0.55328423 0.031705834 0.036549069
0.55327821 0.032540672 0.036536537
0.55327225 0.033375509 0.036524005
0.55326623 0.034210343 0.036511473
0.55408227 0.035018373 0.037072439
0.55407625 0.035851616 0.037059933
0.55407029 0.03668486 0.037047423
0.55406427 0.037518103 0.037034914
0.55405831 0.038351346 0.037022404
0.55405229 0.039184589 0.037009895
0.55404627 0.040017832 0.036997389
0.55404031 0.040851075 0.03698488
0.55403429 0.041684315 0.03697237
0.55402833 0.042517558 0.03695986
0.55402231 0.043350805 0.036947355
0.55401635 0.044184044 0.036934845
0.55401033 0.045017287 0.036922336
0.55400431 0.04585053 0.036909826
0.55399835 0.046683773 0.036897317
0.55399233 0.047517017 0.036884811
0.55398637 0.04835026 0.036872301
0.55398035 0.049183503 0.036859792
0.55397433 0.050016746 0.036847282
0.55314606 0.050907064 0.036260817
0.5531401 0.051741902 0.036248285
0.55313408 0.052576739 0.036235753
0.55312806 0.053411573 0.036223222
0.55312204 0.054246411 0.03621069
0.55311602 0.055081245 0.036198154
0.55311006 0.055916082 0.036185622
0.55310404 0.056750916 0.03617309
0.55309802 0.057585757 0.036160558
0.55391443 0.058349177 0.036722194
0.55390841 0.059182417 0.036709685
0.55390239 0.06001566 0.036697179
0.55389643 0.060848903 0.03668467
0.55389041 0.061682146 0.03667216
0.55388445 0.062515393 0.036659651
0.55387843 0.063348629 0.036647145
0.55304998 0.064264446 0.036060296
0.55304396 0.065099284 0.036047764
0.55303794 0.065934114 0.036035232
0.55303198 0.066768952 0.036022697
0.55302596 0.067603789 0.036010165
0.55301994 0.068438627 0.035997633
0.55301392 0.069273457 0.035985101
0.5530079 0.070108294 0.035972569
0.5521794 0.071038447 0.035385538
0.55217338 0.071874872 0.03537298
0.55216736 0.072711304 0.035360422
0.55133879 0.073647819 0.034773301
0.55133277 0.074485846 0.034760721
0.55132675 0.075323865 0.034748141
0.55049819 0.076266758 0.034160916
0.55049211 0.077106372 0.034148313
0.55048609 0.077945992 0.034135707
0.55048001 0.078785606 0.034123104
0.54965138 0.079736456 0.033535764
0.55046797 0.08046484 0.034097895
0.5837568 0.25112891 0.055604924
0.58457649 0.25142553 0.056173537
0.58457094 0.25219664 0.056161959
0.5845654 0.25296775 0.056150384
0.58455986 0.25373885 0.05613881
0.5853796 0.25402749 0.056707557
0.5861994 0.25431296 0.057276338
0.58619386 0.25508088 0.057264809
0.58701366 0.25536156 0.05783366
0.58700818 0.25612789 0.057822157
0.58782804 0.2564038 0.058391098
0.55144179 0.017487517 0.034384467
0.55225652 0.018332204 0.034946103
0.5522505 0.019170227 0.034933522
0.55224442 0.020008249 0.034920942
0.5522384 0.020846272 0.034908362
0.55223238 0.021684295 0.034895781
0.55304724 0.022519423 0.035457559
0.55304122 0.023355851 0.035445005
0.5530352 0.024192281 0.035432447
0.55302918 0.025028711 0.035419889
0.55302316 0.025865141 0.035407335
0.55301714 0.02670157 0.035394777
0.55301112 0.027538 0.035382219
0.55382603 0.028360382 0.03594419
0.55382001 0.029195219 0.035931658
0.55381399 0.030030055 0.035919126
0.55380797 0.030864891 0.035906591
0.55380201 0.031699728 0.035894059
0.55379599 0.032534562 0.035881527
0.55378997 0.0333694 0.035868995
0.55378395 0.034204233 0.035856459
0.55377799 0.035039071 0.035843927
0.55377197 0.035873905 0.035831396
0.55376595 0.036708742 0.035818864
0.55375993 0.03754358 0.035806332
0.55375391 0.038378414 0.035793796
0.55374795 0.039213251 0.035781264
0.55456305 0.040011734 0.036343627
0.55455709 0.040844977 0.036331117
0.55455106 0.04167822 0.036318611
0.5545451 0.042511463 0.036306102
0.55453908 0.043344706 0.036293592
0.55371189 0.044222269 0.035706069
0.55370587 0.045057103 0.035693537
0.55369985 0.045891941 0.035681006
0.55369389 0.046726778 0.03566847
0.55368787 0.047561612 0.035655938
0.55368185 0.04839645 0.035643406
0.55367583 0.049231283 0.035630874
0.55366987 0.050066121 0.035618339
0.55366385 0.050900958 0.035605807
0.55365783 0.051735796 0.035593275
0.55365181 0.052570634 0.035580743
0.55364579 0.053405467 0.035568211
0.55363983 0.054240305 0.035555676
0.55363381 0.055075139 0.035543144
0.55362779 0.055909976 0.035530612
0.55362177 0.05674481 0.03551808
0.55361581 0.057579651 0.035505548
0.55360979 0.058414482 0.035493013
0.55360377 0.059249319 0.035480481
0.55359775 0.060084153 0.035467949
0.55359173 0.060918991 0.035455417
0.55358577 0.061753828 0.035442881
0.55357975 0.062588662 0.035430349
0.55357373 0.063423499 0.035417818
0.55356771 0.064258337 0.035405286
0.55356175 0.065093175 0.035392754
0.55355573 0.065928012 0.035380218
0.55354971 0.066762842 0.035367686
0.55354369 0.06759768 0.035355154
0.55353767 0.068432517 0.035342623
0.55271018 0.069359466 0.034754392
0.55270416 0.070195898 0.034741834
0.55269814 0.071032323 0.034729276
0.55269212 0.071868755 0.034716722
0.5526861 0.072705179 0.034704164
0.55185854 0.073641688 0.034115791
0.55185252 0.074479714 0.034103211
0.5518465 0.075317733 0.034090631
0.55184048 0.076155759 0.03407805
0.5518344 0.076993778 0.034065466
0.55182838 0.077831805 0.034052886
0.55100077 0.078779466 0.033464346
0.55099469 0.079619072 0.03345174
0.55098867 0.080458693 0.033439137
0.55098265 0.081298314 0.033426531
0.58423603 0.25112325 0.054998666
0.58505476 0.25141987 0.055568527
0.58504921 0.25219101 0.055556949
0.58586794 0.25248283 0.056126904
0.5858624 0.25325236 0.056115352
0.58585685 0.25402185 0.056103799
0.58667564 0.25430736 0.056673829
0.5866701 0.25507528 0.056662299
0.58666462 0.25584319 0.056650773
0.58748341 0.25612229 0.057220899
0.58830231 0.2563982 0.057791088
0.5527823 0.017488051 0.034301173
0.55277622 0.018326074 0.034288593
0.5527702 0.019164097 0.034276012
0.55276418 0.020002119 0.034263432
0.55275816 0.020840142 0.034250852
0.553572 0.021676874 0.034813855
0.55356598 0.022513304 0.034801301
0.55355996 0.023349732 0.034788743
0.55355394 0.024186162 0.034776185
0.55354792 0.025022592 0.03476363
0.5535419 0.025859021 0.034751073
0.55353588 0.026695451 0.034738515
0.55352986 0.027531881 0.03472596
0.55352384 0.028368309 0.034713402
0.55351782 0.029204739 0.034700848
0.5535118 0.030041168 0.03468829
0.55350578 0.030877598 0.034675732
0.55349976 0.031714026 0.034663178
0.55349374 0.032550454 0.03465062
0.55348772 0.033386886 0.034638062
0.55430174 0.034198128 0.035201453
0.55429572 0.035032962 0.035188917
0.5542897 0.035867799 0.035176385
0.55428368 0.036702637 0.035163853
0.55427772 0.03753747 0.035151321
0.5542717 0.038372308 0.03513879
0.55426568 0.039207146 0.035126254
0.55425966 0.040041983 0.035113722
0.5542537 0.040876817 0.03510119
0.55424768 0.041711651 0.035088658
0.55424166 0.042546488 0.035076126
0.55423564 0.043381326 0.035063591
0.55422962 0.04421616 0.035051059
0.55422366 0.045050997 0.035038527
0.55421764 0.045885835 0.035025995
0.55421162 0.046720672 0.03501346
0.5542056 0.047555506 0.035000928
0.55419964 0.048390344 0.034988396
0.55419362 0.049225178 0.034975864
0.5541876 0.050060011 0.034963332
0.55336136 0.050951902 0.034374375
0.55335534 0.051788334 0.034361817
0.55334932 0.052624762 0.034349263
0.5533433 0.05346119 0.034336705
0.55333728 0.054297615 0.034324151
0.55333126 0.055134047 0.034311593
0.55332524 0.055970475 0.034299035
0.55331922 0.056806903 0.03428648
0.55413353 0.057573542 0.034850538
0.55412751 0.058408376 0.034838002
0.55412149 0.059243213 0.03482547
0.55411553 0.060078047 0.034812938
0.55410951 0.060912885 0.034800407
0.55410349 0.061747722 0.034787875
0.55409747 0.062582552 0.034775339
0.55327106 0.063498341 0.034186028
0.55326504 0.064334773 0.03417347
0.55325902 0.065171205 0.034160912
0.553253 0.066007629 0.034148358
0.55324697 0.066844054 0.0341358
0.55324095 0.067680486 0.034123242
0.55323493 0.068516918 0.034110688
0.55322891 0.069353342 0.03409813
0.55322289 0.070189774 0.034085575
0.55321687 0.071026206 0.034073018
0.55321085 0.071862638 0.03406046
0.55320483 0.072699063 0.034047905
0.5523783 0.073635556 0.033458281
0.55237228 0.074473582 0.033445701
0.5523662 0.075311601 0.033433121
0.55236018 0.076149628 0.03342054
0.55235416 0.076987654 0.03340796
0.55234814 0.077825673 0.033395376
0.55234212 0.078663692 0.033382796
0.5515154 0.079612933 0.032792982
0.55150938 0.080452554 0.032780375
0.55150336 0.081292167 0.032767773
0.58553296 0.25141424 0.054963518
0.58552742 0.25218534 0.05495194
0.58552188 0.25295645 0.054940365
0.58633965 0.25324672 0.05551159
0.58633411 0.25401622 0.055500038
0.58715189 0.25430173 0.056071319
0.5871464 0.25506964 0.056059793
0.58714086 0.25583759 0.056048263
0.58795869 0.25611669 0.056619637
0.58795315 0.25688303 0.056608133
0.55329597 0.018319942 0.033631083
0.55328995 0.019157965 0.033618502
0.55328393 0.019995987 0.033605922
0.55327791 0.02083401 0.033593342
0.55409074 0.021670755 0.034157597
0.55408472 0.022507185 0.034145039
0.5540787 0.023343613 0.034132484
0.55407268 0.024180043 0.034119926
0.55406666 0.025016472 0.034107368
0.55406064 0.025852902 0.034094814
0.55405462 0.02668933 0.034082256
0.5540486 0.02752576 0.034069702
0.55404258 0.028362188 0.034057144
0.55403656 0.029198619 0.034044586
0.55403054 0.030035049 0.034032032
0.55402452 0.030871479 0.034019474
0.5540185 0.031707905 0.034006916
0.55401248 0.032544337 0.033994362
0.55400646 0.033380765 0.033981804
0.55400044 0.034217194 0.03396925
0.55399442 0.035053622 0.033956692
0.5539884 0.035890054 0.033944134
0.55398238 0.036726482 0.033931579
0.55397636 0.037562914 0.033919021
0.55397034 0.038399339 0.033906464
0.55396432 0.039235771 0.033893909
0.55477744 0.040035874 0.034458712
0.55477142 0.040870707 0.03444618
0.5547654 0.041705545 0.034433648
0.55475938 0.042540379 0.034421116
0.55393422 0.043417919 0.033831127
0.5539282 0.044254348 0.033818569
0.55392218 0.045090776 0.033806011
0.55391622 0.045927204 0.033793457
0.5539102 0.046763636 0.033780899
0.55390418 0.047600064 0.033768341
0.55389816 0.048436493 0.033755787
0.55389214 0.049272921 0.033743229
0.55388612 0.050109349 0.033730671
0.5538801 0.050945781 0.033718117
0.55387408 0.051782213 0.033705559
0.55386806 0.052618641 0.033693004
0.55386204 0.05345507 0.033680446
0.55385602 0.054291498 0.033667888
0.55385 0.05512793 0.033655334
0.55384398 0.055964358 0.033642776
0.55383795 0.056800783 0.033630218
0.55383193 0.057637218 0.033617664
0.55382591 0.058473647 0.033605106
0.55381989 0.059310075 0.033592552
0.55381387 0.060146503 0.033579994
0.55380785 0.060982935 0.033567436
0.55380183 0.061819363 0.033554882
0.55379581 0.062655792 0.033542324
0.55378979 0.063492216 0.033529766
0.55378377 0.064328656 0.033517212
0.55377775 0.06516508 0.033504654
0.55377173 0.066001512 0.033492096
0.55376571 0.066837937 0.033479542
0.55375969 0.067674369 0.033466984
0.55375367 0.068510793 0.033454429
0.55374765 0.069347225 0.033441871
0.55374163 0.070183657 0.033429313
0.55373561 0.071020089 0.033416759
0.55372959 0.071856514 0.033404201
0.55290401 0.072791405 0.032813352
0.55289799 0.073629431 0.032800771
0.55289197 0.07446745 0.032788191
0.55288595 0.075305469 0.032775611
0.55287993 0.076143496 0.03276303
0.55287391 0.076981522 0.03275045
0.55286789 0.077819541 0.032737866
0.55286181 0.078657568 0.032725286
0.55203617 0.079606786 0.03213422
0.55203009 0.080446415 0.032121617
0.55120438 0.081400417 0.031530477
0.55037862 0.082357615 0.030939259
0.58601117 0.25140861 0.054358508
0.58600563 0.25217971 0.054346934
0.58600008 0.25295082 0.054335356
0.58681691 0.25324109 0.054907832
0.58681136 0.25401059 0.05489628
0.58680582 0.25478011 0.054884728
0.58762264 0.25506404 0.055457283
0.5876171 0.25583196 0.055445753
0.58843398 0.25611109 0.056018379
0.58842844 0.25687739 0.056006875
0.55381572 0.01831381 0.032973573
0.5538097 0.019151835 0.032960992
0.55380362 0.019989857 0.032948412
0.5537976 0.020827878 0.032935832
0.55379158 0.021665901 0.032923251
0.55378556 0.022503924 0.032910671
0.55377954 0.023341946 0.032898091
0.55377352 0.024179969 0.03288551
0.55376744 0.025017992 0.032872926
0.55376142 0.025856014 0.032860346
0.5537554 0.026694037 0.032847766
0.55374938 0.02753206 0.032835186
0.55456132 0.02835607 0.033400882
0.5545553 0.0291925 0.033388324
0.55454928 0.03002893 0.03337577
0.55454326 0.030865358 0.033363212
0.55453724 0.031701788 0.033350654
0.55453122 0.032538217 0.0333381
0.5545252 0.033374645 0.033325542
0.55451918 0.034211077 0.033312988
0.55451316 0.035047505 0.03330043
0.55450714 0.035883933 0.033287872
0.55450112 0.036720362 0.033275317
0.5544951 0.037556794 0.033262759
0.55448908 0.038393222 0.033250201
0.55448306 0.03922965 0.033237647
0.55447704 0.040066082 0.033225089
0.55447102 0.04090251 0.033212531
0.554465 0.041738939 0.033199977
0.55445898 0.042575367 0.033187419
0.55445302 0.043411799 0.033174865
0.554447 0.044248227 0.033162307
0.55444098 0.045084655 0.033149749
0.55443496 0.045921084 0.033137195
0.55442894 0.046757516 0.033124637
0.55442291 0.047593944 0.033112079
0.55441689 0.048430372 0.033099525
0.55441087 0.049266804 0.033086967
0.5535866 0.050158665 0.032495514
0.55358052 0.050996691 0.032482933
0.5535745 0.051834714 0.032470353
0.55356848 0.052672736 0.032457773
0.55356246 0.053510755 0.032445192
0.55355644 0.054348778 0.032432612
0.55355042 0.055186801 0.032420032
0.55354434 0.056024823 0.032407451
0.55435669 0.056794666 0.032973956
0.55435067 0.057631101 0.032961402
0.55434465 0.05846753 0.032948844
0.55433863 0.059303954 0.03293629
0.55433261 0.060140382 0.032923732
0.55432659 0.060976814 0.032911174
0.55432057 0.061813243 0.03289862
0.55431455 0.062649675 0.032886062
0.55430853 0.063486099 0.032873504
0.55430251 0.064322531 0.03286095
0.55429649 0.065158963 0.032848392
0.55429047 0.065995388 0.032835834
0.55428445 0.06683182 0.03282328
0.55427843 0.067668252 0.032810722
0.55427241 0.068504676 0.032798167
0.5534479 0.069433182 0.032206163
0.55344188 0.070271201 0.032193583
0.5534358 0.071109228 0.032181002
0.55342978 0.071947254 0.032168418
0.55342376 0.072785273 0.032155838
0.55341774 0.0736233 0.032143258
0.55341172 0.074461319 0.032130677
0.5534057 0.075299338 0.032118097
0.55339962 0.076137364 0.032105517
0.5533936 0.07697539 0.032092936
0.55256897 0.07792142 0.031500667
0.55256289 0.078761034 0.031488065
0.55255687 0.079600647 0.031475458
0.55173212 0.080553055 0.030883094
0.55090737 0.081508651 0.03029065
0.55008256 0.082467422 0.029698189
0.54925781 0.083429396 0.029105684
0.58648944 0.25140294 0.053753499
0.5864839 0.25217408 0.053741921
0.58647835 0.25294518 0.053730346
0.58647281 0.25371629 0.053718772
0.58728862 0.25400496 0.054292519
0.58728307 0.25477448 0.054280967
0.58727753 0.25554401 0.054269414
0.58809334 0.25582635 0.054843243
0.58808786 0.25659427 0.054831713
0.58890373 0.25687179 0.055405617
0.55351859 0.018302562 0.031736821
0.55351257 0.019142179 0.031724218
0.55432338 0.019983726 0.032290902
0.55431736 0.020821748 0.032278322
0.55431134 0.021659769 0.032265741
0.55430526 0.022497794 0.032253161
0.55429924 0.023335814 0.032240581
0.55429322 0.024173837 0.032228
0.5542872 0.02501186 0.032215416
0.55428118 0.025849883 0.032202836
0.55427516 0.026687905 0.032190256
0.55426913 0.027525928 0.032177676
0.55426306 0.028363951 0.032165095
0.55425704 0.029201973 0.032152515
0.55425102 0.030039998 0.032139935
0.554245 0.030878019 0.032127354
0.55423898 0.031716038 0.032114774
0.55423295 0.03255406 0.032102194
0.55422688 0.033392087 0.032089613
0.55422086 0.034230106 0.032077033
0.55421484 0.035068128 0.032064453
0.55420882 0.035906151 0.032051872
0.5542028 0.036744174 0.032039292
0.55419677 0.037582196 0.032026712
0.55500782 0.038387101 0.032593943
0.5550018 0.039223529 0.032581389
0.55499578 0.040059961 0.032568831
0.55498976 0.04089639 0.032556273
0.55498374 0.041732822 0.032543719
0.55416059 0.042610332 0.031951226
0.55415452 0.043448355 0.031938646
0.5541485 0.044286378 0.031926066
0.55414248 0.0451244 0.031913485
0.55413646 0.045962423 0.031900905
0.55413043 0.046800446 0.031888325
0.55412441 0.047638468 0.031875744
0.55411834 0.048476491 0.031863164
0.55411232 0.04931451 0.031850584
0.5541063 0.050152533 0.031838004
0.55410028 0.050990559 0.031825423
0.55409425 0.051828582 0.031812843
0.55408823 0.052666605 0.031800263
0.55408216 0.053504627 0.031787682
0.55407614 0.054342646 0.031775102
0.55407012 0.055180669 0.031762522
0.5540641 0.056018692 0.031749941
0.55405807 0.056856714 0.031737357
0.55405205 0.057694741 0.031724777
0.55404598 0.058532763 0.031712197
0.55403996 0.059370782 0.031699616
0.55403394 0.060208805 0.031687036
0.55402792 0.061046828 0.031674456
0.55402189 0.06188485 0.031661876
0.55401587 0.062722869 0.031649295
0.55400985 0.063560896 0.031636715
0.55400378 0.064398922 0.031624135
0.55399776 0.065236941 0.031611554
0.55399173 0.066074967 0.031598974
0.55398571 0.066912986 0.031586394
0.55397969 0.067751005 0.031573813
0.55397367 0.068589032 0.031561233
0.5539676 0.069427051 0.031548653
0.55396158 0.070265077 0.031536072
0.55395555 0.071103096 0.031523492
0.55394953 0.071941122 0.031510912
0.55394351 0.072779141 0.031498328
0.55393749 0.073617168 0.031485748
0.55393142 0.074455187 0.031473167
0.5539254 0.075293213 0.031460587
0.55391937 0.076131232 0.031448007
0.5530957 0.07707566 0.030854514
0.55308968 0.077915274 0.030841909
0.5530836 0.078754894 0.030829305
0.55307758 0.0795945 0.0308167
0.55225384 0.080546901 0.030223086
0.55143005 0.08150249 0.029629389
0.54978853 0.082577214 0.028454622
0.54896474 0.08354076 0.027860841
0.54732311 0.084626645 0.026685873
0.58696765 0.25139731 0.053148489
0.5869621 0.25216845 0.053136911
0.58695656 0.25293955 0.053125337
0.58695102 0.25371063 0.053113762
0.58694547 0.25448176 0.053102184
0.58776033 0.25476885 0.053677209
0.58775479 0.25553837 0.053665657
0.58774924 0.2563079 0.053654104
0.5885641 0.25658864 0.054229207
0.58855855 0.25735655 0.054217678
0.53940374 0.01125773 0.020733392
0.54102904 0.012158589 0.021881001
