# .PCD v0.7 - Point Cloud Data file format
VERSION 0.7
FIELDS x y z
SIZE 4 4 4
TYPE F F F
COUNT 1 1 1
WIDTH 1366
HEIGHT 1
VIEWPOINT 0 0 0 1 0 0 0
POINTS 1366
DATA ascii
0.44284281 0.024255713 0.050665356
0.44283593 0.025214819 0.050650958
0.443728 0.026165331 0.051112268
0.44372112 0.027122842 0.051097896
0.44371423 0.028080355 0.05108352
0.44370735 0.029037867 0.051069144
0.44370046 0.02999538 0.051054772
0.44369355 0.030952893 0.051040396
0.44368666 0.031910405 0.051026024
0.44367978 0.032867916 0.051011648
0.44457194 0.033804089 0.051473148
0.44456506 0.034760006 0.051458798
0.44455817 0.035715926 0.051444449
0.44455129 0.036671847 0.051430099
0.4445444 0.037627768 0.051415749
0.44453755 0.038583685 0.051401399
0.44453067 0.039539605 0.051387049
0.44452378 0.040495526 0.051372696
0.4445169 0.041451443 0.051358346
0.44451001 0.04240736 0.051343996
0.44540229 0.043326009 0.051805753
0.44449627 0.044319201 0.051315296
0.44448939 0.045275122 0.051300947
0.44448251 0.046231039 0.051286593
0.44447562 0.04718696 0.051272243
0.44536796 0.04809764 0.051734123
0.44269869 0.0021580206 0.049767673
0.44269177 0.003118719 0.049753249
0.44268486 0.0040794173 0.049738828
0.44267794 0.0050401166 0.049724404
0.44267103 0.006000815 0.049709983
0.44266412 0.0069615142 0.049695559
0.44355497 0.0079439003 0.050157614
0.44354805 0.008903007 0.050143216
0.44354117 0.0098621119 0.050128818
0.44353426 0.010821218 0.050114419
0.44352734 0.011780323 0.050100021
0.44352046 0.012739429 0.050085623
0.44351354 0.013698535 0.050071225
0.44350666 0.014657641 0.050056826
0.44349974 0.015616746 0.050042428
0.44349286 0.016575852 0.05002803
0.44348595 0.017534956 0.050013632
0.44347906 0.018494062 0.049999233
0.44347215 0.019453168 0.049984835
0.44346523 0.020412276 0.049970437
0.44345835 0.021371381 0.049956039
0.44345143 0.022330485 0.04994164
0.44434252 0.023285788 0.050404131
0.44433564 0.024243301 0.050389756
0.44432873 0.025200812 0.05037538
0.44432184 0.026158325 0.050361007
0.44431496 0.027115837 0.050346632
0.44430807 0.02807335 0.050332259
0.44519916 0.029017501 0.050794885
0.44519228 0.029973419 0.050780535
0.44518542 0.03092934 0.050766185
0.44428051 0.031903401 0.05027476
0.44517165 0.032841176 0.050737482
0.44426674 0.033818424 0.050246011
0.44515792 0.034753013 0.050708782
0.44515103 0.035708934 0.050694432
0.44514415 0.036664855 0.050680082
0.44513726 0.037620772 0.050665732
0.44513038 0.038576692 0.050651383
0.44512352 0.039532613 0.050637029
0.44601476 0.040456049 0.051099967
0.44600791 0.041410375 0.05108564
0.44510287 0.042400368 0.05059398
0.44509599 0.043356288 0.05057963
0.44598728 0.044273354 0.051042661
0.44508225 0.045268126 0.050550926
0.44507536 0.046224046 0.050536577
0.44596669 0.047136333 0.050999682
0.44506159 0.048135884 0.050507877
0.4432945 0.0021509919 0.049013913
0.44418427 0.0031413555 0.049477097
0.44417739 0.0041004606 0.049462698
0.44417048 0.0050595668 0.0494483
0.44416359 0.0060186726 0.049433902
0.44415668 0.0069777779 0.049419504
0.44414979 0.0079368837 0.049405105
0.44503969 0.0089160968 0.049868487
0.44413596 0.0098550953 0.049376309
0.44502592 0.010831121 0.049839739
0.44501901 0.011788634 0.049825367
0.44501212 0.012746146 0.049810991
0.44500524 0.013703659 0.049796615
0.44499835 0.014661171 0.049782243
0.44499147 0.015618684 0.049767867
0.44498459 0.016576195 0.049753495
0.44497767 0.017533708 0.049739119
0.44497079 0.01849122 0.049724746
0.4449639 0.019448733 0.049710371
0.44495702 0.020406246 0.049695995
0.44495013 0.021363758 0.049681623
0.44494325 0.022321271 0.049667247
0.44493634 0.023278782 0.049652874
0.44492945 0.024236295 0.049638499
0.44492257 0.025193807 0.049624126
0.44491568 0.02615132 0.049609751
0.4449088 0.027108833 0.049595375
0.44490191 0.028066345 0.049581002
0.44579202 0.029010506 0.050044879
0.44578514 0.029966425 0.050030529
0.44577825 0.030922346 0.05001618
0.44577137 0.031878263 0.05000183
0.44576451 0.032834183 0.049987476
0.44575763 0.0337901 0.049973127
0.44664782 0.03472311 0.050437171
0.44664094 0.035677437 0.050422847
0.44663408 0.036631763 0.05040852
0.44662723 0.037586089 0.050394192
0.44662035 0.038540415 0.050379865
0.44661349 0.039494742 0.050365541
0.44660661 0.040449068 0.050351214
0.44659975 0.041403394 0.050336886
0.44659287 0.042357717 0.050322559
0.44658601 0.043312047 0.050308235
0.44568196 0.044305217 0.049815275
0.44657227 0.045220699 0.05027958
0.44656542 0.046175022 0.050265253
0.44655854 0.047129352 0.050250929
0.44655168 0.048083674 0.050236601
0.44654483 0.049038 0.050222274
0.30536148 0.34940353 -0.028385844
0.44478601 0.0021752336 0.048738983
0.4447791 0.0031343387 0.048724584
0.44477221 0.004093444 0.048710186
0.4447653 0.0050525498 0.048695788
0.44565421 0.006036554 0.049160343
0.4447515 0.0069707609 0.048666991
0.44474462 0.0079298671 0.048652593
0.44563353 0.0089090914 0.049117219
0.44562665 0.0098666037 0.049102847
0.44561976 0.010824116 0.049088471
0.44561285 0.011781628 0.049074098
0.44560596 0.012739141 0.049059723
0.44649491 0.013708806 0.049524467
0.44648802 0.014664724 0.049510118
0.44648117 0.015620643 0.049495768
0.44647428 0.016576562 0.049481418
0.44557151 0.017526703 0.048987851
0.44556463 0.018484214 0.048973478
0.44555774 0.019441728 0.048959102
0.44555086 0.020399241 0.04894473
0.44554397 0.021356752 0.048930354
0.44553709 0.022314265 0.048915979
0.44642612 0.023267997 0.049380966
0.44641927 0.024223916 0.049366616
0.44641238 0.025179835 0.049352262
0.4464055 0.026135754 0.049337912
0.44639862 0.027091675 0.049323563
0.44639173 0.028047593 0.049309213
0.44638488 0.029003512 0.049294863
0.447274 0.029944498 0.049760036
0.44726714 0.030898826 0.049745712
0.44726029 0.031853154 0.049731385
0.44725341 0.032807477 0.049717057
0.44724655 0.033761803 0.049702734
0.44723967 0.034716129 0.049688406
0.44723281 0.035670456 0.049674079
0.44722596 0.036624782 0.049659751
0.44721907 0.037579108 0.049645428
0.44721222 0.038533434 0.0496311
0.44720533 0.039487761 0.049616773
0.44719848 0.040442087 0.049602445
0.44719163 0.041396413 0.049588121
0.44718474 0.042350736 0.049573794
0.44717789 0.043305065 0.049559467
0.447171 0.044259388 0.049545143
0.44716415 0.045213718 0.049530815
0.44715729 0.04616804 0.049516488
0.44715041 0.04712237 0.04950216
0.44714355 0.048076693 0.049487837
0.44624043 0.049077816 0.048993506
0.30700555 0.34895924 -0.028842524
0.44538084 0.0021682165 0.04798647
0.44537392 0.0031273216 0.047972072
0.44536704 0.0040864269 0.047957674
0.44536012 0.0050455327 0.047943275
0.44624802 0.0060295491 0.048409086
0.44624114 0.0069870614 0.048394714
0.44623426 0.0079445736 0.048380338
0.44622737 0.0089020869 0.048365965
0.44711527 0.0098781353 0.048831865
0.44710839 0.010834054 0.048817515
0.4471015 0.011789973 0.048803162
0.44709462 0.012745893 0.048788812
0.44708776 0.013701811 0.048774462
0.44708088 0.014657731 0.048760112
0.447074 0.01561365 0.048745763
0.44706711 0.01656957 0.048731413
0.44706026 0.017525489 0.048717063
0.44705337 0.018481407 0.048702709
0.44704649 0.019437328 0.04868836
0.4470396 0.020393247 0.04867401
0.44703272 0.021349166 0.04865966
0.44702587 0.022305084 0.04864531
0.44701898 0.023261003 0.04863096
0.4470121 0.024216922 0.04861661
0.44700521 0.025172843 0.048602257
0.44699833 0.026128761 0.048587907
0.44788647 0.02707454 0.049054261
0.44787961 0.028028864 0.049039938
0.44787273 0.028983193 0.04902561
0.44786587 0.029937517 0.049011283
0.44785899 0.030891845 0.048996955
0.44785213 0.031846169 0.048982631
0.44784525 0.032800496 0.048968304
0.4478384 0.033754822 0.048953976
0.44872662 0.03468626 0.049420547
0.44871977 0.035638995 0.049406245
0.44871292 0.036591727 0.049391944
0.44870606 0.037544459 0.049377639
0.44780406 0.038526449 0.048882347
0.44779721 0.039480779 0.048868019
0.44779032 0.040435102 0.048853692
0.44778347 0.041389428 0.048839364
0.44777659 0.042343754 0.04882504
0.44776973 0.043298081 0.048810713
0.44776288 0.044252407 0.048796386
0.44775599 0.045206733 0.048782062
0.44774914 0.046161059 0.048767734
0.44774225 0.047115389 0.048753407
0.4477354 0.048069712 0.048739079
0.44772854 0.049024038 0.048724756
0.4468264 0.050026741 0.048229147
0.31044376 0.34764391 -0.028322507
0.44598255 0.0012020936 0.047248356
0.44597566 0.0021611997 0.047233958
0.44596875 0.0031203048 0.04721956
0.44596186 0.0040794099 0.047205161
0.44595495 0.0050385161 0.047190763
0.44684187 0.0060225436 0.047657818
0.44683498 0.0069800559 0.047643445
0.4468281 0.0079375682 0.04762907
0.44771498 0.0089152222 0.048096199
0.44770813 0.0098711411 0.048081849
0.44770125 0.010827061 0.048067495
0.44769436 0.01178298 0.048053145
0.44768748 0.012738899 0.048038796
0.44768059 0.013694818 0.048024446
0.44767374 0.014650737 0.048010096
0.44766685 0.015606657 0.047995746
0.44765997 0.016562575 0.047981396
0.44765308 0.017518494 0.047967043
0.44764623 0.018474413 0.047952693
0.44763935 0.019430334 0.047938343
0.44763246 0.020386253 0.047923993
0.44762558 0.021342171 0.047909644
0.44761869 0.02229809 0.047895294
0.44761184 0.023254011 0.04788094
0.44849893 0.024204578 0.048348475
0.44849205 0.025158906 0.048334148
0.4484852 0.026113231 0.048319824
0.44847834 0.027067557 0.048305497
0.44847146 0.028021883 0.048291169
0.4484646 0.028976209 0.048276845
0.44845772 0.029930534 0.048262518
0.44934493 0.030868361 0.048730243
0.44933808 0.031821094 0.048715942
0.44933122 0.032773826 0.048701636
0.44932437 0.033726558 0.048687335
0.44931751 0.03467929 0.048673034
0.44931063 0.035632025 0.048658729
0.44930378 0.036584757 0.048644427
0.44929692 0.037537489 0.048630126
0.44929007 0.038490221 0.048615821
0.44928321 0.039442956 0.048601519
0.4483822 0.040428121 0.048104927
0.44837531 0.041382447 0.048090599
0.44836846 0.042336773 0.048076272
0.44836161 0.043291099 0.048061948
0.44835472 0.044245426 0.048047621
0.44834787 0.045199752 0.048033293
0.44834098 0.046154078 0.048018966
0.44833413 0.047108404 0.048004642
0.44743299 0.048107907 0.047507834
0.44742611 0.049063828 0.04749348
0.44741926 0.050019745 0.04747913
0.31117621 0.34883004 -0.029277965
0.44657737 0.0011950767 0.046495847
0.44657049 0.0021541829 0.046481449
0.44656357 0.003113288 0.046467051
0.44744948 0.0041005141 0.046935312
0.44744259 0.0050580259 0.046920937
0.44743571 0.0060155382 0.046906564
0.44742882 0.0069730505 0.046892188
0.44831473 0.0079523092 0.047360543
0.44830784 0.0089082289 0.047346193
0.44830096 0.0098641478 0.047331844
0.44829407 0.010820067 0.04731749
0.44828722 0.011775986 0.04730314
0.44917318 0.012745685 0.047771633
0.44916633 0.013700011 0.047757305
0.44915944 0.014654337 0.047742981
0.44915259 0.015608664 0.047728654
0.4491457 0.016562989 0.047714327
0.44913885 0.017517315 0.047699999
0.44823906 0.018467421 0.047202688
0.44823217 0.01942334 0.047188338
0.44822529 0.020379258 0.047173988
0.44821844 0.021335179 0.047159638
0.44821155 0.022291098 0.047145288
0.44909766 0.023243271 0.047614042
0.44909078 0.024197597 0.047599714
0.44908392 0.025151923 0.047585391
0.44907704 0.02610625 0.047571063
0.44907019 0.027060576 0.047556736
0.44906333 0.028014902 0.047542408
0.44905645 0.028969228 0.047528084
0.44994265 0.029908657 0.047997035
0.44993579 0.030861391 0.047982734
0.44992894 0.031814121 0.047968429
0.44992208 0.032766856 0.047954127
0.44991523 0.033719588 0.047939826
0.44990838 0.03467232 0.047925524
0.44990152 0.035625055 0.047911219
0.44989467 0.036577787 0.047896918
0.44988781 0.037530519 0.047882617
0.44988096 0.038483251 0.047868311
0.4498741 0.039435986 0.04785401
0.44897404 0.040421139 0.047356166
0.44896719 0.041375466 0.047341838
0.44896033 0.042329792 0.047327511
0.44895345 0.043284118 0.047313187
0.4489466 0.044238444 0.04729886
0.44804648 0.04523316 0.046800878
0.44893286 0.046147097 0.047270209
0.44803271 0.047144998 0.046772178
0.44802585 0.048100915 0.046757828
0.44801897 0.049056835 0.046743475
0.44801208 0.050012752 0.046729125
0.31460562 0.34751001 -0.028746605
0.44539568 0.00015994818 0.044790164
0.44628048 0.0011551498 0.045259524
0.44627357 0.0021158492 0.0452451
0.44626665 0.0030765475 0.045230679
0.44715151 0.0040653762 0.04570014
0.44803643 0.005051021 0.046169676
0.44802955 0.0060085333 0.0461553
0.44802263 0.0069660456 0.046140928
0.44801575 0.0079235574 0.046126552
0.4489007 0.0089012347 0.046596177
0.44889382 0.0098571545 0.046581823
0.44888693 0.010813073 0.046567474
0.44888005 0.011768992 0.046553124
0.44976506 0.012738704 0.047022872
0.44975817 0.013693029 0.047008548
0.44975132 0.014647355 0.04699422
0.44974443 0.015601682 0.046979893
0.44973758 0.016556008 0.046965566
0.4488388 0.017504508 0.046467021
0.44883192 0.018460426 0.046452671
0.44882503 0.019416347 0.046438321
0.44881815 0.020372266 0.046423972
0.44881126 0.021328185 0.046409622
0.44880441 0.022284104 0.046395268
0.44968951 0.02323629 0.046865281
0.44968265 0.024190616 0.046850953
0.44967577 0.025144942 0.04683663
0.44966891 0.026099268 0.046822302
0.44966206 0.027053595 0.046807975
0.44965518 0.028007919 0.046793651
0.44964832 0.028962247 0.046779323
0.45053351 0.029901687 0.047249518
0.45052665 0.030854421 0.047235217
0.4505198 0.031807151 0.047220916
0.45051295 0.032759883 0.04720661
0.45050609 0.033712618 0.047192309
0.45049924 0.03466535 0.047178008
0.45049238 0.035618085 0.047163706
0.45048553 0.036570817 0.047149401
0.45047867 0.037523549 0.0471351
0.45047182 0.038476281 0.047120798
0.45046496 0.039429016 0.047106493
0.44956592 0.040414158 0.046607405
0.44955903 0.041368484 0.046593077
0.44955218 0.042322807 0.046578754
0.44954532 0.043277137 0.046564426
0.44864622 0.044270247 0.046065211
0.44863933 0.045226164 0.046050861
0.44863245 0.046182085 0.046036512
0.44862556 0.047138002 0.046022158
0.4477264 0.048139077 0.045522831
0.44771951 0.049096592 0.045508455
0.44682026 0.050102446 0.045009024
0.31711686 0.34900105 -0.028734276
0.44421795 -0.00088160002 0.043079577
0.44510174 0.000118394 0.043550115
0.44509479 0.001082278 0.043535646
0.44597861 0.0020774922 0.044006262
0.44686246 0.0030695191 0.044476923
0.44685555 0.0040302174 0.044462498
0.44684863 0.0049909167 0.044448078
0.44773251 0.0059765708 0.044918831
0.44772562 0.0069356766 0.044904433
0.44860959 0.0079165529 0.045375291
0.44860271 0.0088740652 0.045360915
0.44859582 0.0098315775 0.045346543
0.44947979 0.01080608 0.045817468
0.4494729 0.011761999 0.045803118
0.44946602 0.012717918 0.045788769
0.44945914 0.013673837 0.045774419
0.44945228 0.014629757 0.045760069
0.4494454 0.015585676 0.045745715
0.44943851 0.016541595 0.045731366
0.44943163 0.017497513 0.045717016
0.44942474 0.018453432 0.045702666
0.44941789 0.019409353 0.045688316
0.449411 0.020365272 0.045673966
0.44940412 0.021321192 0.045659617
0.44939724 0.022277109 0.045645263
0.44939035 0.02323303 0.045630913
0.4502745 0.024183633 0.046102196
0.45026764 0.025137961 0.046087869
0.45026076 0.026092285 0.046073541
0.4502539 0.027046612 0.046059214
0.45024705 0.028000938 0.04604489
0.45024016 0.028955264 0.046030562
0.45023331 0.029909588 0.046016235
0.45022643 0.030863917 0.046001911
0.45021957 0.031818245 0.045987584
0.45110384 0.032752912 0.046459101
0.45109698 0.033705644 0.0464448
0.45109013 0.03465838 0.046430498
0.45108327 0.035611115 0.046416193
0.45107642 0.036563847 0.046401892
0.45106956 0.037516579 0.04638759
0.45106268 0.038469311 0.046373289
0.45016465 0.039452851 0.045872971
0.45015776 0.040407177 0.045858644
0.45015091 0.041361503 0.045844316
0.45014405 0.042315826 0.045829993
0.44924593 0.043307334 0.045329556
0.44923905 0.044263255 0.045315206
0.44923216 0.045219172 0.045300856
0.44833401 0.046217047 0.044800319
0.44832712 0.047174562 0.044785943
0.44742888 0.04817722 0.044285309
0.44742197 0.049136326 0.04427091
0.44652376 0.050143763 0.043770235
0.44305116 -0.0028982335 0.041378595
0.4439339 -0.0018918557 0.041850295
0.44392696 -0.0009247851 0.041835774
0.44480979 7.6815566e-05 0.042307567
0.4456926 0.0010752261 0.042779386
0.44568565 0.0020391122 0.042764917
0.44567871 0.003002997 0.042750448
0.44656157 0.0039950353 0.043222357
0.44655466 0.0049573276 0.04320791
0.44743752 0.0059445868 0.043679889
0.44743061 0.0069052856 0.043665469
0.44831353 0.0078877648 0.044137523
0.44830665 0.0088468716 0.044123124
0.44918966 0.0098245721 0.044595279
0.44918275 0.010782084 0.044580907
0.45006576 0.011755005 0.045053102
0.45005888 0.012710924 0.045038752
0.45005199 0.013666844 0.045024402
0.45004511 0.014622763 0.045010049
0.45003825 0.015578682 0.044995699
0.45003137 0.0165346 0.044981349
0.45002449 0.017490521 0.044966999
0.4500176 0.01844644 0.04495265
0.45001072 0.019402359 0.0449383
0.45000386 0.020358277 0.04492395
0.44999698 0.021314198 0.044909596
0.44999009 0.022270117 0.044895247
0.44998321 0.023226036 0.044880897
0.44997633 0.024181955 0.044866547
0.44996947 0.025137873 0.044852197
0.45085263 0.026085304 0.045324776
0.45084578 0.02703963 0.045310449
0.45083889 0.027993955 0.045296121
0.45083204 0.028948283 0.045281798
0.45082515 0.029902607 0.04526747
0.4508183 0.030856935 0.045253143
0.45081145 0.03181126 0.045238815
0.45080456 0.032765586 0.045224492
0.45079771 0.033719912 0.045210164
0.45168099 0.03465141 0.045682989
0.45167413 0.035604145 0.045668684
0.45166728 0.036556877 0.045654383
0.45077023 0.037537213 0.045152858
0.45076337 0.03849154 0.04513853
0.45075649 0.03944587 0.045124207
0.45074964 0.040400192 0.045109879
0.45074278 0.041354518 0.045095552
0.44984564 0.042344417 0.044593889
0.44983879 0.043300338 0.044579539
0.4498319 0.044256259 0.04456519
0.44893473 0.045252528 0.04406343
0.44892785 0.046210043 0.044049054
0.44892097 0.047167558 0.044034682
0.44802371 0.048170201 0.043532796
0.44712648 0.049176037 0.043030895
0.44622922 0.050185051 0.042528946
0.44622231 0.051147345 0.042514499
0.44277018 -0.0039148955 0.040145684
0.44365191 -0.0029053204 0.04061858
0.44364494 -0.0019366556 0.04060404
0.44363797 -0.0009679909 0.040589496
0.44451976 3.5212084e-05 0.041062489
0.44451281 0.0010022835 0.041047972
0.44539467 0.0020007086 0.041521069
0.44538772 0.0029661867 0.041506574
0.44626957 0.0039598299 0.041979712
0.44626263 0.0049237157 0.041965242
0.44714454 0.0059125796 0.042438447
0.44802645 0.006898257 0.042911705
0.44801953 0.0078589562 0.042897284
0.44890147 0.008839854 0.043370612
0.44889456 0.0097989598 0.043356214
0.44977659 0.010775079 0.043829639
0.44976971 0.011732592 0.043815263
0.44976282 0.012690105 0.04380089
0.45064485 0.01365985 0.04427439
0.45063797 0.014615769 0.04426004
0.45063108 0.015571688 0.04424569
0.4506242 0.016527608 0.04423134
0.45061734 0.017483527 0.044216987
0.45061046 0.018439446 0.044202637
0.45060357 0.019395366 0.044188287
0.45059669 0.020351285 0.044173937
0.45058981 0.021307204 0.044159587
0.45058295 0.022263123 0.044145238
0.45057607 0.023219042 0.044130884
0.45056918 0.02417496 0.044116534
0.4505623 0.025130881 0.044102184
0.45055541 0.0260868 0.044087835
0.45054856 0.02704272 0.044073485
0.45143077 0.027986974 0.04454736
0.45142388 0.0289413 0.044533037
0.45141703 0.029895624 0.044518709
0.45141014 0.030849952 0.044504382
0.45140329 0.031804278 0.044490058
0.45139644 0.032758605 0.044475731
0.45138955 0.033712931 0.044461403
0.4513827 0.034667253 0.044447076
0.45137581 0.035621583 0.044432752
0.45136896 0.03657591 0.044418424
0.4513621 0.037530232 0.044404097
0.45135522 0.038484558 0.044389769
0.45134836 0.039438888 0.044375446
0.45134148 0.040393211 0.044361118
0.45044538 0.041381508 0.04385823
0.4504385 0.042337425 0.043843877
0.45043162 0.043293346 0.043829527
0.44953546 0.044288013 0.043326538
0.44952857 0.045245524 0.043312162
0.44952169 0.046203036 0.04329779
0.44862542 0.047204081 0.042794682
0.44861853 0.048163187 0.042780284
0.44772229 0.049169008 0.042277131
0.44682604 0.05017801 0.04177393
0.44592974 0.051190205 0.041270684
0.44503343 0.052205585 0.040767387
0.44337192 -0.003921994 0.039384428
0.44336492 -0.0029517368 0.039369863
0.4442457 -0.0019437425 0.039844032
0.44423872 -0.00097507768 0.039829493
0.44423175 -6.4128972e-06 0.039814949
0.44511256 0.00099520839 0.040289212
0.44510561 0.0019622799 0.040274695
0.44598651 0.0029591231 0.040749066
0.44597957 0.0039246012 0.04073457
0.44686043 0.0049166637 0.041208982
0.44685349 0.0058805486 0.041194513
0.44773442 0.0068678316 0.041668996
0.44772747 0.0078301234 0.04165455
0.44860843 0.0088126268 0.042129103
0.44860151 0.0097733252 0.042114682
0.4494825 0.010751049 0.042589307
0.44947559 0.011710154 0.042574909
0.45035666 0.012683099 0.043049634
0.45034978 0.013640611 0.043035258
0.45034286 0.014598124 0.043020885
0.45033598 0.015555636 0.04300651
0.4503291 0.016513148 0.042992134
0.45032221 0.017470662 0.042977761
0.45031533 0.018428173 0.042963386
0.45030844 0.019385686 0.042949013
0.45030153 0.020343199 0.042934638
0.45029464 0.021300711 0.042920265
0.45028776 0.022258222 0.042905889
0.45116892 0.023212049 0.043380875
0.45116204 0.024167968 0.043366525
0.45115516 0.025123887 0.043352176
0.45114827 0.026079806 0.043337822
0.45114139 0.027035726 0.043323472
0.45113453 0.027991645 0.043309122
0.45112765 0.028947564 0.043294773
0.45112076 0.029903483 0.043280423
0.45111388 0.030859403 0.043266073
0.451107 0.03181532 0.043251719
0.45198828 0.032751624 0.04372697
0.45198143 0.03370595 0.043712642
0.45197454 0.034660272 0.043698315
0.45196769 0.035614602 0.043683991
0.45196083 0.036568929 0.043669663
0.45195395 0.037523251 0.043655336
0.45194709 0.038477577 0.043641012
0.45194021 0.039431907 0.043626685
0.4510451 0.040418595 0.043122567
0.45103824 0.041374512 0.043108217
0.45103136 0.042330433 0.043093868
0.45013618 0.043323494 0.042589653
0.4501293 0.04428101 0.042575281
0.45012242 0.045238517 0.042560905
0.44922715 0.046237957 0.042056572
0.44922024 0.047197066 0.042042173
0.44832501 0.048201278 0.041537795
0.44742975 0.049208678 0.041033369
0.44653445 0.050219268 0.040528893
0.44563916 0.051233042 0.04002437
0.44563222 0.052198522 0.040009875
0.44473681 0.053217076 0.039505251
0.44295305 0.054293483 0.03851049
0.44309393 -0.0049418774 0.038147807
0.44397366 -0.0039290925 0.038623158
0.44396669 -0.0029588356 0.038608592
0.44395968 -0.0019885765 0.038594026
0.44483948 -0.00098216464 0.039069474
0.4448325 -1.3499804e-05 0.039054934
0.44482553 0.00095516496 0.03904039
0.44481856 0.0019238298 0.039025851
0.44569841 0.0029222763 0.039501414
0.44569147 0.0038893477 0.039486896
0.44657138 0.004883016 0.03996256
0.44656444 0.0058484948 0.039948069
0.44744435 0.006837382 0.040423777
0.44743741 0.0078012669 0.040409308
0.44831735 0.0087853754 0.040885087
0.44919732 0.0097662965 0.041360918
0.44919041 0.010726996 0.041346494
0.44918349 0.011687694 0.041332074
0.45006353 0.012662243 0.041807991
0.45005661 0.013621349 0.041793592
0.4500497 0.014580455 0.041779194
0.45004281 0.01553956 0.041764796
0.45092294 0.016506143 0.042240873
0.45091605 0.017463656 0.042226497
0.45090917 0.018421168 0.042212125
0.45090225 0.019378681 0.042197749
0.45089537 0.020336194 0.042183377
0.45088848 0.021293705 0.042169001
0.4508816 0.022251217 0.042154629
0.45087472 0.02320873 0.042140253
0.4508678 0.024166241 0.042125877
0.45086092 0.025123755 0.042111505
0.45174113 0.026072811 0.042587813
0.45173424 0.027028732 0.042573463
0.45172736 0.027984651 0.04255911
0.45172048 0.02894057 0.04254476
0.45171362 0.029896488 0.04253041
0.45170674 0.030852409 0.04251606
0.45169985 0.031808328 0.04250171
0.45169297 0.032764249 0.042487361
0.45168608 0.033720165 0.042473011
0.45167923 0.034676082 0.042458657
0.45167235 0.035632003 0.042444307
0.45166546 0.036587924 0.042429958
0.45165858 0.037543844 0.042415608
0.45165172 0.038499761 0.042401258
0.45164484 0.039455682 0.042386908
0.45163795 0.040411603 0.042372558
0.45163107 0.04136752 0.042358205
0.45073691 0.042358976 0.041852769
0.45073003 0.043316491 0.041838393
0.45072314 0.044274002 0.041824017
0.44982889 0.045271832 0.041318454
0.44982198 0.046230942 0.041304056
0.44892773 0.047233552 0.040798455
0.44803348 0.048239347 0.040292799
0.4471392 0.04924833 0.039787099
0.4462449 0.050260499 0.03928135
0.4453505 0.051275857 0.038775526
0.44534352 0.052242931 0.038761009
0.44444919 0.053263064 0.038255136
0.44355479 0.054286387 0.03774922
0.44370365 -0.005920839 0.037399888
0.44369665 -0.0049489876 0.0373853
0.4445754 -0.0039361911 0.037861902
0.44456843 -0.0029659339 0.037847336
0.44456142 -0.001995675 0.03783277
0.44455445 -0.0010254178 0.037818205
0.44454747 -5.5158845e-05 0.037803639
0.4445405 0.0009150983 0.037789073
0.44541931 0.001916743 0.038265843
0.44541234 0.0028854078 0.038251299
0.44540536 0.0038540724 0.03823676
0.44628426 0.004849344 0.038713619
0.44627729 0.0058164154 0.038699102
0.44715625 0.0068069096 0.039176069
0.44803521 0.0077942153 0.039653048
0.44802827 0.0087581007 0.039638579
0.44890723 0.0097406274 0.040115632
0.44890031 0.010702919 0.040101185
0.4497793 0.011680665 0.040578317
0.44977239 0.012641365 0.040563893
0.44976547 0.013602063 0.040549472
0.45064452 0.014573437 0.041026689
0.45063764 0.015532543 0.041012291
0.45063072 0.016491648 0.040997893
0.45062384 0.017450754 0.040983494
0.45061693 0.018409859 0.040969096
0.45061004 0.019368965 0.040954698
0.45060313 0.020328071 0.0409403
0.45059621 0.021287177 0.040925901
0.45058933 0.022246283 0.040911503
0.45146853 0.023201725 0.041388992
0.45146164 0.024159238 0.041374616
0.45145476 0.025116749 0.041360244
0.45144787 0.026074262 0.041345868
0.45144099 0.027031774 0.041331492
0.45143411 0.027989287 0.04131712
0.45142719 0.028946798 0.041302744
0.45142031 0.029904312 0.041288372
0.45141342 0.030861825 0.041273996
0.45140654 0.031819336 0.041259624
0.45139965 0.032776847 0.041245248
0.45139277 0.033734363 0.041230872
0.45227206 0.03466909 0.041708648
0.4522652 0.035625011 0.041694298
0.45225832 0.036580931 0.041679949
0.45225143 0.037536848 0.041665595
0.45224455 0.038492769 0.041651245
0.45223767 0.03944869 0.041636895
0.45134452 0.040436946 0.041130252
0.45133764 0.041394461 0.04111588
0.45133075 0.042351972 0.041101504
0.45132387 0.043309487 0.041087132
0.4504306 0.044305716 0.040580343
0.45042369 0.045264818 0.040565945
0.44953045 0.046265822 0.040059119
0.44952354 0.047226522 0.040044695
0.44863027 0.048232306 0.039537791
0.44773698 0.049241278 0.039030839
0.44684365 0.050253436 0.038523845
0.44595027 0.051268782 0.038016763
0.4459433 0.052235857 0.038002245
0.44504991 0.053255975 0.037495133
0.44415653 0.054279286 0.036987964
0.44414955 0.055249542 0.036973398
0.44430637 -0.0059279492 0.036637377
0.44429937 -0.0049560978 0.036622785
0.4442924 -0.0039842464 0.036608197
0.44428539 -0.0030123962 0.036593609
0.44427839 -0.0020405448 0.036579017
0.44515619 -0.0010325164 0.037056942
0.44514921 -6.2257357e-05 0.037042376
0.44514224 0.00090799975 0.03702781
0.44513524 0.0018782578 0.037013244
0.44512826 0.0028485158 0.036998678
0.44600615 0.0038469855 0.037476741
0.44599918 0.0048156502 0.037462201
0.44687706 0.0058093402 0.037940338
0.44687012 0.0067764125 0.037925821
0.44774809 0.0077653243 0.038404059
0.44774115 0.0087308027 0.038389564
0.44861913 0.009714934 0.038867842
0.4494971 0.010695878 0.039346173
0.44949019 0.01165817 0.039331727
0.44948325 0.012620463 0.03931728
0.45036131 0.013595034 0.0397957
0.4503544 0.014555734 0.03978128
0.45034748 0.015516433 0.039766856
0.45034057 0.016477132 0.039752435
0.45033365 0.017437831 0.039738014
0.45032674 0.018398529 0.03972359
0.45120487 0.019361949 0.040202186
0.45119795 0.020321054 0.040187787
0.45119104 0.02128016 0.040173389
0.45118415 0.022239266 0.040158991
0.45117724 0.023198372 0.040144593
0.45117036 0.024157478 0.040130194
0.45116344 0.025116583 0.040115796
0.45115656 0.026075687 0.040101398
0.45114964 0.027034795 0.040087
0.45114276 0.027993899 0.040072601
0.45113584 0.028953005 0.040058203
0.45201415 0.029897306 0.040537108
0.45200726 0.030854819 0.040522736
0.45200038 0.031812333 0.04050836
0.4519935 0.032769844 0.040493988
0.45198658 0.033727355 0.040479612
0.4519797 0.034684867 0.040465236
0.45197281 0.035642382 0.040450864
0.45196593 0.036599893 0.040436488
0.45195904 0.037557404 0.040422115
0.45195216 0.038514916 0.04040774
0.45194525 0.039472431 0.040393367
0.45193836 0.040429942 0.040378992
0.45193148 0.041387454 0.040364616
0.45103922 0.042380482 0.039856628
0.45103234 0.043339591 0.039842229
0.45102543 0.044298697 0.039827831
0.45101851 0.045257799 0.039813433
0.45012629 0.046258792 0.039305348
0.44923401 0.047262974 0.038797222
0.4483417 0.048270341 0.038289044
0.44744939 0.049280893 0.037780821
0.44744244 0.050246369 0.037766326
0.44655001 0.051261708 0.037258003
0.44654307 0.052228782 0.037243485
0.44565067 0.05324889 0.036735114
0.44475827 0.05427219 0.036226701
0.44475129 0.055242445 0.036212135
0.4449091 -0.0059350594 0.03587487
0.44490209 -0.004963208 0.035860278
0.44489512 -0.0039913566 0.035845689
0.44488811 -0.0030195063 0.035831101
0.44576493 -0.0020098719 0.036310244
0.44487414 -0.0010758046 0.035801921
0.44575095 -6.9355876e-05 0.036281113
0.44574398 0.00090090127 0.036266547
0.44573697 0.0018711593 0.036251985
0.44573 0.0028414174 0.036237419
0.44660687 0.0038398989 0.036716737
0.4465999 0.0048085637 0.036702193
0.44659296 0.0057772282 0.036687654
0.44746986 0.0067693372 0.037167061
0.44746292 0.0077364086 0.037152544
0.44833991 0.0087237395 0.037632056
0.44833297 0.0096892174 0.03761756
0.44920996 0.010671767 0.038097117
0.44920301 0.011635653 0.038082648
0.45008007 0.012613422 0.038562272
0.45007312 0.013575715 0.038547825
0.45006621 0.014538007 0.038533378
0.45005929 0.015500299 0.038518935
0.45093638 0.016470103 0.038998678
0.45092946 0.017430801 0.038984254
0.45092255 0.018391499 0.038969833
0.45091563 0.0193522 0.038955409
0.45090872 0.020312898 0.038940988
0.45090181 0.021273598 0.038926568
0.45089489 0.022234296 0.038912144
0.45088798 0.023194995 0.038897723
0.45088106 0.024155693 0.038883299
0.45087415 0.025116393 0.038868878
0.45086724 0.02607709 0.038854457
0.45174447 0.027027776 0.039334491
0.45173755 0.027986882 0.039320093
0.45173067 0.028945988 0.039305694
0.45172375 0.029905094 0.039291296
0.45171687 0.030864201 0.039276898
0.45170996 0.031823307 0.0392625
0.45170307 0.032782409 0.039248101
0.45169616 0.033741515 0.039233703
0.45168924 0.034700621 0.039219305
0.45168236 0.035659727 0.039204907
0.45167544 0.036618832 0.039190508
0.45166856 0.037577938 0.03917611
0.45166165 0.038537044 0.039161712
0.45165476 0.03949615 0.039147314
0.45164785 0.040455256 0.039132915
0.45164096 0.041414361 0.039118517
0.45163405 0.042373467 0.039104119
0.45162714 0.043332573 0.039089721
0.4507359 0.04433037 0.038580436
0.45072898 0.045291066 0.038566012
0.4507221 0.046251766 0.038551591
0.4498308 0.047255933 0.038042214
0.44893947 0.048263289 0.037532788
0.44804814 0.04927383 0.03702331
0.4480412 0.050239306 0.037008818
0.44714978 0.05125463 0.036499243
0.44714284 0.052221704 0.036484726
0.44625142 0.053241804 0.03597511
0.44536 0.054265089 0.035465438
0.44535303 0.055235345 0.035450872
0.44551182 -0.0059421696 0.035112355
0.44638759 -0.0049277456 0.035592679
0.44549784 -0.0039984668 0.035083175
0.44549084 -0.0030266165 0.035068586
0.44548386 -0.0020547651 0.035053998
0.44635966 -0.0010467133 0.035534415
0.44635269 -7.6454387e-05 0.035519853
0.44634572 0.00089380273 0.035505287
0.44633874 0.0018640608 0.035490721
0.44633174 0.0028343189 0.035476156
0.44720763 0.003832812 0.035956718
0.44720066 0.0048014768 0.035942178
0.44719371 0.0057701413 0.035927635
0.44806963 0.006762262 0.036408294
0.44806269 0.0077293334 0.036393777
0.4489387 0.0087166755 0.03687454
0.44893175 0.0096821543 0.036860045
0.44980776 0.010664715 0.037340853
0.44980082 0.011628601 0.037326384
0.44979388 0.012592486 0.037311912
0.45066994 0.013568674 0.037792813
0.450663 0.014530966 0.037778366
0.45065609 0.015493258 0.03776392
0.45064917 0.01645555 0.037749473
0.45064223 0.017417843 0.037735026
0.45063531 0.018380133 0.03772058
0.4506284 0.019342426 0.037706137
0.45062146 0.020304719 0.03769169
0.45061454 0.02126701 0.037677243
0.45060763 0.022229303 0.037662797
0.45148379 0.023187967 0.038143959
0.45147687 0.024148665 0.038129538
0.45146996 0.025109364 0.038115114
0.45146307 0.026070062 0.038100693
0.45145616 0.027030762 0.038086269
0.45144925 0.027991459 0.038071848
0.45144233 0.028952159 0.038057424
0.45143542 0.029912857 0.038043004
0.4514285 0.030873558 0.038028583
0.45142159 0.031834256 0.038014159
0.45141467 0.032794956 0.037999738
0.45229098 0.0337345 0.038481187
0.4522841 0.034693602 0.038466789
0.45227718 0.035652712 0.038452391
0.45227027 0.036611818 0.038437992
0.45226339 0.03757092 0.038423594
0.45225647 0.038530026 0.038409196
0.45224959 0.039489135 0.038394798
0.45224267 0.040448237 0.038380399
0.45223579 0.041407343 0.038366001
0.45222887 0.042366449 0.038351603
0.45133865 0.04336264 0.037841093
0.45133173 0.04432334 0.037826672
0.45132482 0.04528404 0.037812248
0.45043454 0.046286602 0.037301645
0.45042759 0.047248892 0.037287198
0.44953728 0.048256237 0.036776524
0.44864693 0.049266767 0.036265794
0.44863999 0.050232243 0.036251303
0.44774956 0.051247556 0.035740476
0.44774261 0.05221463 0.035725959
0.44685218 0.053234715 0.035215091
0.4468452 0.05420338 0.035200547
0.44595477 0.055228248 0.034689609
0.44699633 -0.0059051011 0.034845982
0.44698933 -0.0049348441 0.034831416
0.44698235 -0.0039645853 0.03481685
0.44697538 -0.002994328 0.034802284
0.44696841 -0.002024069 0.034787718
0.4469614 -0.0010538119 0.034773156
0.44695443 -8.3552906e-05 0.03475859
0.44694746 0.00088670419 0.034744024
0.44694048 0.0018569622 0.034729458
0.44781536 0.0028570602 0.035211246
0.44780838 0.0038257251 0.035196707
0.44780141 0.0047943899 0.035182163
0.44779447 0.0057630548 0.035167623
0.4486694 0.0067551867 0.035649534
0.44866243 0.0077222581 0.035635017
0.44865549 0.00868933 0.035620496
0.44953054 0.0096750911 0.036102533
0.44952357 0.010640569 0.036088042
0.44951662 0.011606047 0.036073547
0.45039168 0.012585434 0.036555648
0.45038474 0.013549319 0.036541179
0.45037779 0.014513204 0.036526706
0.45037088 0.015477089 0.036512237
0.45036393 0.016440975 0.036497768
0.45035699 0.01740486 0.036483299
0.45123211 0.018373094 0.036965568
0.45122519 0.019335387 0.036951121
0.45121828 0.020297678 0.036936674
0.45121133 0.021259971 0.036922228
0.45120442 0.022222262 0.036907781
0.4511975 0.023184555 0.036893338
0.45119056 0.024146846 0.036878891
0.45118365 0.025109138 0.036864445
0.45117673 0.026071429 0.036849998
0.45116979 0.027033722 0.036835551
0.45116287 0.027996015 0.036821105
0.45115596 0.028958306 0.036806662
0.45203122 0.02990583 0.037289239
0.45202431 0.03086653 0.037274819
0.4520174 0.03182723 0.037260395
0.45201048 0.032787926 0.037245974
0.45200357 0.033748623 0.037231553
0.45199665 0.034709323 0.037217129
0.45198974 0.035670023 0.037202708
0.45198283 0.03663072 0.037188284
0.45197591 0.03759142 0.037173864
0.451969 0.038552117 0.037159439
0.45196208 0.039512817 0.037145019
0.4519552 0.040473517 0.037130598
0.45194829 0.041434214 0.037116174
0.45194137 0.042394914 0.037101753
0.45193446 0.043355614 0.037087329
0.45192754 0.044316314 0.037072908
0.45103824 0.04531727 0.036561076
0.45103133 0.046279561 0.036546633
0.450142 0.047285303 0.036034729
0.45013505 0.048249185 0.03602026
0.44924572 0.049259704 0.035508286
0.44923875 0.05022518 0.035493791
0.44834933 0.051240481 0.034981713
0.44834235 0.052207556 0.034967195
0.44745293 0.05322763 0.03445508
0.44744596 0.054196294 0.034440536
0.44743899 0.055164959 0.034425996
0.44654953 0.056191411 0.03391378
0.44759807 -0.0059121996 0.034084719
0.44759107 -0.0049419426 0.034070153
0.44758409 -0.0039716838 0.034055587
0.44757712 -0.0030014266 0.034041025
0.44757015 -0.0020311675 0.034026459
0.44756314 -0.0010609104 0.034011893
0.44755617 -9.0651418e-05 0.033997327
0.44754919 0.00087960571 0.033982761
0.44842309 0.0018813086 0.034465779
0.44841611 0.0028499735 0.034451235
0.44840914 0.0038186382 0.034436695
0.44840217 0.004787303 0.034422152
0.44839519 0.0057559679 0.034407612
0.44926918 0.0067481115 0.034890771
0.4492622 0.0077151828 0.034876253
0.44925526 0.0086822547 0.034861736
0.44924828 0.0096493261 0.034847219
0.45012236 0.010633505 0.03533053
0.45011541 0.011598984 0.035316035
0.45010847 0.012564462 0.035301544
0.45010152 0.013529941 0.035287049
0.4509756 0.014506153 0.03577045
0.45096865 0.015470037 0.035755977
0.45096171 0.016433923 0.035741508
0.45095479 0.017397808 0.035727039
0.45094785 0.018361693 0.03571257
0.45094091 0.019325579 0.035698097
0.45093396 0.020289464 0.035683628
0.45092705 0.021253349 0.035669159
0.4509201 0.022217235 0.03565469
0.45091316 0.023181118 0.035640217
0.45090625 0.024145003 0.035625748
0.45178044 0.025102098 0.036109436
0.45177352 0.02606439 0.03609499
0.45176661 0.027026683 0.036080543
0.45175967 0.027988974 0.036066096
0.45175275 0.028951265 0.036051653
0.45174584 0.029913558 0.036037207
0.45173889 0.03087585 0.03602276
0.45173198 0.031838141 0.036008313
0.45172507 0.032800436 0.035993867
0.45171812 0.033762727 0.03597942
0.45171121 0.034725018 0.035964977
0.45170429 0.035687312 0.03595053
0.45169735 0.036649603 0.035936084
0.45257172 0.03758439 0.036420107
0.45256481 0.038545091 0.036405683
0.45255792 0.039505787 0.036391262
0.45255101 0.040466487 0.036376838
0.45254409 0.041427188 0.036362417
0.45165581 0.042423353 0.035849407
0.45164889 0.043385647 0.035834961
0.45164198 0.044347938 0.035820514
0.45163503 0.045310229 0.035806067
0.45162812 0.04627252 0.035791624
0.4507398 0.047278251 0.035278469
0.45073286 0.048242133 0.035264
0.44984448 0.04925264 0.034750775
0.44983754 0.050218116 0.034736279
0.44894907 0.051233407 0.034222953
0.44894212 0.052200481 0.034208436
0.44893515 0.053167552 0.034193918
0.44804671 0.054189205 0.033680525
0.44803974 0.05515787 0.033665985
0.44803277 0.056126539 0.033651441
0.44819981 -0.0059192982 0.033323456
0.44819283 -0.0049490412 0.033308893
0.44818583 -0.0039787823 0.033294328
0.44905868 -0.002969102 0.033778474
0.44905171 -0.0020004374 0.033763934
0.44816491 -0.0010680089 0.03325063
0.44815791 -9.7749937e-05 0.033236064
0.44903082 0.00090555701 0.033720307
0.44902384 0.0018742218 0.033705767
0.44901687 0.0028428866 0.033691224
0.4490099 0.0038115513 0.033676684
0.44900292 0.0047802161 0.03366214
0.44987589 0.0057739643 0.034146529
0.44986892 0.0067410362 0.034132011
0.44986197 0.0077081081 0.034117494
0.449855 0.0086751794 0.034102976
0.44984806 0.0096422518 0.034088459
0.45072114 0.010626442 0.034573015
0.4507142 0.011591921 0.03455852
0.45070726 0.012557399 0.034544025
0.45070028 0.013522877 0.034529533
0.45069334 0.014488355 0.034515038
0.4506864 0.015453834 0.034500543
0.45067945 0.016419312 0.034486052
0.45067251 0.01738479 0.034471557
0.45066556 0.018350268 0.034457061
0.45153871 0.019318527 0.034941833
0.45153177 0.020282412 0.034927364
0.45152482 0.021246297 0.034912892
0.45151791 0.022210183 0.034898423
0.45151097 0.023174066 0.034883954
0.45150402 0.024137951 0.034869485
0.45149708 0.025101839 0.034855012
0.45149016 0.026065722 0.034840543
0.45148322 0.027029607 0.034826074
0.45147628 0.027993493 0.034811605
0.45146936 0.028957378 0.034797132
0.45146242 0.029921263 0.034782663
0.45145547 0.030885149 0.034768194
0.45144853 0.031849034 0.034753725
0.45232186 0.032793395 0.035238855
0.45231494 0.033755686 0.035224408
0.452308 0.034717977 0.035209961
0.45230108 0.035680272 0.035195515
0.45229417 0.036642563 0.035181068
0.45228723 0.037604854 0.035166621
0.45228031 0.038567144 0.035152178
0.4522734 0.039529439 0.035137732
0.45226645 0.04049173 0.035123285
0.45225954 0.041454021 0.035108838
0.45225263 0.042416312 0.035094392
0.45224568 0.043378606 0.035079945
0.45223877 0.044340897 0.035065502
0.45223185 0.045303188 0.035051055
0.45134452 0.04630731 0.034536675
0.45133758 0.0472712 0.034522206
0.45045021 0.048280098 0.034007754
0.45044327 0.049245577 0.033993259
0.45043632 0.050211053 0.033978764
0.44954884 0.051226329 0.033464193
0.4495419 0.052193403 0.033449672
0.44953492 0.053160477 0.033435155
0.44864747 0.05418212 0.032920513
0.4486405 0.055150785 0.03290597
0.44863352 0.056119453 0.03289143
0.44862655 0.057088118 0.032876886
0.4496873 -0.006850848 0.033076636
0.44880155 -0.0059263967 0.0325622
0.44967338 -0.0049135187 0.033047553
0.44878757 -0.0039858804 0.032533068
0.4487806 -0.0030156234 0.032518502
0.44877362 -0.0020453646 0.032503936
0.44876662 -0.0010751074 0.032489371
0.44875965 -0.0001048484 0.032474808
0.44963154 0.00089847023 0.032960303
0.4496246 0.0018671349 0.03294576
0.44961762 0.0028357997 0.03293122
0.44961065 0.0038044646 0.032916676
0.44960368 0.0047731292 0.032902136
0.4495967 0.0057417941 0.032887593
0.45046869 0.0067339609 0.033373252
0.45046175 0.0077010328 0.03335873
0.45045477 0.0086681042 0.033344213
0.45044783 0.0096351765 0.033329695
0.45044085 0.010602248 0.033315178
0.45043391 0.011569319 0.033300661
0.45130602 0.012550335 0.03378652
0.45129907 0.013515813 0.033772029
0.45129213 0.014481292 0.033757534
0.45128518 0.01544677 0.033743039
0.45127824 0.016412249 0.033728547
0.45127127 0.017377727 0.033714052
0.45126432 0.018343205 0.033699557
0.45125738 0.019308684 0.033685066
0.45125043 0.020274162 0.033670571
0.45124349 0.02123964 0.033656076
0.45123655 0.022205118 0.033641584
0.4512296 0.023170598 0.033627089
0.45122266 0.024136076 0.033612594
0.45121571 0.025101554 0.033598103
0.45208794 0.02605867 0.034084283
0.45208099 0.027022555 0.034069814
0.45207408 0.027986441 0.034055345
0.45206714 0.028950326 0.034040876
0.45206019 0.029914211 0.034026403
0.45205328 0.030878097 0.034011934
0.45204633 0.031841982 0.033997465
0.45203939 0.032805867 0.033982996
0.45203245 0.033769753 0.033968523
0.45202553 0.034733638 0.033954054
0.45201859 0.035697524 0.033939585
0.45201164 0.036661409 0.033925116
0.45200473 0.037625294 0.033910643
0.45199779 0.038589176 0.033896174
0.45199084 0.039553065 0.033881705
0.4519839 0.04051695 0.033867236
0.45197698 0.041480832 0.033852763
0.45197004 0.042444717 0.033838294
0.4519631 0.043408606 0.033823825
0.45195618 0.044372488 0.033809356
0.45194924 0.045336373 0.033794884
0.45194229 0.046300258 0.033780415
0.45105591 0.047307558 0.033264741
0.45104897 0.048273034 0.033250246
0.45104203 0.049238514 0.033235755
0.45103508 0.05020399 0.03322126
0.45014861 0.051219255 0.03270543
0.45014164 0.052186329 0.032690912
0.45013469 0.053153399 0.032676395
0.45012772 0.05412047 0.032661878
0.44924125 0.055143699 0.032145966
0.44923428 0.056112368 0.032131422
0.4492273 0.057081033 0.032116883
0.44922033 0.058049697 0.032102339
0.45028108 -0.00588927 0.032302078
0.45027414 -0.0049206056 0.032287534
0.44938931 -0.0039929789 0.031771801
0.44938233 -0.003022722 0.031757236
0.44937536 -0.0020524631 0.03174267
0.44936839 -0.0010822059 0.031728104
0.44936138 -0.00011194697 0.031713538
0.44935441 0.00085831014 0.031698972
0.45022535 0.001860048 0.032185741
0.45021838 0.0028287128 0.032171201
0.45021141 0.0037973777 0.032156657
0.45020443 0.0047660423 0.032142118
0.45019746 0.0057347072 0.032127574
0.45019048 0.0067033721 0.032113034
0.45106149 0.0076939575 0.032599971
0.45105454 0.0086610299 0.032585453
0.45104757 0.0096281013 0.032570936
0.45104063 0.010595173 0.032556418
0.45103365 0.011562244 0.032541901
0.45102671 0.012529315 0.032527383
0.45101973 0.013496388 0.032512866
0.45101279 0.014463459 0.032498345
0.45100582 0.015430531 0.032483827
0.45099887 0.016397603 0.03246931
0.4509919 0.017364673 0.032454792
0.45098495 0.018331746 0.032440275
0.45097801 0.019298818 0.032425757
0.45097104 0.02026589 0.03241124
0.45184228 0.021232577 0.03289856
0.45183533 0.022198055 0.032884065
0.45182839 0.023163533 0.032869574
0.45182142 0.024129013 0.032855079
0.45181447 0.02509449 0.032840583
0.45180753 0.026059968 0.032826092
0.45180058 0.027025448 0.032811597
0.45179364 0.027990924 0.032797102
0.4517867 0.028956404 0.032782611
0.45177975 0.029921882 0.032768115
0.45177281 0.030887362 0.03275362
0.45176587 0.031852838 0.032739129
0.45175892 0.032818317 0.032724634
0.45175195 0.033783797 0.032710139
0.45262331 0.034726586 0.03319779
0.45261639 0.035690472 0.033183318
0.45260945 0.036654357 0.033168849
0.45260251 0.037618242 0.03315438
0.45259556 0.038582124 0.033139911
0.45258865 0.039546013 0.033125438
0.4525817 0.040509898 0.033110969
0.45257476 0.04147378 0.0330965
0.45256785 0.042437669 0.033082031
0.4525609 0.043401554 0.033067558
0.45167553 0.044404056 0.032550707
0.45166859 0.045369536 0.032536212
0.45166165 0.046335012 0.032521721
0.4516547 0.047300491 0.032507226
0.45164776 0.048265971 0.032492731
0.45164081 0.049231451 0.032478239
0.45163387 0.050196927 0.032463744
0.45074838 0.05121218 0.03194667
0.45074141 0.052179255 0.031932153
0.45073447 0.053146325 0.031917635
0.44984898 0.054167945 0.031400491
0.44984201 0.05513661 0.031385947
0.44983503 0.056105278 0.031371407
0.44982806 0.057073943 0.031356864
0.44894251 0.058103532 0.0308396
0.44893554 0.059073791 0.030825034
0.450012 -0.0069108508 0.031054242
0.45000502 -0.0059405938 0.031039676
0.44999805 -0.0049703368 0.03102511
0.44999105 -0.0040000775 0.031010544
0.44998407 -0.0030298205 0.030995978
0.4499771 -0.0020595614 0.030981412
0.44997013 -0.0010893045 0.030966846
0.44996312 -0.00011904543 0.03095228
0.44995615 0.00085121172 0.030937716
0.44994918 0.0018214697 0.03092315
0.4499422 0.0027917279 0.030908585
0.45081216 0.0037902908 0.031396654
0.45080519 0.0047589554 0.03138211
0.45079821 0.0057276203 0.03136757
0.45079124 0.0066962852 0.031353027
0.45078427 0.0076649501 0.031338487
0.45077729 0.0086336154 0.031323943
0.45164734 0.009621026 0.031812176
0.4516404 0.010588097 0.031797655
0.45163342 0.011555169 0.031783137
0.45162648 0.012522241 0.03176862
0.45161951 0.013489312 0.031754103
0.45161256 0.014456384 0.031739585
0.45160559 0.015423455 0.031725068
0.45159864 0.016390527 0.03171055
0.45159167 0.017357599 0.031696033
0.45158473 0.018324669 0.031681515
0.45157775 0.019291742 0.031666998
0.45157081 0.020258814 0.031652477
0.45156384 0.021225886 0.031637959
0.45155689 0.022192957 0.031623442
0.45154992 0.023160029 0.031608924
0.45154297 0.0241271 0.031594407
0.451536 0.025094172 0.031579889
0.45152906 0.026061242 0.031565372
0.45239937 0.027018383 0.032054089
0.45239243 0.027983861 0.032039594
0.45238549 0.028949341 0.032025099
0.45237851 0.029914817 0.032010604
0.45237157 0.030880298 0.031996112
0.45236462 0.031845775 0.031981617
0.45235768 0.032811254 0.031967122
0.45235074 0.033776734 0.031952631
0.45234379 0.03474221 0.031938136
0.45233685 0.03570769 0.031923641
0.4523299 0.036673166 0.031909149
0.45232296 0.037638646 0.031894654
0.45231602 0.038604125 0.031880159
0.45230904 0.039569605 0.031865668
0.4523021 0.040535081 0.031851172
0.45229515 0.041500557 0.031836677
0.45228821 0.042466037 0.031822186
0.45228127 0.043431517 0.031807691
0.45227432 0.044396993 0.031793196
0.45226738 0.045362473 0.031778704
0.45226043 0.046327949 0.031764209
0.45225349 0.047293428 0.031749714
0.45136902 0.048303891 0.031231463
0.45136204 0.049270965 0.031216944
0.4513551 0.050238036 0.031202426
0.45134813 0.051205106 0.031187909
0.45134118 0.05217218 0.031173391
0.45045668 0.053192195 0.030655025
0.45044973 0.054160859 0.030640483
0.45044276 0.055129524 0.030625941
0.45043579 0.056098193 0.0306114
0.45042881 0.057066858 0.030596858
0.44954425 0.058096435 0.030078342
0.44953728 0.059066694 0.030063778
0.44973791 -0.0069637918 0.029789362
0.44973093 -0.0059919409 0.029774772
0.45059979 -0.0049774353 0.030263847
0.45059279 -0.004007176 0.030249281
0.45058581 -0.003036919 0.030234715
0.45057884 -0.00206666 0.030220149
0.45057186 -0.0010964029 0.030205585
0.45056486 -0.00012614395 0.030191019
0.45055789 0.00084411318 0.030176453
0.45055091 0.0018143712 0.030161887
0.45054394 0.0027846294 0.030147322
0.45053694 0.0037548873 0.030132756
0.45052996 0.0047251452 0.03011819
0.45139897 0.0057205334 0.030607551
0.45139199 0.0066891983 0.03059301
0.45138502 0.0076578632 0.030578468
0.45137805 0.0086265281 0.030563926
0.45137107 0.009595193 0.030549385
0.45136413 0.010563858 0.030534843
0.45135716 0.011532523 0.030520301
0.45135018 0.012501188 0.03050576
0.45134321 0.013469853 0.030491218
0.45221233 0.014449309 0.030980818
0.45220536 0.01541638 0.030966301
0.45219842 0.016383452 0.030951783
0.45219144 0.017350523 0.030937266
0.4521845 0.018317595 0.030922746
