# .PCD v0.7 - Point Cloud Data file format
VERSION 0.7
FIELDS x y z
SIZE 4 4 4
TYPE F F F
COUNT 1 1 1
WIDTH 1385
HEIGHT 1
VIEWPOINT 0 0 0 1 0 0 0
POINTS 1385
DATA ascii
0.59295893 0.02691168 0.075176165
0.59295356 0.027658889 0.075164944
0.5929482 0.0284061 0.075153731
0.59294283 0.02915331 0.07514251
0.59293747 0.029900519 0.075131297
0.59293205 0.030647729 0.075120077
0.59292668 0.03139494 0.075108863
0.59292132 0.032142151 0.075097643
0.59291595 0.032889359 0.07508643
0.59291059 0.03363657 0.075075209
0.59207129 0.034412317 0.074505486
0.59206587 0.035161123 0.074494243
0.59289443 0.0358782 0.075041555
0.59205514 0.036658727 0.074471764
0.59204972 0.037407532 0.074460521
0.5704723 0.25546846 0.057793275
0.57130373 0.25577927 0.058346674
0.57129806 0.25656471 0.05833488
0.57212955 0.25687075 0.058888368
0.57296109 0.2571736 0.059441883
0.57379264 0.25747326 0.059995465
0.57546133 0.25728557 0.061114408
0.57713008 0.25709146 0.062233463
0.57879889 0.25689098 0.063352615
0.58046776 0.25668415 0.064471871
0.58213669 0.25647092 0.065591209
0.58684206 0.015607622 0.070284948
0.58683658 0.016367577 0.070273541
0.58766377 0.017135652 0.070821337
0.58849096 0.01790054 0.071369171
0.58848554 0.018657308 0.071357809
0.58931273 0.019417416 0.07190571
0.59013999 0.020174339 0.072453678
0.59096724 0.020928074 0.073001675
0.59179455 0.021678623 0.07354974
0.59178919 0.022429019 0.073538475
0.5926165 0.023174789 0.074086592
0.59344387 0.023917371 0.074634776
0.59343851 0.024664581 0.074623555
0.59343314 0.025411792 0.074612342
0.59342772 0.026159002 0.074601121
0.59342235 0.026906213 0.074589908
0.59341699 0.027653422 0.074578688
0.59341162 0.028400633 0.074567474
0.59340626 0.029147843 0.074556254
0.59340084 0.029895052 0.074545041
0.59339547 0.030642264 0.07453382
0.59339011 0.031389471 0.074522607
0.59338474 0.032136682 0.074511386
0.59337938 0.032883894 0.074500166
0.59337395 0.033631105 0.074488953
0.59253567 0.034406837 0.073917978
0.59336323 0.035125524 0.074466519
0.59252489 0.035904445 0.073895492
0.59251952 0.03665325 0.073884249
0.59251416 0.037402052 0.073873013
0.59250873 0.038150858 0.07386177
0.57179648 0.25498807 0.057742205
0.57179087 0.25577351 0.057730414
0.57262135 0.25608116 0.058285121
0.57261568 0.25686499 0.058273356
0.57344621 0.25716788 0.058828123
0.57427675 0.25746754 0.059382956
0.57594347 0.25727987 0.060504399
0.57761031 0.25708577 0.061625957
0.57927716 0.25688535 0.062747613
0.58010781 0.25716749 0.063302703
0.58177471 0.25695589 0.064424507
0.58731884 0.014842106 0.069700092
0.58731335 0.015602062 0.069688685
0.58730793 0.016362017 0.069677278
0.58813411 0.017130103 0.070226327
0.58812863 0.017888466 0.070214942
0.58895487 0.018651772 0.070764042
0.58978111 0.019411892 0.071313195
0.59060735 0.020168826 0.071862414
0.59143364 0.020922571 0.072411664
0.59225994 0.021673132 0.07296098
0.59225458 0.02242353 0.072949715
0.59308088 0.023169311 0.073499084
0.5939073 0.023911905 0.074048512
0.59390187 0.024659114 0.074037299
0.59389651 0.025406325 0.074026078
0.59389114 0.026153535 0.074014857
0.59388578 0.026900746 0.074003644
0.5947122 0.027633781 0.074553199
0.59470683 0.028379399 0.074542008
0.59470147 0.029125016 0.074530818
0.59386426 0.029889585 0.073958777
0.5938589 0.030636797 0.073947556
0.59385353 0.031384006 0.073936343
0.59384811 0.032131217 0.073925123
0.59384274 0.032878425 0.073913902
0.59383738 0.033625636 0.073902689
0.59383202 0.034372848 0.073891468
0.59299469 0.035150167 0.073319227
0.59298933 0.035898969 0.073307984
0.5929839 0.036647771 0.073296741
0.59297854 0.037396573 0.073285498
0.59297311 0.038145378 0.073274255
0.57312441 0.25372386 0.057705414
0.57311875 0.25450772 0.057693645
0.57311314 0.25529155 0.057681877
0.57310748 0.25607541 0.057670113
0.573937 0.2563799 0.058226105
0.57476658 0.25668114 0.058782164
0.57559609 0.25697926 0.059338253
0.57726091 0.25678998 0.060462236
0.57809049 0.25708011 0.061018445
0.58058506 0.25716186 0.062698945
0.58225 0.25695029 0.063823245
0.58779562 0.01407659 0.069115244
0.58779019 0.014836546 0.069103837
0.58778471 0.015596502 0.069092423
0.58777922 0.016356457 0.069081016
0.58860445 0.017124554 0.069631316
0.58859897 0.017882917 0.069619931
0.58942419 0.018646235 0.070170291
0.59024942 0.019406367 0.070720688
0.59107471 0.020163313 0.071271159
0.59189999 0.020917071 0.07182166
0.59272534 0.021667643 0.07237222
0.59355068 0.022415029 0.072922811
0.59354532 0.023163833 0.072911575
0.59437066 0.023906438 0.073462255
0.5943653 0.024653647 0.073451035
0.59435993 0.025400858 0.073439822
0.59435457 0.026148068 0.073428601
0.59517998 0.026882708 0.073979385
0.59517461 0.027628325 0.073968194
0.59516925 0.028373944 0.073957004
0.59516388 0.02911956 0.073945805
0.59515852 0.029865177 0.073934615
0.59515315 0.030610794 0.073923424
0.5943169 0.031378541 0.073350079
0.59431154 0.032125749 0.073338866
0.59430617 0.03287296 0.073327646
0.59430081 0.033620171 0.073316433
0.59429544 0.034367379 0.073305212
0.59429002 0.03511459 0.073293999
0.59345371 0.035893489 0.072720475
0.59344834 0.036642294 0.072709233
0.59344292 0.037391096 0.07269799
0.59343755 0.038139902 0.072686747
0.59260118 0.038926765 0.072113127
0.45130256 0.049482107 -0.023554938
0.57443905 0.2540274 0.057647575
0.57443339 0.25480965 0.057635833
0.57442778 0.2555919 0.05762409
0.57525635 0.25589478 0.058181372
0.57608491 0.25619447 0.058738686
0.57691348 0.25649101 0.059296049
0.5777421 0.25678432 0.059853476
0.57857072 0.25707445 0.060410935
0.58023357 0.25687405 0.061537586
0.58106232 0.25715622 0.06209518
0.581891 0.2574352 0.062652811
0.58910203 0.013327193 0.069093227
0.58909661 0.014085556 0.069081843
0.58909112 0.014843919 0.069070458
0.588256 0.015590942 0.068496168
0.58908021 0.016360644 0.069047689
0.58907473 0.017119007 0.069036305
0.58906931 0.017877368 0.06902492
0.59072322 0.018645665 0.07013952
0.59071779 0.019400842 0.07012818
0.59154207 0.020157799 0.070679896
0.5923664 0.020911569 0.071231648
0.59319073 0.021662153 0.071783461
0.59401506 0.022409551 0.072335303
0.59483945 0.023153761 0.072887212
0.59483409 0.023900973 0.072875999
0.59482872 0.02464818 0.072864778
0.59482336 0.025395392 0.072853565
0.59564775 0.026131637 0.073405571
0.59564239 0.026877254 0.073394381
0.59563702 0.027622871 0.073383182
0.59563166 0.028368488 0.073371992
0.59562629 0.029114105 0.073360801
0.59562093 0.029859722 0.073349603
0.59478569 0.030625863 0.072775044
0.59478033 0.031373072 0.072763823
0.59477496 0.032120284 0.07275261
0.5947696 0.032867495 0.072741389
0.59476417 0.033614703 0.072730176
0.59475881 0.034361914 0.072718956
0.59392351 0.035139207 0.072144203
0.59391809 0.035888012 0.072132967
0.59391272 0.036636814 0.072121724
0.5939073 0.037385616 0.072110482
0.59307194 0.038170878 0.071535632
0.59306657 0.038921274 0.071524367
0.59223109 0.039711315 0.07094942
0.45192856 0.050495874 -0.024371527
0.45275128 0.051469505 -0.023823082
0.57575732 0.25354707 0.057604022
0.57575172 0.25432771 0.057592303
0.57657927 0.25463063 0.05815082
0.57657367 0.25540972 0.058139123
0.57740122 0.25570783 0.058697712
0.57822883 0.25600275 0.059256367
0.57988417 0.25658303 0.060373798
0.58071184 0.25686842 0.06093258
0.58153957 0.25715059 0.061491426
0.58320051 0.25693908 0.062620729
0.58957779 0.012563283 0.068509609
0.58957237 0.013321646 0.068498224
0.58956689 0.014080008 0.06848684
0.58956146 0.01483837 0.068475455
0.58955598 0.015596733 0.068464071
0.58955055 0.016355095 0.068452686
0.58954507 0.017113458 0.068441302
0.59036833 0.017878393 0.068994127
0.59119159 0.01864014 0.069547005
0.59201485 0.019398702 0.07009995
0.59283817 0.020154078 0.070652924
0.59283274 0.020906067 0.070641637
0.59365612 0.021656662 0.071194701
0.5944795 0.022404071 0.071747795
0.59530288 0.023148295 0.072300956
0.59529752 0.023895506 0.072289735
0.59529215 0.024642715 0.072278522
0.59611553 0.025380565 0.072831757
0.59611017 0.026126182 0.072820567
0.5961048 0.026871799 0.072809368
0.59609944 0.027617415 0.072798178
0.59609407 0.028363034 0.072786987
0.59608871 0.029108651 0.072775789
0.59608334 0.029854268 0.072764598
0.59524912 0.030620396 0.07218878
0.59524375 0.031367607 0.072177567
0.59523839 0.032114815 0.072166346
0.59523296 0.032862026 0.072155133
0.5952276 0.033609238 0.072143912
0.59439325 0.034384925 0.071567938
0.59438789 0.035133731 0.071556695
0.59438252 0.035882533 0.071545452
0.59354812 0.036664594 0.070969403
0.59354275 0.03741499 0.070958138
0.59353733 0.038165387 0.070946872
0.59270293 0.038953822 0.070370704
0.5926975 0.039705813 0.070359416
0.59269208 0.0404578 0.070348121
0.45503452 0.052383315 -0.023508262
0.57707363 0.25306678 0.057562951
0.57706803 0.25384584 0.057551257
0.57789463 0.25414717 0.058111046
0.57788903 0.25492465 0.058099374
0.57871562 0.25522119 0.058659256
0.57954228 0.25551453 0.059219163
0.58036894 0.25580469 0.059779141
0.58119559 0.25609168 0.060339149
0.58202231 0.25637546 0.060899217
0.58284903 0.25665605 0.061459322
0.5836758 0.25693348 0.062019467
0.59085941 0.014845778 0.068445817
0.59085399 0.015602548 0.068434455
0.59084857 0.016359318 0.068423092
0.59084308 0.017116087 0.06841173
0.59166533 0.01787944 0.068965837
0.5916599 0.018634615 0.068954498
0.59248221 0.019393189 0.069508694
0.59330451 0.020148575 0.07006292
0.59412688 0.020900777 0.070617206
0.59494925 0.021649791 0.07117153
0.59494388 0.022398593 0.071160287
0.59576631 0.023142828 0.071714699
0.59576094 0.023890039 0.071703479
0.59658337 0.024629492 0.072257943
0.596578 0.025375109 0.072246745
0.59657264 0.026120726 0.072235554
0.59656727 0.026866345 0.072224364
0.59656191 0.027611962 0.072213165
0.59655654 0.028357578 0.072201975
0.59572327 0.02912051 0.071624957
0.59571791 0.02986772 0.071613744
0.59571254 0.030614929 0.071602523
0.59570718 0.031362139 0.071591303
0.59570175 0.03210935 0.07158009
0.59486842 0.032881841 0.071002908
0.59486306 0.033630643 0.070991665
0.59485769 0.034379449 0.07098043
0.59485227 0.035128251 0.070969187
0.59401894 0.035908706 0.070391908
0.59401351 0.036659103 0.070380643
0.59400815 0.037409499 0.070369378
0.5931747 0.038196333 0.06979198
0.59316927 0.03894832 0.069780692
0.59316385 0.039700311 0.069769405
0.5923304 0.040493511 0.069191933
0.57838798 0.25258654 0.057524379
0.57921356 0.25288785 0.058085438
0.57920802 0.25366375 0.058073793
0.57920241 0.25443962 0.058062144
0.58002806 0.25473458 0.05862328
0.5808537 0.25502634 0.05918448
0.5816794 0.25531495 0.059745714
0.58250511 0.2556003 0.060307011
0.58249956 0.25636983 0.060295459
0.58332527 0.25665045 0.060856812
0.58415103 0.25692788 0.061418209
0.59217173 0.012587681 0.068452686
0.5921663 0.013342857 0.068441346
0.59216088 0.014098033 0.068430014
0.5913288 0.014840242 0.067852058
0.59215003 0.015608386 0.068407334
0.59214455 0.016363563 0.068396002
0.59213912 0.017118739 0.068384662
0.59296042 0.017880509 0.068940066
0.59295499 0.018634092 0.068928748
0.59377635 0.019391084 0.069484197
0.59377092 0.020143075 0.069472909
0.59459227 0.020895286 0.070028447
0.59541368 0.021644311 0.070584022
0.59540826 0.022393115 0.070572779
0.59622967 0.023137361 0.071128435
0.59622431 0.023884572 0.071117215
0.59704578 0.024624038 0.071672931
0.59704041 0.025369655 0.071661741
0.59703505 0.026115272 0.071650542
0.59702969 0.026860889 0.071639352
0.59619743 0.027620621 0.071061134
0.59619206 0.028367832 0.071049914
0.5961867 0.029115044 0.071038701
0.59618133 0.029862253 0.07102748
0.59617591 0.030609462 0.071016259
0.59617054 0.031356674 0.071005046
0.59533823 0.032127559 0.070426643
0.59533286 0.032876365 0.0704154
0.59532744 0.033625167 0.070404157
0.59449512 0.034402423 0.069825679
0.59448969 0.035152823 0.069814414
0.59448433 0.035903219 0.069803149
0.59365189 0.036686849 0.069224551
0.59364647 0.03743884 0.069213264
0.59364104 0.03819083 0.069201976
0.59363568 0.038942821 0.069190681
0.59280318 0.039734416 0.068611987
0.59279776 0.040487997 0.068600677
0.59196526 0.041284375 0.068021886
0.58053052 0.25163174 0.058062267
0.58052498 0.25240603 0.058050644
0.58051938 0.25318033 0.058039017
0.58134407 0.25347528 0.05860142
0.58133847 0.25424799 0.05858982
0.58216316 0.25453818 0.059152279
0.58215761 0.25530928 0.059140705
0.58298236 0.25559467 0.059703249
0.58297682 0.2563642 0.059691697
0.58380157 0.25664482 0.060254302
0.58462632 0.25692225 0.060816951
0.59264553 0.01182698 0.067871511
0.59346575 0.012599915 0.068427995
0.59346032 0.013353499 0.068416677
0.5934549 0.014107081 0.068405367
0.59344947 0.014860664 0.06839405
0.59261835 0.015602861 0.067814827
0.59343863 0.01636783 0.06837143
0.5934332 0.017121414 0.068360113
0.59342778 0.017874997 0.068348803
0.59424812 0.018633593 0.06890548
0.59424269 0.019385584 0.068894193
0.59506309 0.0201394 0.069450952
0.59588343 0.020890031 0.070007749
0.59587806 0.021638833 0.069996506
0.59669846 0.022384685 0.070553392
0.5966931 0.023131894 0.070542179
0.59668773 0.023879105 0.070530958
0.59750819 0.024618583 0.071087927
0.59750283 0.0253642 0.071076728
0.59667158 0.026120735 0.070497312
0.59666622 0.026867947 0.070486091
0.59666085 0.027615156 0.070474871
0.59665549 0.028362365 0.070463657
0.59665012 0.029109577 0.070452437
0.5966447 0.029856786 0.070441224
0.59581339 0.030624473 0.069861613
0.59580803 0.031373277 0.069850378
0.59580261 0.032122079 0.069839135
0.59579724 0.032870885 0.069827892
0.59496588 0.033646539 0.069248185
0.59496051 0.034396935 0.069236919
0.59495509 0.035147332 0.069225654
0.59412366 0.035929359 0.068645835
0.59411824 0.036681347 0.068634547
0.59411281 0.037433337 0.068623252
0.59328139 0.038221736 0.068043351
0.59327596 0.038975321 0.068032041
0.59327054 0.039728902 0.068020731
0.59243906 0.040523674 0.067440711
0.59243363 0.04127885 0.067429379
0.59242815 0.042034026 0.067418039
0.59159666 0.042835172 0.066837952
0.58101076 0.25162607 0.057454757
0.58183438 0.25192422 0.058018364
0.58182883 0.25269693 0.058006763
0.58265251 0.25299031 0.058570426
0.58264697 0.25376141 0.058558848
0.58264136 0.25453255 0.058547273
0.5834651 0.25481954 0.059111044
0.58345956 0.25558907 0.059099492
0.58428335 0.2558713 0.059663318
0.58510709 0.25615034 0.060227193
0.58593088 0.25642619 0.060791135
0.59394395 0.011087236 0.067859359
0.59393853 0.011840819 0.067848049
0.59393311 0.012594402 0.067836732
0.59392768 0.013347985 0.067825422
0.59392226 0.014101569 0.067814104
0.59391683 0.014855151 0.067802794
0.59391141 0.015608734 0.067791484
0.59473073 0.016372122 0.068349339
0.59472531 0.017124111 0.068338044
0.59471989 0.017876102 0.068326756
0.59553927 0.018633116 0.068884723
0.59553385 0.019383514 0.068873465
0.59552848 0.020133911 0.0688622
0.59634787 0.020884553 0.069420241
0.59716725 0.021632008 0.069978349
0.59716189 0.022379218 0.069967136
0.59715652 0.023126427 0.069955915
0.59715116 0.023873638 0.069944702
0.5979706 0.024613129 0.070502914
0.59714037 0.025368059 0.069922268
0.59713501 0.026115268 0.069911048
0.59712964 0.02686248 0.069899835
0.59712428 0.027609689 0.069888614
0.59711885 0.0283569 0.069877401
0.59628856 0.02912139 0.069296591
0.5962832 0.029870193 0.069285348
0.59627777 0.030618995 0.069274105
0.59627241 0.031367797 0.06926287
0.59544206 0.032140255 0.068681955
0.59543669 0.032890651 0.06867069
0.59543127 0.033641048 0.068659425
0.59460086 0.034419876 0.068078399
0.59459543 0.035171866 0.068067111
0.59459007 0.035923857 0.068055823
0.5937596 0.036709055 0.067474723
0.59375417 0.037462641 0.067463405
0.59374875 0.038216222 0.067452095
0.59291828 0.039007798 0.066870876
0.59291285 0.039762974 0.066859543
0.59290737 0.04051815 0.066848204
0.59207684 0.041316096 0.066266909
0.59207141 0.042072866 0.066255555
0.59206599 0.042829636 0.066244192
0.58231914 0.25114587 0.057423703
0.5831418 0.25144246 0.057988565
0.58313626 0.25221357 0.057976991
0.58313072 0.25298467 0.057965413
0.58312517 0.25375578 0.057953838
0.5839479 0.25404438 0.058518838
0.58394235 0.25481391 0.058507286
0.58476508 0.25509775 0.059072338
0.58475959 0.25586566 0.059060812
0.58558238 0.25614473 0.059625939
0.58640516 0.25642058 0.060191128
0.59441674 0.01032814 0.067279413
0.59441131 0.011081723 0.067268096
0.59440589 0.011835306 0.067256786
0.59440047 0.012588889 0.067245468
0.59521872 0.013358661 0.067804478
0.59521335 0.014110651 0.06779319
0.59520793 0.014862641 0.067781903
0.59520251 0.015614631 0.067770615
0.59602082 0.016376438 0.068329759
0.59601545 0.017126834 0.068318494
0.59601003 0.01787723 0.068307228
0.59600466 0.018627627 0.068295963
0.59682304 0.019381467 0.068855211
0.59681761 0.020130271 0.068843968
0.59681225 0.020879073 0.068832733
0.59763068 0.021626541 0.069392093
0.59762532 0.022373751 0.069380872
0.59761995 0.02312096 0.069369659
0.59761453 0.023868171 0.069358438
0.59760916 0.024615381 0.069347225
0.5976038 0.025362592 0.069336005
0.59759843 0.026109802 0.069324791
0.59759307 0.026857013 0.069313571
0.59758765 0.027604222 0.069302358
0.59675837 0.028367108 0.068720318
0.596753 0.029115912 0.068709075
0.59674758 0.029864715 0.06869784
0.59591824 0.030633971 0.068115726
0.59591287 0.031384367 0.068104461
0.59590745 0.032134768 0.068093196
0.59590209 0.03288516 0.06808193
0.59507263 0.033662386 0.067499675
0.59506726 0.034414373 0.067488387
0.59506184 0.035166364 0.0674771
0.59423238 0.03594996 0.06689477
0.59422696 0.036703542 0.06688346
0.59422153 0.037457127 0.066872142
0.59339201 0.038247097 0.066289701
0.59338659 0.039002273 0.066278368
0.59255707 0.039797019 0.065695874
0.59255165 0.04055379 0.065684512
0.59254622 0.04131056 0.06567315
0.59254074 0.04206733 0.065661788
0.59253532 0.042824097 0.065650433
0.58362007 0.2514368 0.057383556
0.58444178 0.25173023 0.057949733
0.58443624 0.25249973 0.057938181
0.58443069 0.25326923 0.057926629
0.58442515 0.25403875 0.057915077
0.58524686 0.2543242 0.058481354
0.58524138 0.25509211 0.058469828
0.58606315 0.25537279 0.059036177
0.5860576 0.25613913 0.059024673
0.58687943 0.25641498 0.059591115
0.5948841 0.010322627 0.06668815
0.59570134 0.01109719 0.067248337
0.59569591 0.01184918 0.067237049
0.59569055 0.01260117 0.067225762
0.59568512 0.01335316 0.067214474
0.5956797 0.01410515 0.067203186
0.59567428 0.014857139 0.067191899
0.59649163 0.01562055 0.067752264
0.59648621 0.016370947 0.067740999
0.59648085 0.017121343 0.067729734
0.5972982 0.017878382 0.068290189
0.59729278 0.018627185 0.068278946
0.59728742 0.019375989 0.068267703
0.59728205 0.020124791 0.068256468
0.59809947 0.020873865 0.068817049
0.59809411 0.021621075 0.068805836
0.59808874 0.022368284 0.068794616
0.59808332 0.023115493 0.068783402
0.59807795 0.023862705 0.068772182
0.59807259 0.024609914 0.068760969
0.59806722 0.025357125 0.068749748
0.59806186 0.026104335 0.068738528
0.59723353 0.026864022 0.068155296
0.59722817 0.027612826 0.068144053
0.59722275 0.02836163 0.06813281
0.59721738 0.029110434 0.068121575
0.59638906 0.029878085 0.067538232
0.59638363 0.03062848 0.067526966
0.59637827 0.031378876 0.067515701
0.59554982 0.032152906 0.066932246
0.59554446 0.032904893 0.066920958
0.59553903 0.033656884 0.066909671
0.59471059 0.03443728 0.066326141
0.59470516 0.035190865 0.066314831
0.59469974 0.035944447 0.066303514
0.59387124 0.036731221 0.065719873
0.59386581 0.037486393 0.065708533
0.59386039 0.038241573 0.065697201
0.59303188 0.039034717 0.065113477
0.59302646 0.039791483 0.065102115
0.59302098 0.040548254 0.065090753
0.59301555 0.041305024 0.065079391
0.59218699 0.042106133 0.064495549
0.5921815 0.042864498 0.064484164
0.59217608 0.043622859 0.06447278
0.5921706 0.044381224 0.064461395
0.58492452 0.25095508 0.057357524
0.58491898 0.2517246 0.057345971
0.58491343 0.2524941 0.057334419
0.58490795 0.25326362 0.057322867
0.58490241 0.25403312 0.057311319
0.58572316 0.25431859 0.057878848
0.58571762 0.25508651 0.057867318
0.58653837 0.25536719 0.058434922
0.58653289 0.2561335 0.058423419
0.58735371 0.25640938 0.058991108
0.59617311 0.010339699 0.066669621
0.59616774 0.011091689 0.066658333
0.59616232 0.011843679 0.066647038
0.5961569 0.012595668 0.06663575
0.59697318 0.013363871 0.0671973
0.59696782 0.014114267 0.067186035
0.59696239 0.014864664 0.06717477
0.59695703 0.01561506 0.067163505
0.5969516 0.016365457 0.067152239
0.59776795 0.0171241 0.067713916
0.59776258 0.017872903 0.067702673
0.59775722 0.018621707 0.067691438
0.5977518 0.019370509 0.067680195
0.59856826 0.020121187 0.068242006
0.5985629 0.020868398 0.068230793
0.59855747 0.021615608 0.068219572
0.59855211 0.022362819 0.068208359
0.59854674 0.023110026 0.068197139
0.59854138 0.023857238 0.068185925
0.59853601 0.024604447 0.068174705
0.59853059 0.025351658 0.068163484
0.59770334 0.02610974 0.067579024
0.59769791 0.026858544 0.067567781
0.59769255 0.027607348 0.067556545
0.59768718 0.028356152 0.067545302
0.59685981 0.0291222 0.066960737
0.59685445 0.029872596 0.066949472
0.59602702 0.030643422 0.066364817
0.59602165 0.031395413 0.06635353
0.59601623 0.032147404 0.066342242
0.5951888 0.032924604 0.065757506
0.59518337 0.033678185 0.065746196
0.59517795 0.03443177 0.065734878
0.59517252 0.035185352 0.065723568
0.59434503 0.03597052 0.065138698
0.59433961 0.036725692 0.065127358
0.59433419 0.037480868 0.065116026
0.59350663 0.038272411 0.064531073
0.59350121 0.039029181 0.064519718
0.59349579 0.039785948 0.064508356
0.59266824 0.04058386 0.063923314
0.59266275 0.041342225 0.06391193
0.59265727 0.042100586 0.063900538
0.59265184 0.042858947 0.063889153
0.59264636 0.043617308 0.063877769
0.59181875 0.044424783 0.06329257
0.58540177 0.25094944 0.056753766
0.58539623 0.25171897 0.056742214
0.58539069 0.25248846 0.056730662
0.58621043 0.25277713 0.057299394
0.58620495 0.25354505 0.057287864
0.5861994 0.25431296 0.057276338
0.58619386 0.25508088 0.057264809
0.58618832 0.25584882 0.057253283
0.58700818 0.25612789 0.057822157
0.58700264 0.25689423 0.057810653
0.59663951 0.010334197 0.066079609
0.59663409 0.011086187 0.066068321
0.59744942 0.011857588 0.066631071
0.597444 0.012607984 0.066619806
0.59743857 0.013358381 0.066608541
0.59743321 0.014108777 0.066597275
0.59742779 0.014859173 0.06658601
0.59824312 0.015621015 0.067148894
0.59823775 0.016369818 0.067137651
0.59823239 0.017118622 0.067126408
0.59822696 0.017867425 0.067115165
0.59904242 0.018621299 0.067678183
0.59903705 0.019368511 0.06766697
0.59903169 0.02011572 0.06765575
0.59902626 0.020862931 0.067644536
0.5990209 0.021610141 0.067633316
0.59901553 0.022357352 0.067622095
0.59901017 0.023104561 0.067610882
0.59900481 0.023851773 0.067599662
0.59817851 0.024606656 0.067014001
0.59817308 0.025355458 0.067002758
0.59816772 0.026104262 0.066991515
0.59816235 0.026853066 0.066980273
0.59733599 0.027615914 0.066394508
0.59733063 0.028366312 0.066383243
0.59732521 0.029116709 0.066371977
0.59649885 0.029885931 0.065786093
0.59649342 0.03063792 0.065774806
0.596488 0.031389911 0.065763518
0.59566158 0.032165509 0.06517756
0.59565616 0.03291909 0.06516625
0.59565073 0.033672672 0.065154932
0.59482425 0.03445464 0.064568862
0.59481883 0.03520982 0.064557523
0.59481341 0.035964992 0.06454619
0.59398687 0.036753334 0.063960038
0.59398144 0.037510104 0.063948676
0.59397602 0.038266875 0.063937314
0.59397054 0.039023641 0.063925959
0.593144 0.039819948 0.063339688
0.59313852 0.040578309 0.063328303
0.59313309 0.041336674 0.063316919
0.59230644 0.042139355 0.062730536
0.59230095 0.042899311 0.062719129
0.59229553 0.043659266 0.062707715
0.59229004 0.044419222 0.062696308
0.59228456 0.045179177 0.062684901
0.58587903 0.25094381 0.056150004
0.58587348 0.25171334 0.056138452
0.58586794 0.25248283 0.056126904
0.5858624 0.25325236 0.056115352
0.58668119 0.25353941 0.056685355
0.58667564 0.25430736 0.056673829
0.5866701 0.25507528 0.056662299
0.58666462 0.25584319 0.056650773
0.58665907 0.25661111 0.056639243
0.58747792 0.25688863 0.057209395
0.59792018 0.011101701 0.066053577
0.59791476 0.011852098 0.066042311
0.59790939 0.012602494 0.066031046
0.59790397 0.01335289 0.066019781
0.5978986 0.014103287 0.066008516
0.59871292 0.014866733 0.066572621
0.59870756 0.015615537 0.066561386
0.59870213 0.01636434 0.066550143
0.59869677 0.017113144 0.0665389
0.59951121 0.017868623 0.06710314
0.59950584 0.018615833 0.067091927
0.59950042 0.019363044 0.067080706
0.59949505 0.020110255 0.067069493
0.59948969 0.020857465 0.067058273
0.59948432 0.021604674 0.06704706
0.59947896 0.022351885 0.067035839
0.59947354 0.023099095 0.067024626
0.59864825 0.023852374 0.066437729
0.59864289 0.024601178 0.066426486
0.59863752 0.02534998 0.06641525
0.59781218 0.026109632 0.065828279
0.59780681 0.026860029 0.065817013
0.59780139 0.027610425 0.065805748
0.59697604 0.028376451 0.065218665
0.59697062 0.029128442 0.065207377
0.59696519 0.029880431 0.065196089
0.59613979 0.030652827 0.064608924
0.59613436 0.03140641 0.064597614
0.59612894 0.032159995 0.064586304
0.59530348 0.032938763 0.063999027
0.59529805 0.033693939 0.063987687
0.59529263 0.034449115 0.063976355
0.5944671 0.035234261 0.063389003
0.59446168 0.035991028 0.063377641
0.59445626 0.036747798 0.063366279
0.59445077 0.037504569 0.063354917
0.59362525 0.038297676 0.062767446
0.59361976 0.039056037 0.062756062
0.59361434 0.039814401 0.062744677
0.5927887 0.040613882 0.062157091
0.59278321 0.041373838 0.062145684
0.59277779 0.042133797 0.062134273
0.59277231 0.042893749 0.062122867
0.59276682 0.043653708 0.06211146
0.59194118 0.044462748 0.061523747
0.59193569 0.045224294 0.061512314
0.58635628 0.25093818 0.055546246
0.58635074 0.2517077 0.055534694
0.5863452 0.2524772 0.055523142
0.58633965 0.25324672 0.05551159
0.58715743 0.25353381 0.056082848
0.58715189 0.25430173 0.056071319
0.5871464 0.25506964 0.056059793
0.58714086 0.25583759 0.056048263
0.58713531 0.25660551 0.056036737
0.58712977 0.25737339 0.056025207
0.59838557 0.011096211 0.065464824
0.59838015 0.011846608 0.065453559
0.59837478 0.012597004 0.065442294
0.59836936 0.0133474 0.065431029
0.59836394 0.014097798 0.065419763
0.5991773 0.014861255 0.065985113
0.59917194 0.015610058 0.065973878
0.59916657 0.016358862 0.065962635
0.59916115 0.017107666 0.065951392
0.59915578 0.017856468 0.065940149
0.59915036 0.018605271 0.065928914
0.599145 0.019354075 0.065917671
0.59913963 0.020102879 0.065906428
0.59995311 0.020851998 0.066472016
0.59912884 0.021600485 0.065883942
0.59912348 0.022349289 0.065872706
0.59911805 0.023098093 0.065861464
0.59911269 0.023846896 0.065850221
0.59910727 0.024595698 0.065838978
0.59828299 0.025353746 0.065250784
0.59827757 0.026104143 0.065239519
0.5982722 0.026854539 0.065228254
0.59744781 0.02761896 0.064639948
0.59744239 0.028370949 0.064628653
0.59743696 0.029122939 0.064617366
0.59661257 0.029893732 0.064028978
0.59660715 0.030647315 0.064017668
0.59660172 0.031400897 0.064006351
0.59577727 0.032178063 0.063417852
0.59577185 0.032933239 0.06340652
0.59494734 0.033715185 0.062817961
0.59494191 0.034471951 0.062806599
0.59493643 0.035228722 0.062795244
0.59493101 0.035985492 0.062783882
0.5941065 0.036775403 0.062195208
0.59410101 0.037533764 0.062183823
0.59409553 0.038292129 0.062172439
0.5940901 0.03905049 0.062161054
0.59326547 0.039848365 0.061572243
0.59325999 0.040608324 0.061560836
0.59325457 0.04136828 0.061549425
0.59324908 0.042128235 0.061538018
0.59242445 0.042934079 0.060949102
0.59241897 0.043695625 0.060937669
0.59241349 0.044457175 0.06092624
0.592408 0.045218725 0.060914807
0.58683348 0.25093254 0.054942489
0.58682799 0.25170207 0.054930937
0.58682245 0.2524716 0.054919384
0.58681691 0.25324109 0.054907832
0.58681136 0.25401059 0.05489628
0.58680582 0.25478011 0.054884728
0.58680028 0.25554964 0.054873176
0.58679473 0.25631917 0.054861624
0.58678919 0.25708866 0.054850072
0.58760607 0.25736779 0.055422697
0.59802783 0.011821671 0.064287007
0.59884018 0.012591514 0.064853527
0.59883475 0.013341911 0.064842269
0.59882933 0.014092308 0.064831004
0.59882396 0.014842704 0.064819738
0.59963632 0.01560458 0.065386362
0.59963095 0.016353384 0.065375127
0.59962559 0.017102187 0.065363884
0.59962016 0.017850989 0.065352641
0.5996148 0.018599793 0.065341398
0.59960938 0.019348597 0.065330163
0.59960401 0.020097401 0.06531892
0.59959865 0.020846203 0.065307677
0.59959322 0.021595007 0.065296434
0.59958786 0.022343811 0.065285191
0.59958243 0.023092614 0.065273955
0.59875917 0.023847463 0.064684555
0.59875375 0.024597859 0.06467329
0.59874839 0.025348255 0.064662024
0.59792501 0.026109478 0.064072512
0.59791958 0.026861468 0.064061224
0.59791416 0.027613457 0.064049937
0.59709078 0.028381051 0.06346035
0.59708536 0.029134635 0.063449033
0.59707993 0.029888218 0.063437723
0.59625649 0.030662186 0.062848017
0.59625107 0.031417362 0.062836684
0.59624559 0.032172538 0.062825345
0.59542215 0.032952879 0.062235564
0.59541667 0.033709645 0.062224202
0.59541124 0.034466416 0.062212843
0.59458768 0.03525313 0.061622966
0.59458226 0.036011491 0.061611582
0.59457678 0.036769852 0.061600197
0.59457135 0.037528217 0.061588813
0.59374774 0.038322896 0.060998797
0.59374225 0.039082851 0.060987391
0.59373677 0.039842807 0.06097598
0.59291315 0.040643856 0.06038589
0.59290767 0.04140541 0.060374457
0.59290218 0.042166956 0.060363024
0.5928967 0.042928506 0.060351592
0.59207302 0.043737523 0.059761364
0.59206754 0.044500668 0.059749909
0.59206206 0.045263808 0.05973845
0.59205651 0.046026949 0.059726994
0.58648944 0.25140294 0.053753499
0.5864839 0.25217408 0.053741921
0.58647835 0.25294518 0.053730346
0.58647281 0.25371629 0.053718772
0.58646721 0.2544874 0.053707194
0.58646166 0.25525853 0.053695619
0.58645612 0.25602961 0.053684041
0.58645058 0.25680071 0.053672466
0.58726645 0.25708303 0.05424631
0.5872609 0.25785255 0.054234762
0.5984996 0.01106418 0.063708283
0.59849417 0.01181617 0.063696995
0.59848875 0.01256816 0.063685708
0.59848332 0.01332015 0.06367442
0.59929472 0.014086817 0.064242244
0.59928936 0.014837214 0.064230978
0.59928393 0.01558761 0.064219713
0.59927851 0.016338008 0.064208448
0.60008997 0.017096708 0.064776376
0.60008454 0.017845511 0.064765133
0.60007918 0.018594315 0.06475389
0.60007381 0.019343119 0.064742647
0.60006839 0.020091923 0.064731404
0.60006303 0.020840725 0.064720169
0.60005766 0.021589529 0.064708926
0.59923536 0.022341179 0.064118326
0.59922993 0.023091577 0.06410706
0.59922457 0.023841973 0.064095795
0.59921914 0.02459237 0.06408453
0.59839678 0.025351986 0.063493796
0.59839135 0.026103975 0.063482508
0.59838593 0.026855966 0.063471213
0.59756356 0.027621955 0.062880397
0.59755814 0.028375538 0.062869087
0.59673572 0.029146308 0.062278181
0.59673023 0.029901486 0.062266845
0.59672481 0.03065666 0.062255509
0.59590238 0.031433802 0.061664525
0.5958969 0.032190572 0.061653167
0.59589148 0.032947343 0.061641805
0.59506893 0.033730853 0.061050728
0.59506351 0.034489218 0.06103934
0.59505802 0.035247579 0.061027955
0.5950526 0.036005944 0.061016571
0.59423 0.036797423 0.060425356
0.59422451 0.037557378 0.060413949
0.59421903 0.038317338 0.060402539
0.5942136 0.039077293 0.060391132
0.59339094 0.039876737 0.059799813
0.59338546 0.040638287 0.05978838
0.59337997 0.041399837 0.059776947
0.59255731 0.042205658 0.05918552
0.59255177 0.042968798 0.059174061
0.59254628 0.043731939 0.059162606
0.5925408 0.044495083 0.05915115
0.59253532 0.045258224 0.059139691
0.5869621 0.25216845 0.053136911
0.58695656 0.25293955 0.053125337
0.58695102 0.25371063 0.053113762
0.58694547 0.25448176 0.053102184
0.58693993 0.25525287 0.05309061
0.58611399 0.25650954 0.052492425
0.58692884 0.25679508 0.053067457
0.5869233 0.25756618 0.053055882
0.5869177 0.25833729 0.053044304
0.58691216 0.25910842 0.05303273
0.59733987 0.010261378 0.061969094
0.59815019 0.011037617 0.062538028
0.59814477 0.011791199 0.06252671
0.59813935 0.012544783 0.0625154
0.59894973 0.013314648 0.063084409
0.59894431 0.014066637 0.063073121
0.59975475 0.014831724 0.063642219
0.59974933 0.015582121 0.063630953
0.5997439 0.016332516 0.063619688
0.59973854 0.017082913 0.063608423
0.59973311 0.017833309 0.063597158
0.59972775 0.018583706 0.063585892
0.59972233 0.019334104 0.063574627
0.5997169 0.0200845 0.063563362
0.59971154 0.020834897 0.063552096
0.59970611 0.021585293 0.063540831
0.59970075 0.02233569 0.063529566
0.59969532 0.023086086 0.063518301
0.59887397 0.023842504 0.062926359
0.59886855 0.024594495 0.062915072
0.59886312 0.025346486 0.062903784
0.59804177 0.026109276 0.062311769
0.59803635 0.02686286 0.062300455
0.59803092 0.027616441 0.062289141
0.59720945 0.028385608 0.06169701
0.59720403 0.029140783 0.061685674
0.59638256 0.029914726 0.061093487
0.59637713 0.030671496 0.061082128
0.59637171 0.031428266 0.061070766
0.59555018 0.032208581 0.060478486
0.59554476 0.032966945 0.060467102
0.59553927 0.033725306 0.060455717
0.59553379 0.034483667 0.060444333
0.59471226 0.035271954 0.059851915
0.59470677 0.036031909 0.059840504
0.59470129 0.036791865 0.059829097
0.5938797 0.037586521 0.059236601
0.59387422 0.038348068 0.059225168
0.59386873 0.039109617 0.059213735
0.59386325 0.039871167 0.059202306
0.59304154 0.040673789 0.058609672
0.59303606 0.041436933 0.058598213
0.59303057 0.042200074 0.058586758
0.59302509 0.042963214 0.058575302
0.59220338 0.043773804 0.057982568
0.59301412 0.044489499 0.058552388
0.59219235 0.045303274 0.057959605
0.58662099 0.2526404 0.051944166
0.58661544 0.25341311 0.051932566
0.5866099 0.2541858 0.051920969
0.58660436 0.25495848 0.051909368
0.58659875 0.2557312 0.051897768
0.58577383 0.25698948 0.051298294
0.58658767 0.25727659 0.051874567
0.58658212 0.25804931 0.051862966
0.58657652 0.25882199 0.051851369
0.58739042 0.25910279 0.05242772
0.57749099 0.0025341243 0.046946913
0.57829988 0.0033645423 0.047516264
0.57910889 0.0041917753 0.048085678
0.57910317 0.0049835951 0.048073791
0.59536946 0.0094278967 0.059643548
0.59617877 0.01021052 0.060213633
0.59698802 0.010989956 0.060783748
0.59779739 0.011766206 0.061353911
0.59860671 0.012539269 0.061924141
0.59860128 0.013292853 0.061912827
0.59859592 0.014046435 0.061901513
0.59940529 0.014813126 0.062471822
0.59939986 0.015565116 0.062460534
0.6002093 0.016327027 0.063030928
0.60020393 0.017077424 0.063019663
0.60019851 0.01782782 0.063008398
0.60019308 0.018578216 0.062997133
0.60018772 0.019328613 0.062985867
0.60018229 0.020079011 0.062974602
0.60017693 0.020829407 0.062963337
0.60017151 0.021579802 0.062952071
0.59935117 0.022333024 0.062358931
0.59934574 0.023085013 0.062347643
0.59934032 0.023837004 0.062336355
0.59851998 0.024596596 0.061743133
0.59851456 0.02535018 0.061731823
0.59850913 0.026103763 0.061720509
0.59768867 0.026869729 0.061127175
0.59768325 0.027624905 0.061115839
0.59767783 0.028380083 0.061104503
0.59685737 0.029152421 0.06051109
0.59685194 0.02990919 0.060499731
0.59684646 0.03066596 0.060488369
0.59602594 0.031444669 0.059894864
0.59602052 0.032203034 0.059883479
0.59601504 0.032961395 0.059872095
0.59519446 0.033746481 0.059278473
0.59518903 0.034506436 0.059267066
0.59518355 0.035266396 0.059255656
0.59436297 0.036057852 0.058661956
0.59435749 0.036819398 0.058650523
0.59435201 0.037580948 0.058639094
0.59434652 0.038342498 0.058627661
0.59352583 0.039141923 0.058033824
0.59352034 0.039905064 0.058022369
0.59351486 0.040668204 0.058010913
0.59350938 0.041431349 0.057999454
0.59268862 0.042238738 0.05740552
0.59268314 0.043003473 0.057394039
0.59267765 0.043768208 0.057382558
0.59267211 0.044532944 0.057371076
0.59185135 0.045348298 0.056777004
0.58628744 0.25233805 0.05076053
0.5862819 0.25311235 0.050748903
0.58627629 0.25388664 0.05073728
0.58627075 0.25466093 0.050725657
0.58626515 0.25543523 0.050714035
0.5862596 0.25620952 0.050702408
0.586254 0.25698382 0.050690785
0.58624846 0.25775811 0.050679162
0.58624285 0.2585324 0.050667539
0.58623731 0.2593067 0.050655913
0.5870502 0.25958908 0.051233508
0.57880336 0.0017719121 0.046917573
0.57961136 0.002602343 0.04748819
0.5804193 0.003429587 0.048058841
0.5812273 0.0042536436 0.048629537
0.5820353 0.0050745159 0.049200296
0.59502703 0.0093980646 0.058464583
0.59583533 0.010182292 0.059035879
0.59664363 0.010963334 0.059607238
0.59745193 0.011741188 0.060178626
0.5974465 0.012497958 0.060167268
0.59825486 0.013271033 0.060738727
0.59906328 0.014040922 0.061310254
0.59905785 0.014794505 0.06129894
0.59986621 0.015559614 0.061870523
0.59986085 0.016311605 0.061859235
0.59985542 0.017063593 0.061847944
0.59985 0.017815582 0.061836656
0.60065848 0.018572727 0.062408373
0.60065311 0.019323124 0.062397107
0.60064769 0.02007352 0.062385842
0.59982836 0.020823542 0.061791498
0.59982294 0.021575533 0.061780211
0.59981751 0.022327524 0.061768923
0.59981215 0.023079513 0.061757632
0.59899276 0.023837501 0.061163187
0.59898734 0.024591083 0.061151873
0.5981679 0.025353853 0.060557339
0.59816247 0.026109029 0.060546003
0.59815705 0.026864205 0.060534663
0.5973376 0.027633345 0.059940051
0.59733212 0.028390115 0.059928693
0.5973267 0.029146885 0.059917331
0.59650719 0.029922398 0.059322622
0.59650177 0.030680759 0.059311237
0.59649628 0.031439122 0.059299853
0.59567672 0.032221012 0.058705032
0.59567124 0.032980967 0.058693621
0.59566581 0.033740923 0.058682214
0.59484619 0.034529179 0.058087312
0.59484071 0.035290729 0.058075879
0.59483522 0.036052279 0.058064446
0.5948298 0.036813829 0.058053013
0.59401011 0.037610054 0.05745798
0.59400463 0.038373195 0.057446521
0.59399915 0.039136339 0.057435066
0.5939936 0.03989948 0.05742361
0.59317392 0.040703669 0.056828469
0.59316844 0.041468408 0.056816988
0.59316289 0.042233143 0.056805506
0.59315741 0.042997878 0.056794029
0.59315193 0.043762613 0.056782547
0.59233212 0.044576366 0.056187246
0.59232658 0.045342691 0.056175742
0.58676767 0.25233239 0.050153017
0.58676207 0.25310668 0.050141394
0.58675653 0.25388098 0.050129771
0.58675092 0.25465527 0.050118145
0.58674538 0.25542957 0.050106522
0.58592242 0.25668782 0.049504567
0.58591682 0.25746369 0.049492918
0.58591121 0.25823957 0.049481273
0.58672309 0.25852674 0.050060026
0.58671749 0.25930104 0.050048403
0.58671194 0.26007536 0.050036781
0.58011383 0.0010129102 0.046890706
0.58092076 0.0018433523 0.047462557
0.58091509 0.0026335781 0.047450695
0.58253479 0.0034946776 0.048606418
0.58334178 0.0043155593 0.04917841
0.58414888 0.0051332563 0.04975047
0.59468657 0.0093682101 0.057283103
0.59549385 0.010154042 0.057855643
0.59630114 0.010936689 0.058428209
0.59710848 0.011716148 0.059000842
0.59710306 0.012474511 0.058989458
0.5979104 0.013249191 0.059562147
0.59871775 0.014020684 0.06013488
0.59952521 0.014788992 0.060707681
0.59951979 0.015542575 0.060696371
0.59951437 0.016296158 0.060685057
0.60032177 0.017058091 0.061257936
0.60031641 0.017810082 0.061246648
0.60031098 0.018562071 0.061235357
0.60030556 0.019314062 0.061224069
0.60030013 0.020066051 0.061212782
0.60029471 0.020818042 0.06120149
0.60028934 0.021570031 0.061190203
0.59947097 0.022324823 0.060594555
0.59946555 0.023078404 0.060583241
0.59946012 0.023831988 0.060571928
0.59864169 0.02459315 0.059976168
0.59863627 0.025348326 0.059964828
0.59781784 0.02611427 0.059369013
0.59781235 0.02687104 0.059357654
0.59780693 0.027627809 0.059346292
0.59698844 0.028400125 0.05875038
0.59698302 0.029158488 0.058738995
0.59697753 0.029916849 0.058727611
0.59615898 0.030695537 0.058131587
0.5961535 0.031455494 0.05812018
0.59614807 0.03221545 0.058108769
0.59532946 0.03300051 0.057512667
0.59532398 0.03376206 0.057501234
0.5953185 0.03452361 0.057489801
0.59449989 0.035315044 0.056893587
0.5944944 0.036078185 0.056882132
0.59448886 0.036841325 0.056870673
0.59448338 0.03760447 0.056859218
0.59366471 0.038403872 0.056262899
0.59365922 0.039168607 0.056251422
0.59365368 0.039933342 0.05623994
0.5936482 0.040698074 0.056228459
0.59364271 0.041462813 0.056216978
0.59282392 0.042271771 0.055620499
0.59281844 0.0430381 0.055608995
0.5928129 0.043804429 0.055597492
0.59280741 0.044570759 0.055585988
0.59198856 0.045387682 0.054989405
0.58725345 0.25155243 0.049557131
0.58724785 0.2523267 0.049545508
0.58724231 0.25310102 0.049533885
0.58642036 0.25435448 0.048930749
0.58641475 0.25513035 0.048919104
0.58640915 0.25590625 0.048907455
0.58640361 0.25668213 0.048895806
0.58639801 0.25745803 0.048884161
0.5863924 0.2582339 0.048872512
0.58638686 0.25900978 0.048860863
0.58638126 0.25978568 0.048849218
0.58719212 0.26006967 0.049429271
0.58142221 0.00025711762 0.046866272
0.58141655 0.0010473434 0.04685441
0.58222252 0.0018762039 0.047427535
0.58302855 0.0027018783 0.048000723
0.58383459 0.0035243658 0.048573945
0.58464062 0.0043436671 0.04914723
0.58544672 0.0051597827 0.049720544
0.5870645 0.0060033784 0.050879031
0.58868241 0.0068406025 0.052037615
0.59111208 0.0076989345 0.05378145
0.59434807 0.0093383314 0.056099143
0.59515435 0.010125768 0.05667289
0.59596068 0.01091002 0.0572467
0.59676701 0.011691084 0.057820544
0.59757334 0.012468963 0.058394451
0.59756792 0.013227325 0.058383066
0.59837431 0.014000423 0.058957025
0.5991807 0.014770336 0.059531037
0.59998715 0.015537062 0.060105111
0.59998173 0.016290644 0.060093798
0.5999763 0.017044228 0.060082484
0.59997088 0.017797811 0.06007117
0.60077733 0.018556571 0.060645349
0.6007719 0.01930856 0.060634062
0.59995461 0.020058559 0.060037233
0.59994918 0.020812143 0.060025919
0.59994376 0.021565726 0.060014606
0.59993833 0.022319309 0.060003296
0.59912091 0.023077274 0.059406333
0.59911549 0.02383245 0.059394997
0.59911007 0.024587626 0.059383657
0.59829259 0.025351964 0.058786616
0.59828717 0.026108734 0.058775254
0.59746969 0.026877852 0.058178142
0.5974642 0.027636213 0.058166757
0.59745878 0.028394576 0.058155373
0.59664124 0.029170068 0.057558145
0.59663576 0.029930023 0.057546739
0.59663028 0.030689977 0.057535328
0.59581274 0.031471841 0.056938022
0.59580725 0.032233391 0.056926589
0.59580177 0.032994941 0.05691516
0.59498411 0.033783175 0.056317743
0.59497863 0.034546316 0.056306284
0.59497315 0.03530946 0.056294829
0.59496766 0.036072604 0.056283373
0.59415001 0.036868803 0.055685852
0.59414446 0.037633538 0.055674374
0.59413898 0.038398277 0.055662893
0.5941335 0.039163012 0.055651411
0.59331572 0.039967179 0.055053756
0.59331024 0.040733509 0.055042252
0.59330469 0.041499838 0.055030745
0.59329921 0.042266164 0.055019241
0.59248143 0.0430783 0.054421484
0.59247589 0.04384622 0.054409955
0.59247035 0.044614144 0.054398425
0.59246486 0.045382064 0.054386899
0.58773363 0.25154677 0.048949622
0.58772808 0.25232103 0.048937999
0.58690709 0.25357291 0.048333637
0.58690155 0.25434881 0.048321992
0.58689594 0.25512469 0.048310343
0.58607495 0.25638291 0.04770587
0.58606935 0.25716043 0.047694199
0.58606374 0.25793788 0.047682527
0.58605814 0.25871536 0.047670856
0.58605254 0.25949284 0.047659185
0.58686244 0.25977999 0.048240457
0.58685684 0.26055592 0.048228808
0.581918 -0.00053889042 0.046258125
0.58272296 0.0002931674 0.046832453
0.58432734 0.0027331726 0.047969475
0.58513242 0.0035540799 0.04854399
0.5859375 0.0043717981 0.04911853
0.58674258 0.0051863324 0.049693137
0.5883584 0.0060283579 0.050854132
0.58997434 0.0068640118 0.052015238
0.59159029 0.007693293 0.05317644
0.59239554 0.0084903017 0.053751312
0.59401155 0.0093084294 0.054912664
0.59481686 0.010097472 0.055487655
0.59562218 0.010883328 0.056062672
0.5964275 0.011665997 0.05663776
0.59723282 0.01244548 0.057212874
0.59803826 0.013221777 0.057788055
0.59803277 0.013980139 0.057776671
0.59883815 0.014751656 0.058351908
0.59964359 0.015519987 0.05892719
0.59963816 0.016275164 0.058915854
0.60044366 0.017038714 0.059491225
0.60043824 0.017792298 0.059479915
0.60043281 0.018545879 0.059468601
0.60042739 0.019299464 0.059457287
0.60042197 0.020053046 0.059445973
0.60041654 0.020806629 0.059434664
0.59960014 0.021561395 0.058836497
0.59959471 0.022316573 0.058825161
0.59958929 0.023071749 0.058813822
0.59877282 0.023832889 0.058215577
0.5987674 0.024589658 0.058204219
0.59876192 0.025346428 0.058192857
0.59794545 0.02611394 0.057594515
0.59794003 0.026872303 0.057583131
0.59793454 0.027630664 0.057571746
0.59711802 0.028404552 0.056973297
0.59711254 0.029164508 0.056961887
0.59710705 0.029924463 0.05695048
0.59629053 0.030704722 0.056351949
0.59628505 0.031466272 0.056340516
0.5954684 0.03225131 0.055741895
0.59546292 0.03301445 0.05573044
0.59545743 0.033777595 0.055718981
0.59545195 0.034540735 0.055707525
0.59463525 0.035333741 0.055108804
0.59462976 0.036098476 0.055097323
0.59462428 0.036863208 0.055085845
0.5946188 0.037627943 0.055074364
0.59380203 0.038428918 0.054475505
0.59379649 0.039195243 0.054464001
0.59379101 0.039961573 0.054452498
0.59378546 0.040727902 0.05444099
0.5929687 0.041536838 0.05384203
0.59296322 0.042304758 0.053830501
0.59295768 0.043072682 0.053818975
0.59295213 0.043840602 0.053807445
0.59213531 0.044657506 0.053208362
0.59212977 0.045427021 0.05319681
0.59131289 0.0462487 0.052597642
0.5882194 0.25076681 0.048353739
0.58821386 0.25154111 0.048342116
0.58739388 0.25279135 0.047736529
0.58738834 0.25356725 0.04772488
0.58738273 0.25434312 0.047713231
0.58656269 0.25559974 0.047107533
0.58655709 0.25637722 0.047095861
0.58655155 0.25715473 0.04708419
0.58654594 0.25793222 0.047072519
0.58654034 0.25870967 0.047060847
0.58653474 0.25948715 0.047049176
0.58652914 0.26026464 0.047037505
0.58733809 0.26055023 0.047620051
0.58402741 -0.00045779828 0.046812966
0.58482009 0.0019419793 0.047365006
0.58562416 0.0027644904 0.047940742
0.58642823 0.0035838147 0.048516512
0.58723235 0.0043999539 0.049092345
0.58803648 0.0052129049 0.049668208
0.5888406 0.0060226698 0.050244119
0.59045458 0.006858347 0.051407728
0.59125876 0.0076601468 0.051983774
0.5928728 0.0084846718 0.053147551
0.59367704 0.0092785042 0.0537237
0.59448129 0.010069151 0.054299898
0.59528565 0.010856613 0.054876164
0.59608996 0.011640887 0.055452459
0.59689432 0.012421975 0.056028817
0.59769869 0.013199876 0.056605205
0.59850311 0.013974591 0.05718166
0.59849763 0.014732954 0.057170276
0.59930205 0.015502889 0.057746787
0.60010654 0.016269637 0.058323342
0.60010105 0.017024815 0.058312006
0.60009563 0.017779991 0.05830067
0.60009021 0.018535167 0.058289334
0.60008478 0.019290343 0.058277998
0.60007936 0.020045519 0.058266658
0.60007393 0.020800695 0.058255322
0.60006845 0.021555871 0.058243986
0.59925306 0.022313815 0.057644539
0.59924763 0.023070583 0.057633176
0.59924215 0.023827353 0.057621818
0.5984267 0.024591666 0.057022277
0.59842128 0.025350029 0.057010893
0.59841579 0.026108392 0.056999508
0.59760028 0.02687908 0.056399852
0.5975948 0.027639035 0.056388445
0.59758931 0.028398992 0.056377035
0.59677374 0.029176053 0.055777304
0.59676832 0.029937601 0.055765871
0.59676284 0.030699151 0.055754438
0.59594721 0.031482581 0.055154592
0.59594172 0.032245725 0.055143133
0.59593618 0.03300887 0.055131678
0.59512055 0.033798672 0.054531753
0.59511507 0.034563407 0.054520275
0.59510958 0.035328146 0.054508794
0.59429383 0.036124323 0.053908754
0.59428835 0.036890652 0.05389725
0.59428281 0.037656978 0.053885747
0.59427732 0.038423311 0.053874243
0.59346157 0.039227452 0.053274103
0.59345603 0.039995376 0.053262576
0.59345049 0.040763296 0.053251047
0.593445 0.04153122 0.053239521
0.59343946 0.04229914 0.053227991
0.59262365 0.043112844 0.052627709
0.59261811 0.043882359 0.052616157
0.59261256 0.044651873 0.052604605
0.5917967 0.045471955 0.052004207
0.59179109 0.04624306 0.051992632
0.58869964 0.25076115 0.047746226
0.58788067 0.25200978 0.047139414
0.58787507 0.25278565 0.047127768
0.58786952 0.25356156 0.047116119
0.5870505 0.25481659 0.046509191
0.58704489 0.25559407 0.04649752
0.58703929 0.25637153 0.046485849
0.58622026 0.25763294 0.045878846
0.58621466 0.258412 0.045867149
0.58620906 0.2591911 0.045855455
0.58701694 0.25948146 0.046439163
0.58701134 0.26025894 0.046427492
0.58781928 0.26054457 0.04701129
0.58452117 -0.0012505956 0.046207272
0.58692467 0.0020135711 0.04792624
0.58691901 0.0027958313 0.047914498
0.58772212 0.0036135754 0.048491556
0.58852524 0.0044281306 0.049068645
0.58932841 0.0052395011 0.049645782
0.59013158 0.0060476852 0.050222985
0.59093475 0.0068526822 0.050800219
0.59173799 0.0076544937 0.051377516
0.59254122 0.0084531177 0.051954847
0.59334451 0.0092485566 0.052532241
0.59414774 0.010040808 0.053109664
0.59495109 0.010829873 0.053687137
0.59656322 0.011635303 0.0548537
0.59655774 0.012398445 0.054842241
0.59736115 0.013177952 0.055419877
