# .PCD v0.7 - Point Cloud Data file format
VERSION 0.7
FIELDS x y z
SIZE 4 4 4
TYPE F F F
COUNT 1 1 1
WIDTH 1380
HEIGHT 1
VIEWPOINT 0 0 0 1 0 0 0
POINTS 1380
DATA ascii
0.52271402 0.067280486 0.053405214
0.52270788 0.068136029 0.053392373
0.52600843 0.0406419 0.054717936
0.52600229 0.041492667 0.054705165
0.52599621 0.042343438 0.054692395
0.52599007 0.043194205 0.054679621
0.52598393 0.044044971 0.054666851
0.52597785 0.044895742 0.054654077
0.52597171 0.045746509 0.054641306
0.52595943 0.047448047 0.054615762
0.52595335 0.048298813 0.054602992
0.52594721 0.04914958 0.054590218
0.52594107 0.050000351 0.054577447
0.52507716 0.05090702 0.054035775
0.52507102 0.051759381 0.054022979
0.52506495 0.052611742 0.054010183
0.52505881 0.0534641 0.053997386
0.52419484 0.054378737 0.053455602
0.5241887 0.055232689 0.053442784
0.5241825 0.056086648 0.053429961
0.52417636 0.0569406 0.053417142
0.52417022 0.057794552 0.053404324
0.52416408 0.058648508 0.053391505
0.52415794 0.059502464 0.053378683
0.5241518 0.06035642 0.053365864
0.52328771 0.061285391 0.052823856
0.52328157 0.062140938 0.052811012
0.52327543 0.062996484 0.052798171
0.5232693 0.063852035 0.052785326
0.5232631 0.064707577 0.052772481
0.52325696 0.065563127 0.05275964
0.52410877 0.066334099 0.053276125
0.52324462 0.06727422 0.05273395
0.52323848 0.06812977 0.052721109
0.5274294 0.035503853 0.054656774
0.52742326 0.036353029 0.054644026
0.52741718 0.037202206 0.054631278
0.52741104 0.038051382 0.05461853
0.52740496 0.038900554 0.054605782
0.52739882 0.03974973 0.054593034
0.52739275 0.040598907 0.054580286
0.52738661 0.041448079 0.054567538
0.52738053 0.042297255 0.054554794
0.52737439 0.043146428 0.054542046
0.52736831 0.043995608 0.054529298
0.52736217 0.04484478 0.05451655
0.52735609 0.045693953 0.054503802
0.52734995 0.046543129 0.054491054
0.52734387 0.047392305 0.054478306
0.52648097 0.048292588 0.053935479
0.52647483 0.049143359 0.053922709
0.52646875 0.049994126 0.053909935
0.52646261 0.050844889 0.053897165
0.52559966 0.051753145 0.053354222
0.52559352 0.052605506 0.053341426
0.52558738 0.053457867 0.05332863
0.5255813 0.054310229 0.053315833
0.52557516 0.055162586 0.053303037
0.52556902 0.056014948 0.05329024
0.52556288 0.056867313 0.053277448
0.52555674 0.05771967 0.053264651
0.5255506 0.058572035 0.053251855
0.52554446 0.059424397 0.053239059
0.52553833 0.060276758 0.053226262
0.52467525 0.061204124 0.052683033
0.52466911 0.06205808 0.052670211
0.52466297 0.062912032 0.052657392
0.52465683 0.063765988 0.052644573
0.52465069 0.064619936 0.052631754
0.52464455 0.065473899 0.052618932
0.52463841 0.066327855 0.052606113
0.52463228 0.067181803 0.052593295
0.52462614 0.068035759 0.052580476
0.52462 0.068889715 0.052567653
0.39938867 0.096059605 -0.025120379
0.52796215 0.034648467 0.054003261
0.52795601 0.035497643 0.053990513
0.52794993 0.036346819 0.053977765
0.52794379 0.037195995 0.053965017
0.52793771 0.038045168 0.053952269
0.52793157 0.03889434 0.053939521
0.52792549 0.039743517 0.053926773
0.52791935 0.040592693 0.053914025
0.52791327 0.041441869 0.053901277
0.52790713 0.042291041 0.05388853
0.52790105 0.043140218 0.053875782
0.52789491 0.043989394 0.053863034
0.52788883 0.044838566 0.053850286
0.5278827 0.045687743 0.053837538
0.52787662 0.046536915 0.05382479
0.52787048 0.047386095 0.053812042
0.5278644 0.048235267 0.053799294
0.52700251 0.049137134 0.053255197
0.52785218 0.049933616 0.053773798
0.52699023 0.050838664 0.053229652
0.5269841 0.051689439 0.053216878
0.52697802 0.052540205 0.053204108
0.52697188 0.053390976 0.053191334
0.52610987 0.054303993 0.052647073
0.52695966 0.05509251 0.053165793
0.52609766 0.056008711 0.05262148
0.52609152 0.056861077 0.052608684
0.52608538 0.057713434 0.052595887
0.52607924 0.058565799 0.052583095
0.5260731 0.05941816 0.052570298
0.52606696 0.060270522 0.052557502
0.52606082 0.061122879 0.052544706
0.52605468 0.061975244 0.052531909
0.52604854 0.062827602 0.052519113
0.52604246 0.063679963 0.05250632
0.52603632 0.064532325 0.052493524
0.52517414 0.065467648 0.05194892
0.52602404 0.066237055 0.052467931
0.5260179 0.067089409 0.052455135
0.52601177 0.06794177 0.052442338
0.52600563 0.068794131 0.052429546
0.52599949 0.069646493 0.052416749
0.4009656 0.0894318 -0.025342964
0.40010163 0.090618849 -0.025891341
0.40009382 0.091705412 -0.025907652
0.40008602 0.092791967 -0.025923964
0.39922202 0.093985386 -0.026472436
0.39921418 0.095073543 -0.026488772
0.39920634 0.096161701 -0.026505109
0.40005472 0.097138211 -0.02598921
0.40090314 0.098111548 -0.025473265
0.52849489 0.033793081 0.053349748
0.52848881 0.034642257 0.053337
0.52933735 0.035464242 0.053856503
0.5284766 0.036340605 0.053311504
0.52847046 0.037189782 0.053298756
0.52846438 0.038038954 0.053286009
0.52931297 0.038854569 0.053805608
0.52845216 0.039737307 0.053260513
0.52844602 0.040586483 0.053247765
0.52929467 0.041397311 0.053767435
0.5284338 0.042284828 0.053222269
0.52842772 0.043134004 0.053209521
0.52842158 0.04398318 0.053196773
0.52841544 0.044832356 0.053184025
0.52840936 0.045681529 0.053171277
0.52840322 0.046530701 0.053158529
0.52839714 0.047379881 0.053145781
0.528391 0.048229054 0.053133033
0.52838492 0.04907823 0.053120285
0.52837878 0.049927402 0.053107537
0.5283727 0.050776578 0.053094789
0.52751178 0.051683214 0.052549373
0.52750564 0.05253398 0.052536599
0.5274995 0.053384751 0.052523829
0.52749342 0.054235518 0.052511055
0.52748728 0.055086285 0.052498285
0.52748114 0.055937055 0.052485511
0.527475 0.056787819 0.05247274
0.52746892 0.057638586 0.05245997
0.52746278 0.05848936 0.052447196
0.52745664 0.059340127 0.052434426
0.52745056 0.060190897 0.052421652
0.52744442 0.061041664 0.052408881
0.52743828 0.061892428 0.052396111
0.5274322 0.062743194 0.052383337
0.52657104 0.063673727 0.051837556
0.5265649 0.064526089 0.051824763
0.52741379 0.065295503 0.052345023
0.52655268 0.066230819 0.051799171
0.52654654 0.067083173 0.051786374
0.52739543 0.067847803 0.052306708
0.52738935 0.068698578 0.052293934
0.52738321 0.069549344 0.052281164
0.39992034 0.090712957 -0.027277194
0.39991254 0.091801114 -0.027293529
0.3999047 0.092889272 -0.027309865
0.39904168 0.09408427 -0.027859613
0.39988905 0.095065579 -0.027342537
0.39988121 0.096153736 -0.027358873
0.40072861 0.097130269 -0.026841724
0.40157601 0.098103613 -0.026324527
0.40327877 0.098958947 -0.025273714
0.52902156 0.033786871 0.052683488
0.52901542 0.034636043 0.05267074
0.529863 0.035458039 0.05319149
0.52985692 0.036305621 0.053178769
0.52985084 0.037153203 0.053166043
0.5298447 0.038000785 0.053153321
0.52983862 0.038848367 0.053140596
0.52983254 0.039695948 0.05312787
0.5298264 0.04054353 0.053115148
0.52982032 0.041391112 0.053102423
0.52981424 0.042238694 0.053089701
0.5298081 0.043086272 0.053076975
0.52980202 0.043933857 0.053064253
0.52979594 0.044781439 0.053051528
0.52978981 0.045629017 0.053038802
0.52978373 0.046476603 0.05302608
0.52977765 0.047324184 0.053013355
0.52977151 0.048171766 0.053000633
0.52891159 0.049072016 0.052454028
0.52890545 0.049921189 0.05244128
0.52889937 0.050770365 0.052428532
0.52889323 0.051619541 0.052415784
0.52888715 0.052468721 0.052403037
0.52888101 0.053317893 0.052390289
0.52887493 0.054167069 0.052377541
0.52886879 0.055016242 0.052364793
0.52886271 0.055865414 0.052352045
0.52885658 0.056714591 0.052339297
0.5288505 0.057563763 0.052326549
0.52884436 0.058412943 0.052313801
0.52883822 0.059262119 0.052301053
0.52883214 0.060111292 0.052288305
0.528826 0.060960468 0.052275557
0.5279659 0.061886203 0.051728599
0.52795982 0.062736973 0.051715828
0.52795368 0.06358774 0.051703054
0.52794755 0.064438507 0.051690284
0.52794147 0.065289281 0.05167751
0.52793533 0.066140048 0.05166474
0.52792919 0.066990815 0.05165197
0.52792311 0.067841582 0.051639196
0.52791697 0.068692349 0.051626425
0.52791083 0.069543116 0.051613651
0.4048661 0.090194717 -0.025457965
0.40485835 0.091274902 -0.025474181
0.40399638 0.092460334 -0.026025042
0.4039886 0.093542114 -0.026041282
0.40398082 0.094623901 -0.026057521
0.40397301 0.095705688 -0.026073761
0.40481949 0.09667585 -0.02555526
0.40566596 0.097642832 -0.025036717
0.52955431 0.032931481 0.052029978
0.53040087 0.033756677 0.052551933
0.52954209 0.034629829 0.052004483
0.53038865 0.035451841 0.052526481
0.53038257 0.036299419 0.05251376
0.53037649 0.037147 0.052501034
0.53037035 0.037994582 0.052488312
0.53036427 0.038842164 0.052475587
0.5303582 0.039689746 0.052462865
0.53035206 0.040537328 0.052450139
0.53034598 0.041384909 0.052437413
0.5303399 0.042232491 0.052424692
0.53033376 0.043080073 0.052411966
0.53032768 0.043927655 0.052399244
0.5303216 0.044775236 0.052386519
0.53031546 0.045622818 0.052373793
0.53030938 0.0464704 0.052361071
0.5303033 0.047317985 0.052348346
0.53029716 0.048165563 0.052335624
0.53029108 0.049013145 0.052322898
0.530285 0.049860727 0.052310176
0.53027892 0.050708309 0.052297451
0.53027278 0.051555891 0.052284725
0.5302667 0.052403476 0.052272003
0.53026062 0.053251054 0.052259278
0.53025448 0.054098636 0.052246556
0.5302484 0.054946218 0.05223383
0.53024232 0.055793796 0.052221108
0.53023618 0.056641381 0.052208383
0.5302301 0.057488959 0.052195657
0.53022403 0.058336545 0.052182935
0.53021789 0.059184127 0.05217021
0.5293588 0.060105082 0.051622044
0.52935266 0.060954254 0.051609296
0.52934659 0.06180343 0.051596548
0.52934045 0.062652603 0.0515838
0.52933437 0.063501775 0.051571053
0.52932823 0.064350948 0.051558305
0.52932215 0.065200128 0.051545557
0.52846295 0.066133827 0.050997231
0.52845681 0.066984594 0.050984457
0.52845073 0.067835361 0.050971687
0.52844459 0.068686128 0.050958913
0.52929157 0.069446005 0.051481817
0.52843237 0.070387661 0.050933369
0.52842623 0.071238428 0.050920598
0.53093874 0.032055311 0.051912371
0.53008097 0.032925267 0.051363718
0.53007483 0.033774443 0.05135097
0.53006876 0.034623619 0.051338222
0.53091431 0.035445638 0.051861472
0.53090823 0.03629322 0.051848751
0.53090215 0.037140802 0.051836025
0.53089601 0.037988383 0.051823303
0.53088993 0.038835965 0.051810578
0.53088385 0.039683547 0.051797856
0.53087771 0.040531129 0.05178513
0.53087163 0.04137871 0.051772404
0.53086555 0.042226292 0.051759683
0.53085941 0.04307387 0.051746957
0.53085333 0.043921456 0.051734235
0.531699 0.04472436 0.052257739
0.53169292 0.045570347 0.052245039
0.53168684 0.046416335 0.05223234
0.53168076 0.047262322 0.05221964
0.53082287 0.048159365 0.051670615
0.53081673 0.049006943 0.051657889
0.53081065 0.049854528 0.051645167
0.53080457 0.050702106 0.051632442
0.53079844 0.051549688 0.051619716
0.53079236 0.052397273 0.051606994
0.53078628 0.053244852 0.051594269
0.53078014 0.054092437 0.051581547
0.53077406 0.054940015 0.051568821
0.53076798 0.055787597 0.051556099
0.53076184 0.056635179 0.051543374
0.53075576 0.05748276 0.051530648
0.53074968 0.058330342 0.051517926
0.53074354 0.059177928 0.051505201
0.53073746 0.060025506 0.051492479
0.53073138 0.060873091 0.051479753
0.53072524 0.061720669 0.051467031
0.52986711 0.062646389 0.05091754
0.52986097 0.063495561 0.050904792
0.52985489 0.064344741 0.050892044
0.52984875 0.065193914 0.050879296
0.52984267 0.066043094 0.050866548
0.52983654 0.066892266 0.0508538
0.52983046 0.067741439 0.050841052
0.52982432 0.068590619 0.050828304
0.52981824 0.069439791 0.050815556
0.5298121 0.070288964 0.050802808
0.52980602 0.071138136 0.05079006
0.53061372 0.032069881 0.050710205
0.53060758 0.032919057 0.050697457
0.5306015 0.033768229 0.050684709
0.5314461 0.034591854 0.051209185
0.53058928 0.035466578 0.050659213
0.53143388 0.036287017 0.051183738
0.5314278 0.037134599 0.051171016
0.53142166 0.037982181 0.05115829
0.53141558 0.038829762 0.051145565
0.5314095 0.039677344 0.051132843
0.53140336 0.040524926 0.051120117
0.53139728 0.041372508 0.051107395
0.5313912 0.04222009 0.05109467
0.53138512 0.043067671 0.051081944
0.53137898 0.043915253 0.051069222
0.5322237 0.044718169 0.051593982
0.53221762 0.04556416 0.051581282
0.53221154 0.046410143 0.051568579
0.53135461 0.047305584 0.051018327
0.53219932 0.048102122 0.05154318
0.53219324 0.048948113 0.05153048
0.53218716 0.049794096 0.051517781
0.53218108 0.050640088 0.051505081
0.532175 0.051486079 0.051492382
0.53216892 0.052332066 0.051479679
0.53216285 0.053178053 0.051466979
0.53130579 0.054086234 0.050916534
0.53129971 0.054933816 0.050903808
0.53129363 0.055781394 0.050891086
0.53128749 0.05662898 0.050878361
0.53128141 0.057476558 0.050865639
0.53127533 0.058324143 0.050852913
0.53126919 0.059171725 0.050840192
0.53126311 0.060019307 0.050827466
0.53125703 0.060866889 0.05081474
0.53125095 0.06171447 0.050802018
0.53124481 0.062562048 0.050789293
0.53038764 0.063489355 0.050238531
0.5303815 0.064338528 0.050225783
0.53037542 0.0651877 0.050213035
0.53036928 0.06603688 0.050200287
0.53121436 0.066799961 0.050725672
0.53035706 0.067735232 0.050174791
0.53035098 0.068584405 0.050162043
0.53034484 0.069433577 0.050149295
0.53033876 0.07028275 0.050136551
0.53033262 0.071131922 0.050123803
0.53114033 0.032063667 0.050043944
0.53113425 0.032912843 0.050031196
0.53112811 0.033762019 0.050018448
0.53112203 0.034611192 0.0500057
0.53111589 0.035460368 0.049992952
0.53195953 0.036280818 0.050518729
0.53195345 0.0371284 0.050506007
0.53194731 0.037975982 0.050493281
0.53194124 0.038823564 0.050480556
0.53193516 0.039671145 0.050467834
0.53192908 0.040518727 0.050455108
0.53192294 0.041366309 0.050442386
0.53191686 0.042213891 0.050429661
0.53191078 0.043061469 0.050416939
0.53190464 0.043909054 0.050404213
0.53189856 0.044756636 0.050391488
0.53189248 0.045604214 0.050378766
0.53188634 0.046451796 0.05036604
0.53188026 0.047299381 0.050353318
0.53272402 0.048095934 0.050879419
0.53271794 0.048941921 0.050866719
0.53271186 0.049787909 0.05085402
0.53270572 0.050633896 0.05084132
0.53269964 0.051479891 0.050828621
0.53184366 0.052384872 0.050276972
0.53183758 0.05323245 0.05026425
0.53183144 0.054080036 0.050251525
0.53182536 0.054927614 0.050238799
0.53181928 0.055775195 0.050226077
0.5318132 0.056622777 0.050213352
0.53180707 0.057470359 0.05020063
0.53180099 0.058317941 0.050187904
0.53179491 0.059165526 0.050175183
0.53178877 0.060013104 0.050162457
0.53178269 0.06086069 0.050149731
0.53177661 0.061708268 0.050137009
0.53177047 0.06255585 0.050124284
0.53176439 0.063403428 0.050111562
0.53175831 0.064251013 0.050098836
0.53090209 0.065181494 0.049546774
0.53089595 0.066030666 0.049534027
0.53088987 0.066879839 0.049521279
0.53173387 0.06764134 0.050047942
0.53087765 0.068578191 0.049495783
0.53087151 0.069427364 0.049483035
0.53001523 0.07036899 0.048930839
0.53000915 0.071219757 0.048918068
0.53166699 0.032057453 0.049377684
0.53166091 0.032906629 0.049364936
0.53165478 0.033755805 0.049352188
0.5316487 0.034604978 0.04933944
0.53164256 0.035454154 0.049326692
0.53163648 0.03630333 0.049313944
0.53247911 0.037122197 0.049840994
0.53247303 0.037969779 0.049828269
0.53246689 0.038817361 0.049815547
0.53246081 0.039664943 0.049802821
0.53245473 0.040512525 0.049790096
0.53244859 0.041360106 0.049777374
0.53244251 0.042207688 0.049764648
0.53243643 0.04305527 0.049751926
0.53243029 0.043902852 0.049739201
0.53242421 0.044750433 0.049726479
0.53241813 0.045598011 0.049713753
0.53241199 0.046445597 0.049701028
0.53240591 0.047293179 0.049688306
0.53239983 0.048140761 0.04967558
0.53239369 0.048988339 0.049662858
0.53238761 0.049835924 0.049650133
0.53238153 0.050683502 0.049637411
0.53237545 0.051531088 0.049624685
0.53236932 0.052378669 0.04961196
0.53236324 0.053226251 0.049599238
0.53235716 0.054073833 0.049586512
0.53235102 0.054921415 0.04957379
0.53234494 0.055768993 0.049561065
0.53233886 0.056616578 0.049548343
0.53233272 0.057464156 0.049535617
0.53232664 0.058311742 0.049522892
0.53232056 0.059159324 0.04951017
0.53231442 0.060006905 0.049497444
0.53230834 0.060854487 0.049484722
0.53230226 0.061702065 0.049471997
0.53229612 0.062549643 0.049459275
0.53229004 0.063397229 0.049446549
0.53143483 0.0643261 0.048893262
0.53142869 0.06517528 0.048880514
0.53142262 0.066024452 0.048867766
0.53141648 0.066873632 0.048855018
0.5314104 0.067722805 0.04884227
0.53140426 0.068571977 0.048829522
0.53139818 0.06942115 0.048816774
0.53054291 0.070362762 0.04826333
0.53053677 0.071213536 0.04825056
0.53050447 0.031240348 0.047642473
0.53134596 0.032071978 0.048170552
0.53133988 0.032922741 0.048157778
0.53218144 0.033749592 0.048685927
0.5321753 0.034598768 0.048673179
0.53216922 0.03544794 0.048660431
0.53216308 0.036297116 0.048647683
0.532157 0.037146293 0.048634935
0.53215086 0.037995465 0.048622187
0.53214478 0.038844641 0.048609439
0.53298646 0.039658744 0.049137808
0.53298038 0.040506326 0.049125087
0.53297424 0.041353904 0.049112361
0.53296816 0.042201485 0.049099639
0.53296208 0.043049067 0.049086913
0.53295594 0.043896649 0.049074188
0.53294986 0.044744231 0.049061466
0.53294379 0.045591813 0.04904874
0.53293771 0.046439394 0.049036019
0.53293157 0.04728698 0.049023293
0.53292549 0.048134558 0.049010571
0.53291941 0.04898214 0.048997846
0.53291327 0.049829721 0.04898512
0.53290719 0.050677303 0.048972398
0.53290111 0.051524885 0.048959672
0.53289497 0.05237247 0.048946951
0.53288889 0.053220049 0.048934225
0.53288281 0.054067634 0.048921503
0.53287667 0.054915212 0.048908778
0.53287059 0.055762794 0.048896052
0.53286451 0.056610376 0.04888333
0.53285837 0.057457957 0.048870604
0.53285229 0.058305539 0.048857883
0.53284621 0.059153121 0.048845157
0.53284007 0.060000703 0.048832435
0.53283399 0.060848285 0.04881971
0.53282791 0.061695866 0.048806984
0.53282177 0.062543444 0.048794262
0.53196758 0.063470714 0.048239749
0.53196144 0.064319886 0.048227001
0.53195536 0.065169066 0.048214253
0.53194922 0.066018246 0.048201505
0.53194314 0.066867419 0.048188757
0.531937 0.067716591 0.048176009
0.53193092 0.068565764 0.048163261
0.53107667 0.069505773 0.047608588
0.53107053 0.07035654 0.047595818
0.53021622 0.071301326 0.047041073
0.5310331 0.031234113 0.046973713
0.53102696 0.032086473 0.04696092
0.5318675 0.03291652 0.047490269
0.53186136 0.033767287 0.047477495
0.53185529 0.034618057 0.047464725
0.53269583 0.03544173 0.04799417
0.53268975 0.036290903 0.047981422
0.53268361 0.037140079 0.047968674
0.53267753 0.037989255 0.047955927
0.53267139 0.038838428 0.047943179
0.53266531 0.039687604 0.047930431
0.53265917 0.04053678 0.047917683
0.53265309 0.041385952 0.047904935
0.53264695 0.042235129 0.047892187
0.53264087 0.043084301 0.047879439
0.53348166 0.04389045 0.048409179
0.53347552 0.044738032 0.048396457
0.53346944 0.04558561 0.048383731
0.53346336 0.046433195 0.04837101
0.53345722 0.047280777 0.048358284
0.53345114 0.048128359 0.048345562
0.53344506 0.048975937 0.048332836
0.53343892 0.049823523 0.048320111
0.53343284 0.050671101 0.048307389
0.53342676 0.051518686 0.048294663
0.53342062 0.052366268 0.048281942
0.53341454 0.05321385 0.048269216
0.53340846 0.054061431 0.048256494
0.53340232 0.054909013 0.048243769
0.53339624 0.055756591 0.048231043
0.53339016 0.056604173 0.048218321
0.53338403 0.057451755 0.048205595
0.53337795 0.058299337 0.048192874
0.53337187 0.059146922 0.048180148
0.53336579 0.0599945 0.048167426
0.53251255 0.060916979 0.047611732
0.53250647 0.061766151 0.047598984
0.53250033 0.062615328 0.047586236
0.53249425 0.0634645 0.047573488
0.53248811 0.064313672 0.04756074
0.53248203 0.065162852 0.047547992
0.53247589 0.066012032 0.047535244
0.53246981 0.066861205 0.047522496
0.53246367 0.067710377 0.047509748
0.53161043 0.068648778 0.046953849
0.53160429 0.069499545 0.046941079
0.53075099 0.070442729 0.046385109
0.52989763 0.071389101 0.045829087
0.52819705 0.072434269 0.044729743
0.52819753 0.028728144 0.044170205
0.529037 0.029570946 0.044700611
0.52987653 0.030410564 0.0452311
0.53071606 0.031246994 0.045761604
0.53155559 0.032080237 0.046292156
0.53154945 0.032932598 0.046279363
0.53238899 0.033761065 0.046809986
0.53238291 0.034611832 0.046797212
0.53237677 0.035462599 0.046784442
0.53237063 0.036313366 0.046771672
0.53236455 0.037164137 0.046758898
0.53320414 0.037983041 0.047289666
0.53319806 0.038832214 0.047276918
0.53319192 0.03968139 0.04726417
0.53318584 0.040530566 0.047251422
0.5331797 0.041379742 0.047238674
0.53317362 0.042228915 0.047225926
0.53316748 0.043078091 0.047213178
0.5331614 0.043927267 0.04720043
0.53315526 0.04477644 0.047187682
0.53314918 0.045625616 0.047174934
0.53314304 0.046474788 0.047162186
0.53398287 0.047274578 0.047693271
0.53397679 0.048122156 0.047680549
0.53397071 0.048969738 0.047667824
0.53396457 0.04981732 0.047655102
0.53395849 0.050664902 0.047642376
0.53395241 0.051512484 0.047629654
0.53394628 0.052360069 0.047616929
0.5339402 0.053207647 0.047604203
0.53393412 0.054055229 0.047591481
0.53392804 0.054902811 0.047578756
0.5339219 0.055750389 0.047566034
0.53391582 0.056597974 0.047553308
0.53390974 0.057445552 0.047540586
0.53305751 0.05836324 0.046983715
0.53305143 0.059212416 0.046970967
0.53304529 0.060061593 0.046958219
0.53303921 0.060910765 0.046945471
0.53303307 0.061759941 0.046932723
0.53302699 0.062609114 0.046919975
0.53302085 0.063458286 0.046907227
0.53301477 0.064307459 0.04689448
0.53300864 0.065156639 0.046881732
0.53300256 0.066005819 0.046868984
0.53215027 0.066941023 0.046311885
0.53214413 0.06779179 0.046299111
0.53213805 0.068642557 0.046286341
0.53213191 0.069493324 0.046273567
0.53127962 0.070436493 0.045716349
0.52958107 0.071476847 0.044614609
0.5287286 0.072427996 0.044057235
0.52702999 0.073479503 0.042955328
0.52533126 0.074537389 0.04185329
0.52447879 0.075501271 0.041295759
0.52193379 0.076672263 0.039648999
0.52023494 0.077749267 0.038546674
0.52284259 0.025342599 0.03973696
0.52452552 0.026193393 0.040812809
0.52536392 0.027048953 0.041344278
0.52704704 0.027888594 0.042420328
0.52788544 0.028736187 0.042951915
0.5287239 0.029580595 0.043483552
0.52956241 0.030421818 0.044015232
0.53040099 0.031259853 0.044546995
0.53123951 0.032094698 0.045078777
0.53207809 0.032926362 0.045610599
0.53207195 0.033778723 0.045597803
0.53291053 0.034605607 0.046129704
0.53290439 0.035456374 0.046116933
0.53289831 0.036307141 0.046104159
0.53289217 0.037157912 0.046091389
0.53288603 0.038008682 0.046078615
0.53287995 0.038859446 0.046065845
0.53287381 0.039710216 0.046053071
0.53286767 0.040560987 0.0460403
0.53370637 0.041373529 0.046572413
0.53370029 0.042222701 0.046559665
0.53369415 0.043071877 0.046546917
0.53368807 0.043921053 0.046534169
0.53368193 0.04477023 0.046521422
0.53367585 0.045619402 0.046508674
0.53366971 0.046468578 0.046495926
0.53366363 0.047317754 0.046483178
0.53365749 0.048166927 0.04647043
0.53365141 0.049016103 0.046457682
0.53364527 0.049865276 0.046444934
0.53363913 0.050714452 0.046432186
0.53363305 0.051563628 0.046419438
0.53362691 0.052412804 0.04640669
0.53362083 0.05326198 0.046393942
0.5336147 0.054111153 0.046381194
0.53360862 0.054960329 0.046368446
0.53360248 0.055809502 0.046355698
0.5335964 0.056658678 0.04634295
0.53359026 0.05750785 0.046330202
0.53358418 0.058357026 0.046317454
0.53357804 0.059206206 0.046304706
0.53357196 0.060055379 0.046291959
0.53356582 0.060904555 0.046279211
0.53355974 0.061753727 0.046266463
0.5335536 0.0626029 0.046253715
0.53354752 0.063452072 0.04624097
0.53354138 0.064301252 0.046228223
0.53269017 0.06523326 0.045669917
0.53268403 0.066084027 0.045657147
0.53267789 0.066934802 0.045644373
0.53267181 0.067785561 0.045631602
0.53266567 0.068636328 0.045618828
0.53181434 0.069577895 0.045060381
0.530963 0.070522651 0.044501889
0.52926636 0.071564585 0.043397594
0.52841496 0.072517306 0.04283898
0.52671832 0.073570378 0.041734546
0.52586681 0.074531071 0.041175779
0.52417004 0.075595297 0.040071182
0.52247328 0.076665901 0.038966488
0.52077639 0.077742882 0.037861664
0.52088892 0.020112066 0.037496157
0.52088267 0.02098673 0.037483025
0.52171993 0.021859827 0.038015481
0.52171361 0.0227329 0.038002376
0.52255094 0.023601217 0.038534902
0.52338833 0.024466349 0.039067507
0.52422565 0.025328293 0.03960013
0.52506304 0.026187053 0.040132798
0.52590042 0.027042624 0.040665515
0.52758157 0.027882287 0.041744068
0.52841902 0.028729893 0.042276904
0.52925652 0.029574312 0.042809792
0.53009397 0.030415546 0.043342724
0.53093159 0.031253591 0.043875735
0.5317691 0.032088451 0.044408765
0.53176296 0.032942407 0.044395942
0.53260058 0.033772487 0.044929046
0.53259444 0.034624852 0.04491625
0.5325883 0.03547721 0.044903453
0.53258216 0.036329571 0.044890657
0.53341979 0.037151687 0.045423876
0.53341365 0.038002457 0.045411106
0.53340757 0.038853224 0.045398332
0.53340143 0.039703991 0.045385562
0.53339529 0.040554762 0.045372792
0.53338921 0.041405529 0.045360018
0.53338307 0.042256296 0.045347247
0.53337693 0.043107063 0.045334473
0.53337085 0.043957833 0.045321703
0.53336471 0.0448086 0.045308929
0.53420246 0.045613188 0.045842417
0.53419638 0.046462364 0.045829669
0.53419024 0.047311541 0.045816921
0.53418416 0.048160717 0.045804173
0.53417802 0.049009889 0.045791425
0.53417194 0.049859062 0.045778677
0.5341658 0.050708238 0.045765929
0.53415972 0.051557414 0.045753181
0.53415358 0.052406594 0.045740433
0.5341475 0.053255767 0.045727685
0.53414136 0.054104943 0.045714937
0.53413528 0.054954115 0.045702189
0.53412914 0.055803288 0.045689441
0.53412306 0.056652464 0.045676693
0.53411692 0.057501636 0.045663945
0.53411084 0.058350816 0.045651197
0.5341047 0.059199993 0.045638449
0.53409863 0.060049165 0.045625702
0.53324842 0.060973197 0.045066267
0.53324229 0.06182396 0.045053493
0.53323615 0.062674731 0.045040723
0.53323001 0.063525498 0.045027949
0.53322393 0.064376265 0.045015179
0.53321779 0.065227039 0.045002408
0.53321165 0.066077806 0.044989634
0.53320557 0.066928573 0.044976864
0.53319943 0.06777934 0.04496409
0.53234911 0.068719305 0.044404421
0.53234297 0.069571659 0.044391625
0.53064841 0.07060878 0.04328493
0.52979797 0.071558312 0.042725082
0.52810329 0.072606586 0.041618221
0.52640855 0.073661238 0.040511236
0.52555811 0.074623503 0.039951228
0.52470756 0.075588956 0.039391171
0.52301276 0.076659538 0.038283978
0.52131784 0.077736497 0.037176654
0.52046728 0.078714691 0.036616407
0.5214377 0.019230999 0.036823027
0.52143139 0.020105666 0.036809895
0.52142507 0.020980332 0.036796767
0.52226138 0.02185344 0.037330471
0.52309769 0.022723364 0.037864223
0.52309144 0.023594841 0.037851144
0.52392781 0.024459986 0.038384996
0.52476418 0.02532194 0.038918871
0.52560055 0.026180713 0.039452791
0.52643698 0.027036294 0.039986756
0.52727342 0.027888693 0.040520772
0.52810991 0.028737903 0.041054871
0.5289464 0.029583927 0.041588981
0.53062558 0.030409276 0.042670213
0.53061944 0.031266417 0.042657346
0.53145599 0.032102879 0.043191634
0.5322926 0.03293616 0.043725934
0.53228647 0.033790115 0.043713115
0.53312308 0.034618616 0.044247489
0.53311694 0.035470974 0.044234693
0.5331108 0.036323335 0.044221897
0.53310466 0.0371757 0.0442091
0.53309852 0.038028058 0.044196308
0.53309238 0.038880419 0.044183511
0.53392905 0.039697766 0.044718049
0.53392297 0.040548537 0.044705279
0.53391683 0.041399304 0.044692509
0.53391069 0.042250071 0.044679735
0.53390455 0.043100841 0.044666965
0.53389847 0.043951608 0.044654191
0.53389233 0.044802375 0.04464142
0.53388619 0.045653146 0.04462865
0.53388011 0.046503913 0.044615876
0.53387398 0.04735468 0.044603106
0.53386784 0.04820545 0.044590332
0.53386176 0.049056217 0.044577561
0.53385562 0.049906984 0.044564787
0.53384948 0.050757751 0.044552017
0.53384334 0.051608521 0.044539247
0.53468025 0.05240038 0.045074172
0.53467411 0.053249553 0.045061424
0.53466803 0.054098729 0.045048676
0.5338189 0.055011597 0.044488158
0.53381276 0.055862363 0.044475388
0.53380662 0.056713127 0.044462614
0.53380054 0.057563897 0.044449843
0.5337944 0.058414668 0.044437069
0.53378826 0.059265435 0.044424299
0.53378212 0.060116205 0.044411529
0.53377604 0.060966972 0.044398755
0.53376991 0.061817735 0.044385985
0.53376377 0.062668502 0.044373211
0.53375769 0.063519277 0.04436044
0.53375155 0.064370044 0.044347666
0.53374541 0.06522081 0.044334896
0.5328961 0.066155985 0.043774046
0.53289002 0.067008339 0.04376125
0.53288388 0.067860708 0.043748453
0.53287774 0.068713069 0.043735657
0.53202838 0.069656201 0.043174688
0.53117901 0.070602521 0.04261367
0.5294863 0.071645997 0.04150435
0.52863687 0.07260029 0.040943213
0.5269441 0.07365492 0.039833724
0.52609462 0.074617177 0.039272469
0.52524507 0.075582616 0.038711164
0.52355224 0.076653175 0.037601467
0.52270263 0.077626579 0.03704001
0.52100974 0.078708291 0.035930146
0.52198011 0.019224601 0.036136769
0.52281541 0.020100906 0.036671676
0.52280915 0.02097398 0.03665857
0.52280283 0.021847052 0.036645461
0.52363819 0.022716988 0.037180461
0.52363187 0.023588466 0.037167378
0.52446729 0.024453621 0.03770249
0.52530265 0.025315588 0.038237609
0.52613807 0.02617437 0.03877278
0.52697349 0.027029965 0.039307997
0.52780896 0.027882375 0.039843261
0.52864444 0.028731596 0.040378608
0.52947992 0.029577632 0.040913969
0.53031546 0.030420484 0.041449379
0.531151 0.031260148 0.041984838
0.53114486 0.032117285 0.04197197
0.53198045 0.032952167 0.042507529
0.53197432 0.033807717 0.042494684
0.53280991 0.03463782 0.043030288
0.53280377 0.035491776 0.043017466
0.53363943 0.036317099 0.04355314
0.53363329 0.037169464 0.043540344
0.53362715 0.038021822 0.043527547
0.53362101 0.038874183 0.043514751
0.53361487 0.039726544 0.043501955
0.53360873 0.040578909 0.043489162
0.5336026 0.041431271 0.043476366
0.53359646 0.042283628 0.043463569
0.53359032 0.043135989 0.043450773
0.53358418 0.043988351 0.043437976
0.5335781 0.044840712 0.04342518
0.53441387 0.045646921 0.043961141
0.53440773 0.046497688 0.043948367
0.5344016 0.047348458 0.043935597
0.53439546 0.048199225 0.043922827
0.53438938 0.049049992 0.043910053
0.53438324 0.049900763 0.043897282
0.5343771 0.050751526 0.043884508
0.53437102 0.051602297 0.043871738
0.53436488 0.052453067 0.043858968
0.53435874 0.053303834 0.043846194
0.53435266 0.054154601 0.043833423
0.53434652 0.055005372 0.043820649
0.53434038 0.055856138 0.043807879
0.53433424 0.056706902 0.043795105
0.53432816 0.057557672 0.043782335
0.53432202 0.058408443 0.043769564
0.53431588 0.05925921 0.04375679
0.5343098 0.06010998 0.04374402
0.53430367 0.060960747 0.043731246
0.53429753 0.061811514 0.043718476
0.53344929 0.062740304 0.043156471
0.53344315 0.063592657 0.043143675
0.53343701 0.064445026 0.043130878
0.53343087 0.065297388 0.043118082
0.53342474 0.066149749 0.043105286
0.5334186 0.067002103 0.043092493
0.5325703 0.067942046 0.042530321
0.5325641 0.068796001 0.042517498
0.53171575 0.06974072 0.041955255
0.53086728 0.070688628 0.04139293
0.53001887 0.071639717 0.04083059
0.52832818 0.072689541 0.039718706
0.52747965 0.073648602 0.039156213
0.52578884 0.074709579 0.038044162
0.52494031 0.075676598 0.037481584
0.52409178 0.076646812 0.036918957
0.52324313 0.077620208 0.036356248
0.52239454 0.078596793 0.035793528
0.52238822 0.07946986 0.035780422
0.52336317 0.019221447 0.035999771
0.52335685 0.020094519 0.035986666
0.5233506 0.020967592 0.03597356
0.52418494 0.021839131 0.036509786
0.52417862 0.022710612 0.036496703
0.52501303 0.02357737 0.037033036
0.52500677 0.024447257 0.037019975
0.52584118 0.025309235 0.03755635
0.52667558 0.02616803 0.03809277
0.52751005 0.027023636 0.038629238
0.52834445 0.027876057 0.039165754
0.52917904 0.028725291 0.039702348
0.5300135 0.029571338 0.040238962
0.53084803 0.030414201 0.040775619
0.53084189 0.031272933 0.040762726
0.53167641 0.032111015 0.041299459
0.53251106 0.032945909 0.041836269
0.53250492 0.033801459 0.041823424
0.53249872 0.034657005 0.041810583
0.53333336 0.035485528 0.042347457
0.53332722 0.03633948 0.042334639
0.53332108 0.037193436 0.04232182
0.53331494 0.038047392 0.042308997
0.5333088 0.038901344 0.042296179
0.53414351 0.039720308 0.042833194
0.53413737 0.040572673 0.042820398
0.53413123 0.041425034 0.042807601
0.53412509 0.042277392 0.042794809
0.53411895 0.043129753 0.042782012
0.53411281 0.043982118 0.042769216
0.53410667 0.044834476 0.04275642
0.53410053 0.045686841 0.042743623
0.53409445 0.046539199 0.042730827
0.53408831 0.04739156 0.042718034
0.53408217 0.048243921 0.042705238
0.53407604 0.049096283 0.042692441
0.5340699 0.049948644 0.042679645
0.53406376 0.050801005 0.042666849
0.53489864 0.051596072 0.043204226
0.5348925 0.052446842 0.043191455
0.53488642 0.053297609 0.043178685
0.53488028 0.05414838 0.043165911
0.53487414 0.054999147 0.043153141
0.534868 0.055849914 0.043140367
0.53486192 0.05670068 0.043127596
0.53485578 0.057551447 0.043114826
0.53484964 0.058402218 0.043102052
0.53400242 0.059324618 0.042538892
0.53399628 0.060176983 0.042526096
0.53399014 0.061029341 0.0425133
0.53398407 0.061881702 0.042500503
0.53397793 0.062734067 0.042487711
0.53397179 0.063586421 0.042474914
0.53396565 0.06443879 0.042462118
0.53311831 0.065373935 0.041898768
0.53311217 0.066227891 0.04188595
0.53310603 0.067081846 0.041873131
0.53225869 0.068023361 0.041309681
0.53225249 0.068878911 0.04129684
0.53224635 0.069734454 0.041283995
0.53055763 0.070774704 0.04016972
0.52971017 0.071727373 0.039606109
0.52886271 0.072683237 0.039042447
0.5280152 0.073642284 0.038478706
0.52716768 0.074604519 0.037914947
0.52547884 0.07567025 0.036800325
0.52463126 0.076640442 0.036236446
0.52378362 0.077613831 0.03567249
0.52377731 0.078485318 0.035659406
0.52377105 0.07935679 0.035646323
0.46690428 0.0062352344 -0.0019291143
0.47193399 0.0073508988 0.0013575759
0.52475047 0.018346837 0.035878353
0.52474421 0.019218316 0.035865273
0.52473795 0.020089796 0.03585219
0.52473164 0.020961275 0.035839107
0.52472538 0.021832755 0.035826024
0.52555877 0.02270112 0.036363583
0.52555251 0.023571005 0.036350522
0.5263859 0.024434591 0.036888123
0.5263797 0.025302883 0.036875088
0.5272131 0.026161689 0.037412755
0.52804655 0.027017307 0.037950475
0.52888 0.027869739 0.038488239
0.52971357 0.028718984 0.039026085
0.53054708 0.029565044 0.039563946
0.53054088 0.030425372 0.039551031
0.53137445 0.031266652 0.040088966
0.53136826 0.032125387 0.040076073
0.53220183 0.032961886 0.040614076
0.53219569 0.033819027 0.040601209
0.53302932 0.034650747 0.04113932
0.53302318 0.035506293 0.041126475
0.53301704 0.03636184 0.041113634
0.5330109 0.03721739 0.041100789
0.53384453 0.038041145 0.041638982
0.53383839 0.038895097 0.041626163
0.53383225 0.039749052 0.041613344
0.53382611 0.040603008 0.041600525
0.53381997 0.04145696 0.041587703
0.53381383 0.042310916 0.041574884
0.53380769 0.043164868 0.041562065
0.53380156 0.044018827 0.041549247
0.53379542 0.044872779 0.041536424
0.53378928 0.045726731 0.041523606
0.53462303 0.046532962 0.042062066
0.53461695 0.047385324 0.04204927
0.53461081 0.048237689 0.042036477
0.53460467 0.049090046 0.042023681
0.53459853 0.049942408 0.042010885
0.53459239 0.050794769 0.041998088
0.53458625 0.051647134 0.041985292
0.53458011 0.052499495 0.041972496
0.53457397 0.053351853 0.041959703
0.53456783 0.054204218 0.041946907
0.53456169 0.055056576 0.04193411
0.53455561 0.055908937 0.041921314
0.53454947 0.056761302 0.041908517
0.53454334 0.05761366 0.041895721
0.5345372 0.058466025 0.041882925
0.53453106 0.059318382 0.041870132
0.53452492 0.060170747 0.041857336
0.53451878 0.061023105 0.041844539
0.53451264 0.061875466 0.041831743
0.53366637 0.062805824 0.041267212
0.53366023 0.06365978 0.041254394
0.53365409 0.064513728 0.041241575
0.53364795 0.065367691 0.041228753
0.53280157 0.06630601 0.040664107
0.53279543 0.06716156 0.040651262
0.53278929 0.068017103 0.040638421
0.53194284 0.068961807 0.040073641
0.53193665 0.069818944 0.040060773
0.5310902 0.070768423 0.03949596
0.53024375 0.071721077 0.038931094
0.52939725 0.072676927 0.038366184
0.52771044 0.073733084 0.03724917
0.52770418 0.074598186 0.037236184
0.52685767 0.075563595 0.036671128
0.52601105 0.076532185 0.036106024
0.52516448 0.077503964 0.035540875
0.5243178 0.07847894 0.034975644
0.52431154 0.079350419 0.034962561
0.5809828 0.2547617 0.070318572
0.58097732 0.25552323 0.070307136
0.52446496 0.016589453 0.034669068
0.52529722 0.017468981 0.035207674
0.5261296 0.018345322 0.035746366
0.52612334 0.019215209 0.035733305
0.52611709 0.020085096 0.035720248
0.52611083 0.020954981 0.035707191
0.52610457 0.021824868 0.03569413
0.52609831 0.022694755 0.035681073
0.52693069 0.023559945 0.036219895
0.52776307 0.024421947 0.036758766
0.52775687 0.025288647 0.036745757
0.52858931 0.026145872 0.037284698
0.52858305 0.027010977 0.037271712
0.52941555 0.027863422 0.037810728
0.53024811 0.028712679 0.038349826
0.53108066 0.02955875 0.038888935
0.53107446 0.030419078 0.038876019
0.53190702 0.031260367 0.039415203
0.53190082 0.032119103 0.039402314
0.53189468 0.032977838 0.03938942
0.53272724 0.033812754 0.039928697
0.5327211 0.034669898 0.03991583
0.5327149 0.035527039 0.039902963
0.53354764 0.036355581 0.040442374
0.5335415 0.037211131 0.040429529
0.5335353 0.038066678 0.040416684
0.53352916 0.038922224 0.040403843
0.53352302 0.039777771 0.040390998
0.53351682 0.040633321 0.040378153
0.53351068 0.041488867 0.040365309
0.53350455 0.042344414 0.040352467
0.53349841 0.04319996 0.040339623
0.53349221 0.04405551 0.040326778
0.534325 0.044866532 0.040866416
0.53431886 0.045720484 0.040853597
0.53431273 0.04657444 0.040840778
0.53430659 0.047428399 0.040827956
0.53430045 0.048282351 0.040815137
0.53429431 0.049136303 0.040802319
0.53428817 0.049990255 0.0407895
0.53428197 0.050844215 0.040776677
0.53427583 0.051698171 0.040763859
0.53510875 0.052493259 0.041303735
0.53510261 0.053345617 0.041290939
0.53509647 0.054197982 0.041278142
0.53509033 0.05505034 0.04126535
0.53508419 0.055902701 0.041252553
0.53507811 0.056755066 0.041239757
0.53507197 0.057607424 0.041226961
0.53506583 0.058459789 0.041214164
0.53422058 0.059383761 0.040648483
0.53421438 0.060237713 0.040635664
0.53420824 0.061091665 0.040622842
0.5342021 0.061945625 0.040610023
0.53335679 0.062877558 0.040044222
0.53335065 0.063733108 0.040031377
0.53334451 0.064588651 0.040018532
0.53333831 0.065444201 0.040005691
0.53333217 0.066299751 0.039992847
0.53248674 0.067241251 0.039426867
0.5324806 0.068098396 0.039414
0.5324744 0.068955533 0.039401133
0.53162897 0.069903404 0.03883509
0.53078353 0.070854455 0.038268998
0.52993804 0.071808703 0.037702862
0.52909249 0.07276614 0.037136644
0.52824694 0.073726751 0.036570407
0.52824074 0.07459186 0.036557421
0.52739519 0.075557254 0.035991117
0.52654958 0.07652583 0.035424765
0.52654332 0.077394128 0.03541173
0.52569771 0.078367487 0.034845304
0.52569145 0.079237372 0.034832247
0.52568519 0.080107257 0.034819186
0.57725543 0.25566223 0.066948362
0.57977629 0.25496945 0.068614215
0.5806129 0.25524515 0.069161892
0.58144963 0.25551766 0.069709629
0.47398388 0.0063888193 0.00039984458
0.48067671 0.0075382683 0.0048071574
0.52584398 0.016591126 0.034536999
0.52583772 0.017462606 0.034523915
0.52666909 0.018338958 0.035063855
0.52666283 0.019208845 0.035050794
0.52665657 0.020078732 0.035037737
0.52665031 0.020948619 0.035024676
0.52748168 0.021817006 0.035564706
0.52747542 0.022685299 0.035551671
0.52830684 0.023548907 0.036091767
0.52830058 0.024415607 0.036078759
0.52913207 0.025274435 0.036618929
0.52912581 0.026139542 0.036605939
0.52995729 0.026993589 0.037146185
0.5299511 0.027857104 0.037133221
0.53078264 0.028706372 0.037673563
0.53161418 0.029552456 0.038213927
0.53160799 0.030412784 0.038201012
0.53160185 0.031273112 0.038188096
0.53243339 0.032112822 0.038728554
0.53242725 0.032971554 0.038715661
0.53242105 0.033830289 0.038702771
0.53325266 0.034663625 0.039243322
0.53324652 0.035520766 0.039230455
0.53324032 0.036377907 0.039217584
0.53323418 0.037235051 0.039204717
0.53322804 0.038092189 0.03919185
0.53322184 0.038949329 0.039178982
0.5332157 0.03980647 0.039166115
0.53404742 0.040627062 0.039706893
0.53404129 0.041482609 0.039694048
0.53403515 0.042338155 0.039681207
0.53402901 0.043193702 0.039668363
0.53402281 0.044049252 0.039655518
0.53401667 0.044904798 0.039642677
0.53401053 0.045760345 0.039629832
0.53400433 0.046615891 0.039616987
0.53399819 0.047471445 0.039604146
0.53399205 0.048326991 0.039591301
0.53398591 0.049182538 0.039578456
0.53397971 0.050038084 0.039565615
0.53397357 0.050893631 0.039552771
0.53396744 0.051749181 0.039539926
0.53479934 0.052545875 0.040081032
0.5347932 0.053399831 0.040068209
0.534787 0.054253783 0.04005539
0.53478086 0.055107739 0.040042572
0.53477472 0.055961695 0.040029753
0.53476858 0.056815647 0.040016931
0.53476244 0.057669599 0.040004112
0.5347563 0.058523558 0.039991293
0.533912 0.05944911 0.039424334
0.53390586 0.060304657 0.039411493
0.53389972 0.061160203 0.039398648
0.53389353 0.062015753 0.039385803
0.53388739 0.0628713 0.039372962
0.53304297 0.063806415 0.038805824
0.53303683 0.064663552 0.038792957
0.53303063 0.065520704 0.038780089
0.53302449 0.066377841 0.038767222
0.53218007 0.067320921 0.038200006
0.53217387 0.068179652 0.038187113
0.53216773 0.069038391 0.038174223
0.53132325 0.069987833 0.037606906
0.53131706 0.070848159 0.037593991
0.53047258 0.071802393 0.037026603
0.52962804 0.072759822 0.036459133
0.5287835 0.073720425 0.035891648
0.52877724 0.074585527 0.035878662
0.5279327 0.075550914 0.035311107
0.52708811 0.076519482 0.034743503
0.52708185 0.07738778 0.034730468
0.52623719 0.078361116 0.034162793
0.52623093 0.079231009 0.034149736
0.52622467 0.080100894 0.034136675
0.52621841 0.080970787 0.034123618
0.52621216 0.081840672 0.034110557
0.5262059 0.082710557 0.0340975
0.57689154 0.25614244 0.065784231
0.57856828 0.25593871 0.066893429
0.58024508 0.25572857 0.068002723
0.58108073 0.25600269 0.068551674
0.50799906 0.013687581 0.021701718
0.52721483 0.017462708 0.034394406
0.52888179 0.018342365 0.035489824
0.52803892 0.019205773 0.034922548
0.52886933 0.020075766 0.035463803
0.5280264 0.02094236 0.034896478
0.52885681 0.021809166 0.035437781
0.52885062 0.022675866 0.035424769
0.52884436 0.023542566 0.03541176
0.52967483 0.024402998 0.035953153
0.52966857 0.025268106 0.035940167
0.53049904 0.02612376 0.036481634
0.53049284 0.026987273 0.03646867
0.53048664 0.027850786 0.036455709
0.53131723 0.028700067 0.036997303
0.53131104 0.029561987 0.036984365
0.53214157 0.030406488 0.037526
0.53213537 0.031266816 0.037513085
0.53212917 0.032127142 0.037500169
0.53295982 0.032965273 0.038041901
0.53295362 0.033824008 0.038029008
0.53294742 0.03468274 0.038016118
0.53294128 0.035541475 0.038003225
0.53377193 0.036371637 0.038545076
0.53376579 0.037228778 0.038532209
0.53375959 0.038085919 0.038519341
0.53375345 0.03894306 0.038506474
0.53374726 0.039800201 0.038493607
0.53374112 0.040657341 0.03848074
0.53373492 0.041514482 0.038467873
0.53372878 0.042371623 0.038455006
0.53372258 0.043228764 0.038442139
0.53371644 0.044085905 0.038429271
0.53371024 0.044943046 0.038416401
0.5337041 0.045800187 0.038403533
0.5336979 0.046657328 0.038390666
0.53369176 0.047514468 0.038377799
0.53368556 0.048371609 0.038364932
0.53451651 0.049176279 0.038907196
0.53451031 0.050031826 0.038894355
0.53450418 0.050887372 0.03888151
0.53449804 0.051742923 0.038868666
0.53449184 0.052598469 0.038855825
0.5344857 0.053454019 0.03884298
0.53447956 0.054309566 0.038830135
0.53447342 0.055165112 0.038817294
0.53446722 0.056020658 0.038804449
0.53446108 0.056876205 0.038791604
0.53445494 0.057731755 0.038778763
0.5344488 0.058587305 0.038765918
0.5344426 0.059442852 0.038753074
0.53443646 0.060298398 0.038740233
0.53359306 0.061228722 0.038171921
0.53358692 0.062085863 0.038159054
0.53358072 0.062943004 0.038146183
0.53357458 0.063800149 0.038133316
0.53273118 0.06473843 0.037564918
0.53272504 0.065597169 0.037552025
0.53271884 0.066455901 0.037539136
0.53271264 0.06731464 0.037526242
0.53186923 0.068260893 0.036957726
0.53186303 0.069121219 0.03694481
0.53185683 0.069981545 0.036931895
0.53101331 0.070934169 0.036363281
0.53016979 0.071889982 0.035794586
0.53016353 0.072753504 0.035781622
0.52932 0.073714092 0.035212889
0.5293138 0.074579202 0.035199903
0.52847022 0.075544573 0.034631096
0.52846396 0.076411277 0.034618087
0.52762032 0.077381425 0.034049209
0.52761412 0.078249715 0.034036174
0.52677041 0.079224646 0.033467226
0.52676415 0.080094531 0.033454169
0.5267579 0.080964424 0.033441108
0.52675164 0.081834309 0.033428051
0.52674538 0.082704186 0.03341499
0.56983107 0.2573674 0.060171865
0.57736975 0.2561368 0.065179221
0.57904452 0.25593308 0.066290922
0.57987916 0.256212 0.066841051
0.58071387 0.25648773 0.067391239
0.47936481 0.0064946995 0.001653368
0.5035544 0.012687681 0.017671924
0.51023239 0.013706675 0.022101196
0.5285899 0.017462833 0.034267362
0.5294193 0.018336024 0.034809813
0.52941304 0.019202724 0.034796804
0.52940685 0.020069424 0.034783792
0.52940059 0.020936124 0.034770783
0.52939433 0.021802824 0.034757771
0.53022379 0.022666456 0.035300367
0.53021753 0.023531562 0.03528738
0.53021133 0.024396671 0.035274394
0.53104079 0.025253927 0.035817087
0.53103459 0.026117442 0.035804123
0.53102839 0.026980955 0.035791159
0.53185797 0.027831841 0.036333982
0.53185177 0.02869376 0.036321044
0.53184557 0.02955568 0.036308106
0.53267515 0.030400194 0.036850989
0.53266895 0.031260524 0.036838073
0.53266275 0.03212085 0.036825158
0.53265655 0.032981176 0.036812242
0.53348619 0.033817723 0.037355252
0.53348005 0.034676459 0.037342358
0.53347385 0.03553519 0.037329469
0.53346765 0.036393926 0.037316576
0.53346151 0.037252661 0.037303682
0.53345531 0.038111396 0.037290793
0.53344911 0.038970128 0.0372779
0.53344297 0.039828863 0.03726501
0.53343678 0.040687598 0.037252117
0.53343058 0.04154633 0.037239227
0.53342444 0.042405065 0.037226334
0.53341824 0.043263797 0.037213445
0.53424799 0.044079635 0.03775676
0.53424186 0.044936772 0.037743893
0.53423566 0.045793917 0.037731025
0.53422952 0.046651058 0.037718158
0.53422332 0.047508199 0.037705287
0.53421718 0.04836534 0.03769242
0.53421098 0.049222481 0.037679553
0.53420484 0.050079618 0.037666686
0.5341987 0.050936759 0.037653819
0.5341925 0.051793903 0.037640952
0.53418636 0.052651048 0.037628084
0.53418016 0.053508185 0.037615217
0.53417403 0.054365326 0.03760235
0.53416783 0.055222467 0.037589483
0.53416169 0.056079607 0.037576612
0.53415549 0.056936745 0.037563745
0.53414935 0.057793885 0.037550878
0.53414315 0.05865103 0.037538011
0.53413701 0.059508175 0.037525143
0.53413081 0.060365316 0.037512276
0.53412467 0.061222453 0.037499409
0.53328228 0.062155951 0.036929831
0.53327614 0.063014679 0.036916941
0.53326994 0.063873418 0.036904048
0.53326374 0.064732149 0.036891159
0.53242135 0.065673612 0.036321461
0.53241515 0.066533938 0.036308546
0.53240895 0.067394271 0.03629563
0.53240275 0.068254597 0.036282714
0.5315603 0.069204018 0.035712898
0.5315541 0.070065938 0.03569996
0.53071153 0.071020156 0.035130039
0.53070533 0.071883664 0.035117075
0.52986276 0.072842658 0.034547117
0.5298565 0.073707767 0.03453413
0.5298503 0.074572869 0.034521144
0.52900773 0.075538233 0.033951089
0.52900147 0.076404937 0.033938076
0.52815884 0.077375069 0.03336795
0.52815259 0.07824336 0.033354916
0.52814633 0.079111651 0.033341881
0.5273037 0.080088168 0.032771654
0.52729744 0.080958061 0.032758597
0.52729118 0.081827939 0.032745536
0.52644837 0.082810834 0.032175187
0.52560562 0.083796903 0.031604823
0.56948477 0.25705406 0.059004661
0.57115734 0.25688222 0.060118385
0.57199079 0.25718504 0.0606694
0.57366341 0.25700206 0.061783291
0.5753361 0.25681269 0.06289728
0.57868165 0.25641486 0.065125532
0.57951528 0.25669539 0.065676883
0.58118814 0.25648212 0.066791229
0.50246006 0.011732768 0.01585377
0.52912843 0.017456481 0.0335861
0.52995682 0.018329684 0.034129806
0.5307852 0.019199699 0.034673557
0.530779 0.020064807 0.03466057
0.53077275 0.020929912 0.034647584
0.53076655 0.02179502 0.034634598
0.53076029 0.022660127 0.034621608
0.53158879 0.023520583 0.035165504
0.53158259 0.024384096 0.035152543
0.53157634 0.025247611 0.035139579
0.53157014 0.026111124 0.035126615
0.5323987 0.026963614 0.03567066
0.5323925 0.027825534 0.035657723
0.5323863 0.028687455 0.035644785
0.53321487 0.029533572 0.036188893
0.53320873 0.0303939 0.036175981
0.53320253 0.031254228 0.036163066
0.53319633 0.032114554 0.03615015
