# .PCD v0.7 - Point Cloud Data file format
VERSION 0.7
FIELDS x y z
SIZE 4 4 4
TYPE F F F
COUNT 1 1 1
WIDTH 1352
HEIGHT 1
VIEWPOINT 0 0 0 1 0 0 0
POINTS 1352
DATA ascii
0.56588781 0.032478213 0.0092911171
0.56666911 0.033300992 0.0098955873
0.56745046 0.034120586 0.010500105
0.56744438 0.034963384 0.010487453
0.5682258 0.035778198 0.011092079
0.56821978 0.03661941 0.011079451
0.5690012 0.037429441 0.011684112
0.56899512 0.038269054 0.011671508
0.56977659 0.039074309 0.012276242
0.56977057 0.039912332 0.01226366
0.57055205 0.040712807 0.012868466
0.57054603 0.041549239 0.012855909
0.57132751 0.042344932 0.013460785
0.5721091 0.043137442 0.014065747
0.57210314 0.043970682 0.014053239
0.57288468 0.044758413 0.014658234
0.57287872 0.045590062 0.01464575
0.57366031 0.046373013 0.015250818
0.57365435 0.047203068 0.015238357
0.57443595 0.047981236 0.015843496
0.57442999 0.048809703 0.015831059
0.5752117 0.049583089 0.016436271
0.57520574 0.050409965 0.016423857
0.57519978 0.051236834 0.016411444
0.57598156 0.052003846 0.017016789
0.5759756 0.05282912 0.017004399
0.57675737 0.053591363 0.017609779
0.57675147 0.054415043 0.017597413
0.57674551 0.055238727 0.017585048
0.57752734 0.055994593 0.018190522
0.57752138 0.056816686 0.018178182
0.57830322 0.057567772 0.018783728
0.57829732 0.05838827 0.01877141
0.57829142 0.059208766 0.018759092
0.57828552 0.060029265 0.018746775
0.57906747 0.060772378 0.019352477
0.57906157 0.061591282 0.019340184
0.57984352 0.06232962 0.019945921
0.57983762 0.063146941 0.019933652
0.57983172 0.063964248 0.019921383
0.58061373 0.064696215 0.020527216
0.58060783 0.065511927 0.020514971
0.58060199 0.066327646 0.020502726
0.58059609 0.067143366 0.020490479
0.58059025 0.067959085 0.020478234
0.58058435 0.068774804 0.020465989
0.58136642 0.069495618 0.021071989
0.58136058 0.070309743 0.021059766
0.58135474 0.071123868 0.021047546
0.58056092 0.072037674 0.020417005
0.58055502 0.072853386 0.02040476
0.57976121 0.073771976 0.019774148
0.57975531 0.07458929 0.019761879
0.57896143 0.075512648 0.019131195
0.57895553 0.076331563 0.019118901
0.57816154 0.077259704 0.018488109
0.57815564 0.0780802 0.018475791
0.57814974 0.078900702 0.018463476
0.5773558 0.079835229 0.017832624
0.5773499 0.080657311 0.017820282
0.57734394 0.0814794 0.017807942
0.57733804 0.08230149 0.0177956
0.57733214 0.08312358 0.017783258
0.57653809 0.084067658 0.017152265
0.57653219 0.084891342 0.017139899
0.57652622 0.085715018 0.017127534
0.57573217 0.086665474 0.016496444
0.55400532 0.0084162643 -0.00090081303
0.55399907 0.0092877438 -0.00091389578
0.55477893 0.010179044 -0.00030916731
0.55477268 0.01104893 -0.00032222617
0.55555254 0.011935448 0.00028253719
0.55554634 0.012803742 0.00026950228
0.55632621 0.013685481 0.00087433739
0.55632001 0.014552181 0.00086132641
0.55709994 0.01542914 0.0014662333
0.55709374 0.016294247 0.0014532461
0.55787367 0.017166426 0.0020582248
0.55786747 0.018029939 0.0020452617
0.55864751 0.018897342 0.0026503489
0.55864131 0.019759262 0.0026374096
0.55942136 0.020621883 0.0032425318
0.56020147 0.021481317 0.0038477017
0.56019527 0.02234005 0.0038348103
0.56097537 0.023194704 0.004440052
0.56096917 0.024051847 0.0044271844
0.5617494 0.02490172 0.0050325347
0.56252956 0.025748409 0.0056378962
0.56252342 0.026602363 0.0056250766
0.56330359 0.027444273 0.0062305094
0.56408381 0.028282996 0.0068359906
0.56407768 0.029133765 0.0068232184
0.56485796 0.029967709 0.0074287714
0.56485182 0.030816883 0.0074160234
0.56563216 0.031646047 0.0080216844
0.56641245 0.032472022 0.008627357
0.56640637 0.033318013 0.0086146565
0.56718671 0.034139208 0.0092204008
0.56796712 0.034957219 0.0098261926
0.56796104 0.035800021 0.0098135406
0.5687415 0.036613256 0.01041944
0.56873542 0.037454464 0.010406813
0.56951582 0.038262915 0.011012748
0.5695098 0.039102528 0.011000143
0.57029027 0.039906204 0.01160615
0.57028425 0.040744223 0.01159357
0.57106477 0.041543119 0.012199649
0.57105875 0.042379547 0.012187093
0.57183927 0.043173663 0.012793243
0.57183325 0.044008497 0.01278071
0.57261389 0.044797827 0.013386969
0.57339448 0.045583978 0.013993239
0.57338852 0.046415627 0.013980755
0.5741691 0.047196992 0.014587097
0.57416314 0.048027053 0.014574636
0.57494384 0.048803639 0.015181049
0.57493788 0.049632102 0.015168612
0.57493192 0.05046057 0.015156175
0.57571262 0.051230785 0.015762685
0.57570666 0.052057654 0.015750272
0.57648742 0.052823085 0.016356889
0.57648152 0.053648364 0.016344501
0.57726228 0.054409016 0.016951153
0.57725638 0.055232704 0.016938789
0.57725042 0.056056384 0.016926423
0.57803124 0.056810673 0.017533172
0.57802534 0.057632763 0.01752083
0.57801944 0.058454853 0.017508488
0.57880032 0.059202764 0.018115332
0.57879442 0.060023259 0.018103015
0.57878852 0.060843758 0.018090697
0.57956946 0.061585292 0.018697675
0.57956356 0.062404197 0.018685382
0.57955766 0.063223101 0.018673088
0.58033866 0.063958265 0.019280123
0.58033276 0.064775579 0.019267853
0.58032686 0.065592885 0.019255584
0.58110785 0.066321678 0.019862715
0.58110201 0.067137398 0.01985047
0.58109611 0.067953117 0.019838223
0.58109027 0.068768837 0.019825978
0.58108443 0.069584556 0.019813733
0.58107853 0.070400268 0.019801486
0.58107269 0.071215987 0.019789241
0.58106679 0.072031707 0.019776996
0.58106095 0.072847418 0.019764749
0.58026809 0.073765993 0.019132888
0.58026218 0.074583307 0.019120619
0.57946926 0.075506657 0.018488685
0.57946342 0.076325566 0.018476391
0.57945752 0.077144466 0.018464098
0.57866454 0.078074194 0.017832031
0.57865864 0.078894697 0.017819716
0.57865268 0.0797152 0.017807398
0.57864678 0.080535695 0.01779508
0.57864088 0.08135619 0.017782763
0.57863498 0.082176685 0.017770445
0.577842 0.083117567 0.017138248
0.57783604 0.083939657 0.017125906
0.577043 0.084885314 0.016493639
0.5770371 0.085708998 0.016481275
0.576244 0.086659439 0.015848935
0.57623804 0.087484717 0.015836544
0.55608481 0.012797389 -0.00041175843
0.55607855 0.013665683 -0.00042479334
0.55685753 0.014545839 0.00018131571
0.55685127 0.015412539 0.0001683047
0.55763024 0.016287917 0.00077448552
0.55762404 0.017153025 0.00076149841
0.55840302 0.018023623 0.001367751
0.55839682 0.018887136 0.0013547878
0.55917591 0.019752955 0.001961149
0.55916965 0.020614875 0.0019482097
0.55994874 0.021475915 0.0025546057
0.56072783 0.022333769 0.0031610497
0.56072164 0.023192503 0.0031481583
0.56150079 0.024045575 0.003754674
0.56149459 0.024902716 0.0037418064
0.5622738 0.02575101 0.0043484308
0.56305301 0.026596116 0.0049550659
0.56304687 0.027450072 0.0049422462
0.56382608 0.028290398 0.0055489531
0.5646053 0.02912754 0.0061557083
0.56459922 0.029978309 0.0061429362
0.56537849 0.030810671 0.0067497627
0.56537235 0.031659845 0.0067370147
0.56615174 0.032487426 0.0073439502
0.56693107 0.033311822 0.0079508964
0.56692499 0.034157809 0.007938196
0.56770432 0.034977425 0.0085452143
0.56848371 0.035793856 0.0091522802
0.56847763 0.036636658 0.0091396272
0.56925714 0.037448309 0.009746802
0.56925106 0.038289517 0.0097341733
0.57003051 0.039096385 0.010341383
0.57002449 0.039936002 0.010328779
0.570804 0.040738095 0.01093606
0.57079798 0.041576117 0.010923479
0.57157749 0.042373426 0.011530831
0.57157147 0.043209858 0.011518275
0.57235104 0.044002391 0.0121257
0.57234502 0.044837225 0.012113167
0.57312465 0.045624975 0.0127207
0.57311869 0.046458218 0.012708192
0.57389832 0.047241192 0.01331576
0.5738923 0.048072841 0.013303274
0.57467198 0.048851036 0.013910915
0.57466602 0.04968109 0.013898454
0.57544571 0.050454509 0.014506165
0.57543975 0.051282972 0.014493728
0.5762195 0.052051604 0.015101511
0.57621354 0.052878477 0.015089098
0.57699335 0.053642325 0.015696989
0.57698739 0.054467604 0.015684601
0.57698148 0.055292878 0.015672212
0.57776129 0.05605036 0.016280163
0.57775533 0.056874048 0.016267797
0.57774943 0.057697728 0.016255433
0.5785293 0.058448836 0.016863478
0.57852334 0.05927093 0.016851136
0.57930326 0.060017258 0.017459255
0.57929736 0.060837753 0.017446937
0.57929146 0.061658252 0.017434621
0.57928556 0.062478747 0.017422304
0.58006555 0.063217111 0.018030578
0.58005965 0.064036012 0.018018285
0.58083963 0.064769603 0.018626593
0.58083373 0.06558691 0.018614324
0.58082789 0.066404223 0.018602055
0.58082199 0.06722153 0.018589785
0.58081609 0.068038844 0.018577516
0.5815962 0.068762869 0.019185968
0.58159029 0.069578588 0.019173723
0.58158445 0.0703943 0.019161478
0.58157855 0.071210019 0.019149231
0.58157271 0.072025739 0.019136986
0.58156681 0.072841451 0.019124741
0.58077496 0.073760018 0.018491628
0.58076906 0.074577332 0.018479358
0.58076316 0.075394638 0.018467089
0.57997125 0.076319575 0.017833881
0.57996535 0.077138476 0.017821588
0.57995951 0.077957377 0.017809294
0.57995361 0.078776293 0.017797001
0.57916158 0.079709195 0.017163638
0.57915568 0.08052969 0.01715132
0.57914978 0.081350192 0.017139003
0.57914388 0.08217068 0.017126685
0.5783518 0.083111554 0.016493239
0.57834589 0.083933644 0.016480897
0.57833999 0.084755734 0.016468557
0.57754791 0.085702971 0.015835013
0.57754201 0.086526662 0.015822649
0.57674986 0.087478682 0.015189034
0.55738878 0.015406199 -0.00051170593
0.55738252 0.016272899 -0.00052471692
0.55816054 0.017146695 8.2737803e-05
0.55815434 0.018011803 6.9750706e-05
0.55893236 0.01888082 0.00067727716
0.55892611 0.019744333 0.00066431402
0.55970424 0.02060857 0.0012719493
0.55969805 0.021470491 0.0012590099
0.56047612 0.022329949 0.00186668
0.56125426 0.02318622 0.0024743977
0.56124806 0.024044953 0.0024615063
0.5620262 0.024896445 0.003069296
0.56202006 0.025753586 0.0030564284
0.56279826 0.026600298 0.0036643266
0.56357646 0.027443824 0.004272236
0.56357032 0.028297778 0.0042594164
0.56434858 0.029136524 0.0048673972
0.56512684 0.029972084 0.0054754256
0.5651207 0.030822853 0.0054626539
0.56589901 0.031653631 0.0060707545
0.56589288 0.032502808 0.0060580065
0.56667125 0.033328805 0.0066662156
0.56744963 0.034151621 0.0072744358
0.56744355 0.034997609 0.0072617359
0.56822193 0.035815641 0.0078700278
0.56900036 0.036630493 0.0084783677
0.56899428 0.037473295 0.0084657148
0.56977278 0.038283359 0.0090741636
0.5697667 0.039124571 0.0090615349
0.5705452 0.039929859 0.0096700182
0.57053918 0.040769476 0.0096574137
0.57131767 0.041569985 0.010265969
0.57131165 0.042408008 0.010253388
0.57209021 0.043203738 0.010862015
0.57208419 0.044040166 0.010849458
0.57286274 0.044831116 0.011458157
0.57285678 0.045665953 0.011445624
0.5736354 0.04645212 0.012054431
0.57362944 0.047285363 0.012041923
0.57440811 0.048066754 0.012650765
0.57440209 0.048898403 0.012638279
0.57518077 0.049675018 0.013247194
0.57517481 0.050505079 0.013234733
0.57595354 0.051276911 0.013843718
0.57594758 0.052105371 0.013831281
0.57672632 0.052872427 0.014440338
0.57672036 0.053699296 0.014427925
0.57749921 0.054461565 0.015037091
0.57749331 0.05528684 0.015024702
0.57748735 0.056112114 0.015012313
0.5782662 0.05686802 0.015621537
0.57826024 0.057691704 0.015609172
0.57825434 0.058515385 0.015596807
0.5790332 0.059264913 0.016206127
0.5790273 0.060087007 0.016193785
0.57902139 0.060909092 0.016181445
0.57980031 0.061652247 0.016790859
0.57979441 0.062472746 0.016778544
0.57978851 0.063293248 0.016766226
0.58056754 0.064030021 0.017375775
0.58056164 0.064848922 0.017363481
0.58055574 0.06566783 0.017351188
0.58133477 0.066398241 0.017960794
0.58132887 0.067215547 0.017948525
0.58132303 0.068032861 0.017936256
0.58131713 0.068850167 0.017923987
0.58209622 0.06957262 0.018533712
0.58209032 0.070388332 0.018521467
0.58208448 0.071204051 0.01850922
0.58207858 0.072019771 0.018496975
0.58207273 0.072835483 0.01848473
0.58128184 0.073754035 0.017850367
0.58127594 0.074571349 0.017838098
0.5812701 0.075388655 0.017825829
0.5812642 0.076205976 0.01781356
0.5812583 0.077023283 0.01780129
0.58046734 0.077951387 0.017166784
0.58046144 0.078770295 0.017154491
0.5804556 0.079589203 0.017142197
0.5804497 0.080408104 0.017129904
0.5804438 0.081227012 0.01711761
0.57965273 0.082164682 0.016482925
0.57964683 0.082985178 0.016470607
0.57885575 0.083927624 0.015835887
0.57884985 0.084749721 0.015823545
0.57805878 0.085696943 0.015188754
0.57805282 0.086520635 0.015176388
0.57726169 0.08747264 0.014541524
0.55869085 0.018005474 -0.00060900999
0.55868465 0.018870581 -0.00062199705
0.55946165 0.019738015 -1.3196646e-05
0.55945545 0.02060153 -2.6159829e-05
0.56023258 0.021464184 0.00058274943
0.56022638 0.022326106 0.00056981016
0.56100351 0.023183981 0.001178754
0.56178063 0.024038671 0.0017877457
0.56177443 0.024897406 0.0017748543
0.56255162 0.025747316 0.0023839178
0.56254548 0.026604455 0.0023710504
0.56332272 0.027449585 0.0029802227
0.56409997 0.028291529 0.0035894057
0.56409377 0.029145485 0.003576586
0.56487107 0.029982651 0.004185841
0.56564832 0.030816628 0.0047951434
0.56564224 0.031667396 0.0047823717
0.56641954 0.032496594 0.0053917463
0.56719697 0.033322606 0.0060012056
0.56719083 0.034170188 0.0059884815
0.56796819 0.034991421 0.0065979753
0.56796211 0.035837408 0.0065852753
0.56873953 0.036653861 0.0071948408
0.56873345 0.037498258 0.007182165
0.56951094 0.038309932 0.0077918023
0.57028842 0.039118417 0.0084015252
0.5702824 0.039959624 0.0083888965
0.57027632 0.040800836 0.0083762677
0.57105386 0.041602947 0.0089860493
0.57183141 0.042401876 0.0095958784
0.57182533 0.043239899 0.0095832972
0.57181931 0.044077922 0.0095707169
0.57259691 0.044870477 0.010180642
0.57337451 0.045659848 0.010790613
0.57336849 0.046494685 0.010778082
0.57414621 0.047279269 0.011388162
0.57414019 0.048112512 0.011375654
0.57491785 0.048892319 0.011985769
0.57491189 0.049723972 0.011973284
0.57568961 0.050499007 0.012583472
0.57568365 0.051329061 0.012571012
0.57646137 0.05209931 0.013181271
0.57645541 0.052927773 0.013168833
0.5772332 0.053693246 0.013779164
0.57722723 0.054520115 0.013766752
0.57722127 0.055346984 0.013754339
0.57799917 0.056106079 0.014364802
0.57799321 0.056931358 0.014352413
0.57798731 0.057756633 0.014340024
0.57876515 0.058509357 0.014950546
0.57875925 0.059333045 0.014938181
0.57875329 0.060156725 0.014925816
0.57953125 0.06090308 0.015536434
0.57952529 0.061725169 0.015524093
0.58030325 0.062466744 0.016134782
0.58029735 0.063287243 0.016122466
0.58029145 0.064107738 0.016110148
0.58028555 0.064928234 0.016097831
0.58106363 0.06566184 0.016708678
0.58105773 0.066480741 0.016696384
0.58105183 0.067299649 0.016684091
0.58182991 0.068026885 0.017294995
0.581824 0.068844192 0.017282726
0.5818181 0.069661506 0.017270455
0.58181226 0.070478819 0.017258186
0.58259034 0.071198083 0.017869212
0.5825845 0.072013803 0.017856965
0.5825786 0.072829515 0.01784472
0.58178872 0.07374806 0.017209109
0.58178282 0.074565373 0.017196838
0.58177698 0.07538268 0.017184569
0.58177108 0.076199993 0.017172299
0.58176517 0.077017307 0.01716003
0.58175933 0.077834614 0.017147761
0.58175343 0.078651927 0.01713549
0.58174753 0.079469234 0.01712322
0.58095753 0.080402113 0.016487394
0.58095169 0.081221022 0.0164751
0.58094579 0.082039915 0.016462807
0.58015567 0.08297918 0.015826847
0.58014977 0.083799675 0.01581453
0.57935971 0.084743708 0.015178535
0.57856959 0.085690916 0.014542493
0.57777947 0.086641319 0.013906403
0.57620507 0.087723233 0.01264648
0.559991 0.020595212 -0.00070367043
0.5599848 0.021458725 -0.00071663363
0.56076092 0.022319799 -0.00010645038
0.56075472 0.02318172 -0.00011938963
0.56153089 0.024038015 0.00049082818
0.562307 0.024891123 0.0011010938
0.56230086 0.025749857 0.0010882025
0.56307703 0.026598185 0.0016985398
0.56385332 0.027443327 0.0023089622
0.56384712 0.028298873 0.0022961188
0.56462342 0.029139237 0.0029065756
0.56539971 0.029976415 0.0035170803
0.56539357 0.030828776 0.0035042847
0.56616986 0.031661171 0.0041148611
0.56616372 0.032511938 0.0041020894
0.56694007 0.033339556 0.0047127376
0.56771648 0.034163985 0.005323471
0.5677104 0.035011567 0.0053107468
0.56848681 0.03583122 0.0059215147
0.56848073 0.036677208 0.0059088147
0.56925714 0.037492082 0.0065196543
0.56925106 0.038336474 0.0065069785
0.57002753 0.039146565 0.0071178898
0.57002145 0.039989371 0.0071052373
0.57079804 0.040794678 0.0077162581
0.57079196 0.04163589 0.0077036293
0.57156855 0.042436421 0.008314684
0.57156247 0.043276038 0.0083020804
0.57233906 0.04407179 0.0089132069
0.57233304 0.044909813 0.0089006266
0.57310963 0.045700785 0.0095118247
0.57310361 0.046537217 0.0094992677
0.57388026 0.047323409 0.010110538
0.57465696 0.048106417 0.010721893
0.57465094 0.04893966 0.010709384
0.57542765 0.049717888 0.011320774
0.57542169 0.050549541 0.011308289
0.5761984 0.051322989 0.011919751
0.57619244 0.052153043 0.011907291
0.57696921 0.052921712 0.012518823
0.57696325 0.053750176 0.012506386
0.57695729 0.05457864 0.012493949
0.57773411 0.055340935 0.013105579
0.57772815 0.056167804 0.013093165
0.57850504 0.056925319 0.013704903
0.57849914 0.057750598 0.013692514
0.57849318 0.058575876 0.013680125
0.57927006 0.059327018 0.014291921
0.57926416 0.060150702 0.014279556
0.5792582 0.060974386 0.01426719
0.58003515 0.061719153 0.014879082
0.58002925 0.062541246 0.014866741
0.58002335 0.063363336 0.0148544
0.58080029 0.064101741 0.015466387
0.58079439 0.064922236 0.015454071
0.58078849 0.065742731 0.015441753
0.58078259 0.066563226 0.015429435
0.58155972 0.067293651 0.016041581
0.58155382 0.06811256 0.016029287
0.58154792 0.06893146 0.016016994
0.58232498 0.06965553 0.016629197
0.58231914 0.070472836 0.016616926
0.58231324 0.07129015 0.016604656
0.58230734 0.072107457 0.016592387
0.5823015 0.07292477 0.016580118
0.5822956 0.073742077 0.016567849
0.5822897 0.074559391 0.016555579
0.58228385 0.075376697 0.016543308
0.58227795 0.076194018 0.016531039
0.58227205 0.077011324 0.01651877
0.58226621 0.077828631 0.016506501
0.58226031 0.078645945 0.016494231
0.58225441 0.079463258 0.01648196
0.58224857 0.080280572 0.016469691
0.58145952 0.081215031 0.01583259
0.58145362 0.082033925 0.015820296
0.58066452 0.082973175 0.015183087
0.57987547 0.083915599 0.014545867
0.57908636 0.084861211 0.013908599
0.5782972 0.085810006 0.013271282
0.57672483 0.086888708 0.012008906
0.5751524 0.087973781 0.010746472
0.56128925 0.023175413 -0.00079565012
0.56128305 0.024037335 -0.00080858939
0.56205821 0.024892047 -0.00019709778
0.56283343 0.025743574 0.00041444186
0.56282723 0.026602307 0.00040155044
0.56360245 0.027449055 0.0010131617
0.56437773 0.028292615 0.0016248581
0.56437159 0.029148163 0.0016120145
0.56514686 0.029986944 0.0022237455
0.56592214 0.03082254 0.002835524
0.56591606 0.031674899 0.0028227284
0.5666914 0.032505713 0.0034345789
0.56668526 0.033356484 0.0034218072
0.5674606 0.034182519 0.0040337294
0.56823605 0.035005368 0.0046457364
0.56822997 0.03585295 0.0046330127
0.56900537 0.03667102 0.0052450546
0.56899929 0.037517007 0.0052323546
0.56977475 0.038330298 0.0058444683
0.56976867 0.039174691 0.005831792
0.57054418 0.039983205 0.0064439774
0.5705381 0.040826004 0.0064313249
0.57131368 0.041629735 0.0070436192
0.57208925 0.042430278 0.0076559242
0.57208318 0.043269895 0.0076433197
0.57285881 0.044065658 0.0082556969
0.57285273 0.044903684 0.0082431156
0.57284671 0.045741707 0.0082305353
0.57362235 0.0465311 0.0088430075
0.57361633 0.047367524 0.0088304514
0.57439202 0.048152141 0.0094429953
0.574386 0.048986975 0.0094304625
0.57516176 0.049766805 0.010043115
0.57593745 0.050543457 0.010655779
0.57593149 0.051375106 0.010643295
0.57670724 0.052146971 0.01125603
0.57670128 0.052977029 0.011243569
0.57669532 0.053807084 0.011231109
0.57747108 0.054572579 0.011843939
0.57746512 0.055401042 0.011831502
0.57824099 0.056161754 0.012444405
0.57823503 0.056988627 0.012431992
0.57822907 0.057815496 0.012419579
0.579005 0.058569837 0.013032614
0.57899904 0.059395112 0.013020226
0.57899314 0.060220391 0.013007836
0.57976907 0.060968358 0.013620931
0.57976311 0.061792042 0.013608566
0.57975721 0.062615722 0.0135962
0.58053321 0.063357323 0.01420939
0.58052725 0.064179413 0.014197049
0.5813033 0.064916231 0.014810311
0.5812974 0.065736726 0.014797993
0.5812915 0.066557229 0.014785675
0.5812856 0.067377724 0.014773358
0.58127964 0.068198219 0.014761041
0.58205581 0.06892547 0.015374483
0.58204991 0.069744378 0.015362189
0.58282602 0.070466854 0.015975667
0.58282012 0.071284167 0.015963396
0.58281428 0.072101474 0.015951127
0.58280838 0.072918788 0.015938858
0.58280247 0.073736101 0.015926588
0.58279663 0.074553408 0.015914319
0.58279073 0.075370722 0.01590205
0.58278483 0.076188035 0.015889779
0.58277899 0.077005349 0.015877509
0.58277309 0.077822655 0.01586524
0.58276719 0.078639962 0.015852971
0.58276135 0.079457276 0.015840702
0.58275545 0.080274589 0.015828431
0.58196741 0.081209034 0.015190081
0.58196151 0.082027934 0.015177787
0.58117342 0.08296717 0.014539327
0.58038533 0.083909586 0.013900856
0.57959718 0.084855184 0.013262339
0.57802677 0.085929073 0.011997534
0.57567418 0.087136038 0.010106447
0.57410365 0.088224284 0.008841427
0.5633598 0.026596025 -0.00027221011
0.56413406 0.027442785 0.0003406512
0.56412786 0.028299924 0.00032778369
0.56490219 0.029141903 0.00094075408
0.56489605 0.029997453 0.0009279105
0.56567031 0.030834651 0.0015409153
0.56644464 0.031668663 0.002153968
0.56643856 0.032521024 0.0021411723
0.56721288 0.033350259 0.0027542966
0.56720674 0.03420103 0.0027415247
0.56798118 0.035025481 0.003354721
0.56875563 0.035846747 0.0039680023
0.56874949 0.036694329 0.0039552785
0.56952399 0.03751082 0.004568594
0.56951785 0.038356807 0.0045558941
0.57029235 0.039168514 0.0051692817
0.57028627 0.040012911 0.0051566055
0.57106078 0.040819839 0.0057700644
0.5718354 0.041623581 0.006383609
0.57182932 0.042464789 0.0063709808
0.57260394 0.043263752 0.0069845594
0.57259786 0.044103369 0.0069719548
0.57337248 0.044897553 0.0075856056
0.57336646 0.045735575 0.0075730253
0.57336044 0.046573598 0.0075604445
0.57413507 0.047361407 0.0081741912
0.57412905 0.048197836 0.0081616342
0.57490373 0.048980866 0.0087754522
0.57489777 0.049815703 0.0087629193
0.57567251 0.050593954 0.0093768463
0.57566649 0.051427197 0.0093643377
0.57644129 0.052200671 0.0099783
0.57643527 0.05303232 0.0099658147
0.57721007 0.053801011 0.010579848
0.57720411 0.054631066 0.010567388
0.57797897 0.055394981 0.011181492
0.57797295 0.056223441 0.011169055
0.57874787 0.056982577 0.011783232
0.57874191 0.05780945 0.011770818
0.57873595 0.058636319 0.011758406
0.57951087 0.059389077 0.012372715
0.57950497 0.060214352 0.012360326
0.57949901 0.061039627 0.012347938
0.58027399 0.061786015 0.012962305
0.58026803 0.062609695 0.01294994
0.58026212 0.063433386 0.012937575
0.5810371 0.0641734 0.013552039
0.5810312 0.06499549 0.013539697
0.5810253 0.06581758 0.013527356
0.58180034 0.066551223 0.014141915
0.58179444 0.067371719 0.014129598
0.58178854 0.068192214 0.014117281
0.58178264 0.069012716 0.014104963
0.5825578 0.069738388 0.014719679
0.5825519 0.070557289 0.014707386
0.582546 0.071376197 0.014695092
0.58254009 0.072195098 0.014682799
0.58331525 0.072912812 0.015297597
0.58330935 0.073730119 0.015285328
0.58330351 0.074547432 0.015273059
0.58329761 0.075364739 0.015260789
0.58329171 0.076182052 0.015248519
0.58328587 0.076999366 0.01523625
0.58327997 0.077816673 0.01522398
0.58327407 0.078633986 0.015211711
0.58326823 0.0794513 0.015199441
0.58326232 0.080268607 0.015187171
0.5824753 0.081203043 0.014547571
0.5824694 0.082021944 0.014535277
0.58168226 0.082961172 0.013895568
0.58011395 0.084025472 0.012628444
0.57932681 0.084972657 0.011988651
0.57775837 0.086048119 0.010721323
0.57462746 0.08738333 0.0081989495
0.57227767 0.088602997 0.0063039209
0.56465328 0.029150795 -0.00035759411
0.56542665 0.029991193 0.00025665009
0.56542051 0.030846739 0.00024380651
0.56619382 0.031682357 0.00085808552
0.56696713 0.032514788 0.001472412
0.56696099 0.03336715 0.0014596162
0.56773442 0.034194805 0.0020740144
0.56772828 0.035045572 0.0020612425
0.56850171 0.035868444 0.0026757128
0.5692752 0.03668813 0.0032902681
0.56926906 0.037535708 0.0032775439
0.57004255 0.038350616 0.0038921339
0.57003647 0.039196603 0.0038794337
0.57080996 0.040006734 0.0044940952
0.57158351 0.040813673 0.0051088044
0.57157743 0.041656476 0.005096152
0.57235104 0.042458635 0.0057109706
0.57234502 0.043299843 0.0056983423
0.57311857 0.044097226 0.006313195
0.57311255 0.044936839 0.0063005905
0.57388616 0.045729443 0.0069155153
0.57388014 0.046567466 0.0069029345
0.57387412 0.047405489 0.0068903542
0.57464778 0.048191715 0.0075053745
0.57464176 0.049028147 0.0074928175
0.57541549 0.049809594 0.0081079099
0.57540947 0.050644431 0.0080953771
0.57618326 0.051421098 0.0087105781
0.5761773 0.052254342 0.0086980695
0.57695109 0.053026233 0.0093133049
0.57694507 0.053857882 0.0093008196
0.57771891 0.054624993 0.0099161277
0.57771295 0.055455051 0.0099036666
0.5784868 0.05621738 0.010519045
0.57848084 0.057045847 0.010506609
0.57847488 0.057874307 0.010494171
0.57924873 0.058630269 0.011109645
0.57924283 0.059457138 0.011097233
0.57923687 0.060284007 0.011084819
0.58001083 0.061033588 0.011700427
0.58000493 0.061858866 0.011688038
0.57999897 0.062684141 0.011675649
0.58077294 0.063427359 0.012291315
0.58076704 0.064251043 0.01227895
0.58076108 0.065074727 0.012266585
0.58153516 0.065811567 0.012882346
0.5815292 0.066633657 0.012870004
0.5815233 0.067455746 0.012857663
0.58229738 0.068186216 0.013473521
0.58229148 0.069006711 0.013461203
0.58228558 0.069827214 0.013448886
0.58227968 0.070647709 0.013436568
0.58305389 0.071370199 0.014052583
0.58304799 0.072189108 0.014040289
0.58304209 0.073008008 0.014027996
0.58381623 0.073724136 0.014644069
0.58381039 0.07454145 0.014631798
0.58380449 0.075358763 0.014619529
0.58379859 0.076176077 0.01460726
0.58379275 0.076993391 0.01459499
0.58378685 0.07781069 0.014582721
0.58378094 0.078628004 0.01457045
0.5837751 0.079445317 0.014558181
0.5837692 0.080262631 0.014545912
0.58298314 0.081197053 0.01390506
0.58219701 0.082134664 0.013264124
0.58219111 0.082955167 0.013251808
0.58062482 0.084019452 0.011982184
0.57905835 0.085090116 0.010712427
0.57671171 0.086292222 0.0088139111
0.57436496 0.087503895 0.0069152149
0.56595105 0.030840481 -0.0004274539
0.56594491 0.031696029 -0.00044029747
0.56671727 0.032530062 0.00017525516
0.56748962 0.033360913 0.00079085596
0.56748348 0.034213278 0.00077806017
0.5682559 0.035039347 0.0013937324
0.56902832 0.03586223 0.0020094523
0.56902224 0.036711406 0.0019967044
0.56979471 0.03752951 0.0026125337
0.56978863 0.038377091 0.0025998096
0.57056111 0.039190415 0.0032156736
0.57055503 0.040036403 0.0032029734
0.57132757 0.040844951 0.0038189087
0.5721001 0.04165031 0.004434892
0.57209408 0.042493112 0.0044222395
0.57286668 0.043293688 0.0050383317
0.57286066 0.0441349 0.0050257035
0.57363325 0.044930696 0.0056418306
0.57362723 0.045770314 0.0056292261
0.57439989 0.046561334 0.0062454245
0.57439387 0.047399357 0.0062328437
0.57438785 0.04823738 0.0062202634
0.5751605 0.049022026 0.0068365573
0.57515448 0.049858455 0.0068240007
0.57592726 0.050638326 0.0074403668
0.57592124 0.051473163 0.007427834
0.57669407 0.052248247 0.008044309
0.57668805 0.05308149 0.0080318004
0.57746089 0.053851798 0.0086483099
0.57745486 0.054683447 0.0086358255
0.5782277 0.055448979 0.0092524057
0.57822174 0.056279033 0.0092399456
0.57821578 0.057109095 0.0092274845
0.57898867 0.057868246 0.0098441606
0.57898271 0.058696713 0.0098317238
0.5797556 0.059451088 0.010448473
0.57974964 0.060277961 0.010436059
0.57974374 0.06110483 0.010423646
0.58051676 0.061852828 0.011040528
0.5805108 0.062678106 0.011028139
0.58050483 0.063503385 0.01101575
0.58049893 0.064328663 0.01100336
0.58127195 0.065068699 0.011620324
0.58126599 0.065892383 0.011607959
0.58126009 0.066716067 0.011595594
0.58203316 0.067449734 0.012212654
0.58202726 0.068271823 0.012200312
0.5820213 0.069093913 0.012187971
0.58279443 0.069821209 0.012805126
0.58278853 0.070641704 0.012792808
0.58278263 0.071462199 0.012780491
0.58355582 0.072183117 0.013397779
0.58354992 0.073002018 0.013385486
0.58354408 0.073820926 0.013373192
0.58353817 0.074639827 0.013360899
0.58431137 0.075352781 0.013978269
0.58430552 0.076170094 0.013966
0.58429962 0.076987408 0.01395373
0.58429372 0.077804714 0.01394146
0.58428788 0.078622028 0.013929191
0.58428198 0.079439342 0.013916921
0.58349693 0.080372155 0.013274845
0.58349103 0.081191063 0.013262551
0.58270586 0.082128666 0.012620364
0.58192074 0.083069451 0.011978168
0.58035642 0.084135309 0.010706021
0.57879192 0.085207544 0.0094337398
0.57644826 0.0864112 0.0075314506
0.57332516 0.087751098 0.0049990052
0.56864339 0.089360259 0.0012063332
0.56724685 0.032523815 -0.00049475516
0.56724072 0.033377774 -0.00050757488
0.56801212 0.034207042 0.00010929958
0.56878352 0.035033122 0.00072622189
0.56877744 0.035883889 0.00071345002
0.56954885 0.036705196 0.001330444
0.56954277 0.037554368 0.0013176962
0.57031429 0.038370889 0.0019347992
0.57030821 0.03921847 0.0019220753
0.57107973 0.040030215 0.0025392128
0.57185125 0.040838771 0.0031563982
0.57184517 0.041683167 0.003143722
0.57261676 0.042486943 0.003760979
0.57261068 0.043329749 0.0037483268
0.57338238 0.044128746 0.0043656933
0.5733763 0.04496995 0.004353065
0.57414794 0.045764171 0.0049704658
0.57414192 0.046603784 0.0049578613
0.57491356 0.047393225 0.0055753337
0.57490754 0.048231248 0.005562753
0.57490152 0.04906927 0.0055501726
0.57567322 0.049852334 0.0061677406
0.5756672 0.050688766 0.006155184
0.57643896 0.051467054 0.0067728241
0.576433 0.052301891 0.0067602913
0.57642698 0.053136725 0.0067477585
0.5771988 0.053908639 0.0073655313
0.57719284 0.054741878 0.0073530227
0.57796466 0.055509012 0.0079708295
0.5779587 0.056340661 0.0079583451
0.57873058 0.057103023 0.0085762236
0.57872456 0.057933077 0.0085637635
0.5794965 0.058690652 0.0091817137
0.57949054 0.059519116 0.0091692768
0.57948458 0.060347576 0.0091568399
0.58025652 0.06109878 0.0097748861
0.58025056 0.06192565 0.0097624734
0.58024466 0.062752515 0.0097500598
0.58101666 0.063497342 0.01036824
0.58101076 0.064322628 0.010355851
0.5810048 0.065147899 0.010343461
0.58177686 0.065886356 0.010961698
0.5817709 0.06671004 0.010949333
0.581765 0.067533724 0.010936968
0.5817591 0.068357401 0.010924603
0.58253115 0.069087893 0.01154296
0.58252525 0.06990999 0.011530619
0.58329737 0.070635706 0.012149048
0.58329147 0.071456201 0.01213673
0.58328557 0.072276697 0.012124414
0.58327967 0.073097192 0.012112096
0.58405191 0.073814929 0.012730682
0.58404601 0.074633837 0.012718389
0.58404016 0.075452738 0.012706095
0.58403426 0.076271646 0.012693802
0.5848065 0.076981433 0.01331247
0.5848006 0.077798732 0.013300201
0.58479476 0.078616045 0.013287931
0.58401066 0.079547264 0.012644628
0.58400476 0.080366164 0.012632335
0.58322066 0.081302166 0.011988922
0.58321476 0.082122661 0.011976604
0.5824306 0.083063439 0.011333157
0.58008993 0.084251136 0.0094273202
0.57852751 0.085324936 0.0081525529
0.57618672 0.086530171 0.0062464518
0.57306761 0.087871604 0.0037090199
0.56917006 0.089354046 0.00054007268
0.56854075 0.034200806 -0.00055946142
0.56853461 0.035053167 -0.00057225715
0.56930506 0.035877664 4.5939149e-05
0.56929892 0.036728434 3.3167278e-05
0.57006943 0.037548155 0.00065143529
0.57006329 0.038397331 0.0006386874
0.57083386 0.039212272 0.0012570645
0.57082778 0.040059853 0.0012443406
0.57159829 0.040870015 0.001862752
0.57236886 0.041676991 0.0024812114
0.57236278 0.042521384 0.0024685352
0.57313341 0.04332358 0.0030870663
0.57312733 0.044166386 0.0030744141
0.57389802 0.044963796 0.0036930544
0.57389194 0.045805007 0.0036804259
0.57466263 0.046597645 0.0042991005
0.57465661 0.047437258 0.004286496
0.57542729 0.048225116 0.0049052425
0.57542127 0.049063139 0.0048926622
0.57541519 0.049901161 0.0048800814
0.57618594 0.050682649 0.0054989234
0.57617998 0.051519081 0.0054863663
0.57617396 0.052355506 0.0054738098
0.57694471 0.053130619 0.0060927477
0.57693875 0.053965457 0.0060802149
0.57770962 0.05473578 0.0066992622
0.5777036 0.055569023 0.0066867536
0.57847446 0.056334578 0.0073058344
0.5784685 0.05716623 0.0072933496
0.57846248 0.057997879 0.0072808648
0.57923341 0.058757059 0.0079000415
0.57922745 0.059587117 0.0078875804
0.57999837 0.060341515 0.0085068289
0.57999241 0.061169978 0.008494392
0.57998645 0.061998442 0.0084819552
0.58075744 0.062746465 0.0091012996
0.58075148 0.063573338 0.009088886
0.58074552 0.064400211 0.0090764733
0.58151662 0.065141864 0.0096959509
0.58151066 0.065967135 0.0096835615
0.58150476 0.066792414 0.0096711721
0.58227581 0.067527696 0.010290708
0.58226991 0.068351381 0.010278343
0.58226401 0.069175065 0.010265977
0.58303511 0.069903977 0.010885608
0.58302921 0.070726067 0.010873267
0.58302325 0.071548156 0.010860926
0.58379447 0.072270691 0.011480653
0.58378857 0.073091194 0.011468336
0.58378261 0.073911689 0.011456018
0.58377671 0.074732184 0.011443701
0.584548 0.075446747 0.012063585
0.5845421 0.076265655 0.012051292
0.58453625 0.077084556 0.012038998
0.58453035 0.077903457 0.012026705
0.58452445 0.078722365 0.01201441
0.58451855 0.079541273 0.012002117
0.58451265 0.080360174 0.011989824
0.58372951 0.081296161 0.011345161
0.5837236 0.082116656 0.011332844
0.58216321 0.083177686 0.010055768
0.58060277 0.084245086 0.008778559
0.57826501 0.08544232 0.0068688653
0.57514989 0.086774148 0.0043265396
0.57203472 0.088118732 0.001784022
0.56891942 0.089476056 -0.00075868692
0.56982654 0.036722209 -0.00063434325
0.56982046 0.03757298 -0.00064711511
0.57058996 0.038391117 -2.7573051e-05
0.57058382 0.039240293 -4.0320989e-05
0.57135344 0.040053651 0.00057933049
0.57212299 0.040863827 0.0011989913
0.57211685 0.041709814 0.0011862913
0.57288647 0.042515207 0.0018060247
0.57288039 0.043359604 0.0017933485
0.57365 0.044160217 0.0024131536
0.57364398 0.045003019 0.0024005014
0.57441366 0.045798853 0.0030204158
0.57440758 0.046640065 0.0030077875
0.57517731 0.047431115 0.0036277361
0.57517123 0.048270732 0.0036151318
0.57516521 0.049110349 0.0036025273
0.57593495 0.04989503 0.0042225714
0.57592893 0.050733056 0.0042099906
0.57669872 0.05151296 0.0048301062
0.5766927 0.052349389 0.0048175496
0.57668668 0.053185817 0.004804993
0.57745647 0.053959347 0.005425205
0.57745045 0.054794181 0.0054126722
0.57744443 0.055629019 0.0054001394
0.57821435 0.056396171 0.0060204845
0.57820839 0.057229418 0.0060079754
0.5789783 0.057991795 0.0066283545
0.57897228 0.058823444 0.0066158697
0.57974225 0.059581045 0.0072363205
0.57973623 0.060411099 0.0072238594
0.57973027 0.061241154 0.0072113983
0.58050025 0.061992381 0.0078319451
0.58049428 0.062820844 0.0078195082
0.58048832 0.063649312 0.0078070709
0.58125836 0.064394161 0.0084277131
0.5812524 0.065221034 0.0084153004
0.58124644 0.066047899 0.0084028868
0.58201659 0.066786379 0.0090236627
0.58201063 0.06761165 0.0090112733
0.58200473 0.068436928 0.0089988839
0.58277482 0.069169037 0.0096197175
0.58276892 0.069992721 0.0096073523
0.58276296 0.070816405 0.0095949871
0.58353311 0.071542136 0.010215916
0.58352721 0.072364233 0.010203575
0.58352131 0.073186323 0.010191233
0.58429152 0.073905684 0.010812258
0.58428562 0.074726179 0.010799941
0.58427972 0.075546682 0.010787623
0.58427382 0.076367177 0.010775306
0.58504409 0.077078566 0.011396488
0.58503819 0.077897467 0.011384195
0.58503234 0.078716375 0.0113719
0.58425015 0.079649165 0.010726037
0.58424425 0.08046966 0.010713719
0.58423835 0.081290163 0.010701401
0.58345622 0.082229316 0.010055479
0.5818978 0.083291918 0.0087758787
0.58033931 0.08436089 0.007496146
0.57800454 0.085559674 0.0055826781
0.57489336 0.086893044 0.0030353286
0.57178211 0.088239186 0.00048778634
0.57111049 0.039234079 -0.00070658146
0.57110435 0.040083256 -0.0007193294
0.57187295 0.040895034 -9.8403878e-05
0.57186687 0.041742615 -0.00011112788
0.57263547 0.04254961 0.00050983095
0.57262939 0.043395601 0.00049713079
0.57339799 0.04419782 0.0011181621
0.57416666 0.044996854 0.0017392412
0.57416058 0.045839656 0.0017265889
0.5749293 0.04663391 0.0023477774
0.57492328 0.047475114 0.0023351491
0.5749172 0.048316326 0.0023225208
0.57568592 0.049104206 0.0029437665
0.5756799 0.04994382 0.0029311622
0.57567388 0.05078344 0.0029185577
0.5764426 0.051564947 0.0035398998
0.57643658 0.052402969 0.0035273195
0.57720542 0.053179696 0.0041487333
0.5771994 0.054016124 0.0041361768
0.57719338 0.054852556 0.0041236202
0.57796222 0.055622909 0.004745129
0.5779562 0.056457743 0.0047325967
0.57872516 0.05722332 0.0053542154
0.57871914 0.058056563 0.0053417068
0.57871318 0.058889803 0.0053291982
0.57948208 0.059649009 0.0059508751
0.57947612 0.060480658 0.0059383903
0.58024508 0.061235081 0.0065601384
0.58023912 0.062065139 0.0065476773
0.5802331 0.062895194 0.0065352162
0.58100212 0.063643247 0.0071570608
0.58099616 0.064471707 0.0071446239
0.5809902 0.065300174 0.007132187
0.58175927 0.06604185 0.007754127
0.58175331 0.066868722 0.0077417139
0.58252245 0.067605615 0.0083637629
0.58251655 0.068430893 0.0083513735
0.58251059 0.069256164 0.0083389841
0.58327973 0.069986694 0.0089610917
0.58327383 0.070810385 0.0089487266
0.58326787 0.071634062 0.0089363614
0.58403707 0.072358213 0.009558565
0.58403116 0.07318031 0.0095462231
0.5840252 0.0740024 0.0095338821
0.58479446 0.074720182 0.010156181
0.58478856 0.075540677 0.010143864
0.58478266 0.076361179 0.010131546
0.58477676 0.077181667 0.010119229
0.58477086 0.078002162 0.010106911
0.58476496 0.078822665 0.010094594
0.58475906 0.079643168 0.010082277
0.58475316 0.080463655 0.010069959
0.58397198 0.081401214 0.0094228098
0.58319086 0.082341947 0.0087756133
0.58163434 0.083406128 0.0074934522
0.57930255 0.084598497 0.0055763302
0.5769707 0.085800439 0.0036590265
0.57463878 0.087011926 0.0017416175
0.57153147 0.088359609 -0.0008109482
0.57315403 0.043389414 -0.00016662877
0.57314795 0.044235401 -0.00017932885
0.5739156 0.04503604 0.00044297567
0.57390952 0.045880433 0.00043029949
0.57467723 0.046676293 0.0010526765
0.57467115 0.047519095 0.0010400242
0.57543892 0.048310172 0.0016625108
0.57543284 0.04915138 0.0016498824
0.57542682 0.049992584 0.0016372541
0.57619458 0.050777297 0.0022597976
0.5761885 0.051616911 0.0022471934
0.57695633 0.052396838 0.0028698095
0.57695031 0.05323486 0.002857229
0.57694429 0.054072879 0.0028446484
0.57771212 0.054846436 0.0034673603
0.5777061 0.055682864 0.0034548037
0.57847399 0.056451637 0.0040775868
0.57846797 0.057286479 0.004065054
0.57846195 0.058121312 0.0040525212
0.57922989 0.058883708 0.0046754382
0.57922393 0.059716951 0.0046629296
0.57921791 0.060550194 0.004650421
0.57998592 0.061306223 0.0052733952
0.5799799 0.062137872 0.0052609104
0.5807479 0.062889121 0.0058839568
0.58074194 0.063719183 0.0058714962
0.58073598 0.064549237 0.0058590351
0.58150399 0.065294109 0.0064821774
0.58149803 0.066122577 0.0064697405
0.58226615 0.066862673 0.0070929537
0.58226019 0.067689545 0.0070805405
0.58225423 0.068516411 0.0070681279
0.58302242 0.069250129 0.0076914751
0.58301646 0.070075415 0.0076790862
0.58301055 0.070900686 0.0076666968
0.58377874 0.071628034 0.0082901018
0.58377278 0.072451726 0.0082777366
0.58376688 0.073275402 0.0082653714
0.58453506 0.073996387 0.0088888723
0.58452916 0.07481847 0.0088765305
0.58452326 0.075640567 0.0088641895
0.58451736 0.076462656 0.0088518485
0.5845114 0.077284746 0.0088395067
0.5852797 0.077996157 0.0094631519
0.5852738 0.07881666 0.0094508342
0.5844937 0.079751022 0.0088024829
0.58448774 0.080573112 0.0087901419
0.58448184 0.081395201 0.0087778
0.58292741 0.082454555 0.0074932487
0.58137286 0.083520308 0.0062085632
0.57981837 0.084592417 0.0049238196
0.57671511 0.085917741 0.0023665894
0.57438612 0.087130792 0.00044536829
0.57442713 0.04671865 -0.00024488688
0.57442105 0.047563046 -0.00025756305
0.5751878 0.048355728 0.00036611117
0.57518172 0.049198531 0.00035345892
0.57594854 0.04998643 0.0009772433
0.57594246 0.050827645 0.00096461491
0.57593638 0.051668853 0.00095198664
0.57670319 0.052450381 0.0015758283
0.57669717 0.053289998 0.0015632238
0.57746398 0.054066751 0.002187138
0.57745796 0.05490477 0.0021745574
0.57745194 0.055742793 0.0021619769
0.57821882 0.056513172 0.0027859861
0.5782128 0.057349607 0.0027734293
0.57897973 0.058115203 0.0033975109
0.57897371 0.05895004 0.003384978
0.57896769 0.059784874 0.0033724455
0.57973468 0.0605441 0.0039966605
0.57972872 0.061377343 0.0039841519
0.5797227 0.062210586 0.0039716428
0.5804897 0.062963441 0.0045959149
0.58048373 0.06379509 0.00458343
0.58125079 0.064543165 0.0052077747
0.58124477 0.06537322 0.0051953141
0.58123881 0.066203274 0.005182853
0.58200592 0.066944979 0.0058072926
0.58199996 0.067773439 0.0057948558
0.58276707 0.068510361 0.0064193676
0.58276111 0.069337234 0.0064069545
0.58352828 0.070069373 0.0070315753
0.58352238 0.070894651 0.0070191859
0.58351642 0.07171993 0.007006797
0.58428365 0.072445698 0.0076314765
0.58427769 0.073269375 0.0076191113
0.58427179 0.074093059 0.0076067457
0.58426583 0.074916743 0.0075943805
0.58425993 0.075740427 0.0075820154
0.58502716 0.076456644 0.0082068378
0.58502126 0.077278733 0.0081944959
0.58501536 0.078100815 0.008182155
0.58500946 0.078922912 0.008169814
0.5850035 0.07974501 0.0081574721
0.58422434 0.080682531 0.0075078239
0.58421844 0.081506222 0.0074954587
0.58343923 0.08244852 0.0068457378
0.5811134 0.083634466 0.0049211737
0.57878751 0.084829956 0.0029964654
0.57646155 0.086035013 0.0010716515
0.57413548 0.087249622 -0.00085334305
0.57569832 0.050035167 -0.00032045352
0.5756923 0.050877973 -0.0003331058
0.5764581 0.051662698 0.00029197655
0.57645208 0.052503906 0.0002793482
0.57721788 0.053283855 0.00090446457
0.57721186 0.054123472 0.00089186011
0.57720578 0.05496309 0.00087925571
0.57797164 0.055736665 0.001504467
0.57796562 0.056574684 0.0014918866
0.5779596 0.05741271 0.0014793059
0.57872552 0.058179915 0.002104613
0.5787195 0.059016343 0.0020920562
0.57948542 0.059778769 0.0027174358
0.57947946 0.060613606 0.002704903
0.57947344 0.06144844 0.0026923704
0.58023947 0.062204488 0.0033178825
0.58023345 0.063037731 0.0033053739
0.58022749 0.063870974 0.0032928651
0.58099353 0.064620659 0.0039184359
0.58098751 0.065452307 0.003905951
0.58175361 0.066197202 0.0045315926
0.58174765 0.067027263 0.004519132
0.58251375 0.067767382 0.0051448462
0.58250779 0.068595842 0.0051324093
0.58327389 0.069331184 0.0057581943
0.58326799 0.070158057 0.0057457811
0.58326203 0.070984922 0.005733368
0.58402824 0.071713887 0.0063592875
0.58402228 0.072539166 0.0063468986
0.58401638 0.073364437 0.0063345092
0.5847826 0.074087031 0.0069604861
0.5847767 0.074910723 0.0069481209
0.58477074 0.075734399 0.0069357557
0.58476484 0.076558091 0.0069233901
0.58475888 0.077381775 0.0069110249
0.58475298 0.078205451 0.0068986597
0.58474708 0.079029135 0.0068862946
0.58474112 0.079852827 0.0068739294
0.58473521 0.080676503 0.0068615638
0.58395702 0.081617214 0.0062106177
0.5831787 0.082561105 0.0055595851
0.58085591 0.083748601 0.0036312847
0.57930523 0.084823847 0.0023414558
0.57698226 0.086028866 0.0004128922
0.57696772 0.05333896 -0.00039329092
0.57696164 0.054180171 -0.00040591927
0.57772654 0.054956947 0.00022049499
0.57772046 0.055796556 0.00020789061
0.57771444 0.056636173 0.00019528618
0.57847935 0.057406578 0.00082179531
0.57847333 0.058244601 0.00080921483
0.57846725 0.059082624 0.00079663435
0.57923222 0.059846651 0.0014232392
0.5792262 0.060683083 0.0014106826
0.57999116 0.061442334 0.0020373599
0.5799852 0.062277168 0.0020248273
0.57997918 0.063112006 0.0020122945
0.58074427 0.063864879 0.0026391046
0.58073825 0.064698122 0.0026265958
0.58150333 0.06544622 0.0032534406
0.58149731 0.066277869 0.0032409558
0.5822624 0.067021191 0.0038678716
0.58225644 0.067851245 0.0038554107
0.58225048 0.0686813 0.0038429499
0.58301562 0.069418244 0.0044699614
0.58300966 0.070246711 0.004457524
0.58377481 0.070978872 0.0050846073
0.5837689 0.071805745 0.0050721942
0.58376294 0.072632618 0.005059781
0.58452821 0.073358402 0.0056869984
0.58452225 0.07418368 0.0056746094
0.58451635 0.075008951 0.0056622201
0.58451039 0.07583423 0.0056498311
0.58527565 0.076552063 0.0062771295
0.58526975 0.077375747 0.0062647643
0.58526379 0.078199424 0.0062523992
0.58525789 0.079023108 0.006240034
0.5844807 0.079960622 0.0055878852
0.58447474 0.080785893 0.0055754962
0.5836975 0.08172819 0.0049232375
0.58292025 0.082673661 0.004270969
0.58060038 0.083862714 0.0023388946
0.57905167 0.084939532 0.0010465417
0.57673168 0.086146109 -0.00088579609
0.57823515 0.05663003 -0.00046347381
0.57822913 0.057469651 -0.00047607828
0.57822305 0.058309268 -0.00048868271
0.578987 0.059076492 0.00013912441
0.57898098 0.059914514 0.00012654392
0.57897496 0.060752537 0.00011396343
0.57973891 0.061513394 0.00074186618
0.57973289 0.062349819 0.00072930963
0.58049691 0.063105896 0.0013572841
0.58049089 0.063940734 0.0013447515
0.58048493 0.064775571 0.0013322188
0.581249 0.065525271 0.0019603274
0.58124304 0.066358514 0.0019478187
0.58200711 0.067103431 0.0025759607
0.58200115 0.067935079 0.0025634759
0.58276528 0.068675227 0.0031916895
0.58275926 0.069505282 0.0031792286
0.58352345 0.070240647 0.0038075147
0.58351749 0.071069114 0.0037950778
0.58428168 0.071799695 0.0044234348
0.58427572 0.072626568 0.0044110217
0.58426982 0.073453434 0.0043986086
0.58426386 0.074280307 0.0043861959
0.58502817 0.075002916 0.0050147111
0.58502221 0.075828195 0.0050023217
0.58501625 0.076653473 0.0049899328
0.58501035 0.077478752 0.0049775434
0.58500439 0.07830403 0.0049651545
0.58499843 0.079129301 0.0049527651
0.5842222 0.080068402 0.004299304
0.58421624 0.080895267 0.0042868908
0.58344001 0.081839137 0.0036333967
0.58189344 0.082904778 0.0023387489
0.58034676 0.083976805 0.0010439673
0.57950068 0.059908383 -0.00053096673
0.57949466 0.060746405 -0.00054354721
0.57948864 0.061584428 -0.00055612769
0.58025163 0.062343702 7.304905e-05
0.58024561 0.063180126 6.049249e-05
0.58023959 0.064016566 4.7935813e-05
0.58100265 0.064769462 0.00067720824
0.58099663 0.065604299 0.00066467561
0.58175981 0.06635242 0.0012940583
0.58175379 0.067185655 0.0012815496
0.58251691 0.067929 0.0019109655
0.58251095 0.068760648 0.0018984807
0.58327407 0.06949921 0.0025279683
0.58326811 0.070329271 0.0025155074
0.58403128 0.071063049 0.0031450668
0.58402532 0.071891516 0.0031326299
0.58401936 0.072719976 0.0031201928
0.5847826 0.073447384 0.0037498479
0.58477664 0.074274257 0.0037374347
0.58477068 0.07510113 0.0037250218
0.58476478 0.075927995 0.0037126087
0.58552808 0.076647438 0.0043424219
0.58552217 0.077472717 0.0043300325
0.58551621 0.078297988 0.0043176436
0.58474094 0.079235479 0.0036629564
0.58473504 0.080062352 0.0036505433
0.58395976 0.081004612 0.0029958228
0.58318448 0.081950061 0.0023410546
0.58163989 0.083017275 0.0010438833
0.58009517 0.084090866 -0.00025342227
0.58075833 0.064010441 -0.00060832402
0.58075231 0.064846873 -0.00062088057
0.58151442 0.06559819 9.6658623e-06
0.5815084 0.066433027 -2.8668244e-06
0.58150238 0.067267857 -1.5399455e-05
0.58226454 0.068012804 0.00061528111
0.58225858 0.068846047 0.0006027724
0.58302075 0.06958621 0.0012334862
0.58301473 0.070417866 0.0012210014
0.58377695 0.071153253 0.001851787
0.58377093 0.071983308 0.001839326
0.58453315 0.072713919 0.0024701834
0.58452719 0.073542379 0.0024577463
0.58452123 0.074370839 0.0024453094
0.58528352 0.07509508 0.0030762623
0.58527756 0.075921945 0.0030638494
0.5852716 0.076748818 0.0030514363
0.5852657 0.077575691 0.0030390231
0.58525974 0.078402556 0.0030266102
0.58525378 0.079229429 0.0030141969
0.58447951 0.080170095 0.0023582503
0.58370525 0.081113927 0.001702256
0.58293098 0.082060963 0.0010462137
0.58138829 0.083129749 -0.00025352018
0.58202016 0.067261755 -0.00067040994
0.58201414 0.068096593 -0.00068294263
0.58277535 0.068839952 -5.098803e-05
0.58276933 0.069673195 -6.3496787e-05
0.58353049 0.070411779 0.0005684903
0.58352453 0.071243428 0.00055600546
0.58428574 0.071977235 0.001188065
0.58427978 0.07280729 0.0011756042
0.58504099 0.073536314 0.0018077355
0.58503503 0.074364781 0.0017952984
0.58502907 0.075193249 0.0017828614
0.58502311 0.076021709 0.0017704244
0.58578444 0.076742768 0.0024026753
0.58577847 0.077569641 0.0023902622
0.58577251 0.078396507 0.0023778493
0.58499926 0.079335555 0.0017206765
0.58422601 0.080277801 0.0010634558
0.5834527 0.081223227 0.00040618744
0.58267939 0.082171842 -0.00025112811
