# .PCD v0.7 - Point Cloud Data file format
VERSION 0.7
FIELDS x y z
SIZE 4 4 4
TYPE F F F
COUNT 1 1 1
WIDTH 1381
HEIGHT 1
VIEWPOINT 0 0 0 1 0 0 0
POINTS 1381
DATA ascii
0.67939204 0.0055386703 0.20504501
0.67938834 0.006050087 0.20503733
0.67843574 0.0065165237 0.20461853
0.67843205 0.0070295334 0.20461082
0.67842835 0.0075425436 0.20460312
0.67747569 0.0080153542 0.20418423
0.67747194 0.0085299565 0.2041765
0.67651927 0.0090075471 0.20375754
0.67556649 0.0094883218 0.20333852
0.6755628 0.010006112 0.20333076
0.67461002 0.010491667 0.20291167
0.67365718 0.010980409 0.20249254
0.67365342 0.011501385 0.20248471
0.67270064 0.011994907 0.2020655
0.67174774 0.012491614 0.20164624
0.67174399 0.013015776 0.20163837
0.67079109 0.013517264 0.20121905
0.67078733 0.014043019 0.20121115
0.66983438 0.014549286 0.20079176
0.66983062 0.015076635 0.20078383
0.66887766 0.015587682 0.20036438
0.66887385 0.016116625 0.20035644
0.66792089 0.016632451 0.1999369
0.66791707 0.017162986 0.19992894
0.66696399 0.017683592 0.19950931
0.66696018 0.01821572 0.19950132
0.6660071 0.018741105 0.19908164
0.66600329 0.019274825 0.19907363
0.66505015 0.019804992 0.19865388
0.66409707 0.020338343 0.19823407
0.66314393 0.02087488 0.19781421
0.66219074 0.021414604 0.19739431
0.66218686 0.021954698 0.19738621
0.66218299 0.022494793 0.1973781
0.66122979 0.023040891 0.19695811
0.66027653 0.023590174 0.19653806
0.67631233 -0.049543481 0.20381841
0.67630863 -0.049025692 0.20381063
0.67535818 -0.048721764 0.20339303
0.67535442 -0.048202388 0.20338523
0.67535067 -0.047682997 0.20337743
0.67440015 -0.04737271 0.20295972
0.6743964 -0.046851739 0.20295189
0.67439264 -0.046330761 0.20294407
0.67344207 -0.046014097 0.20252629
0.67343831 -0.045491524 0.20251843
0.67343456 -0.044968959 0.2025106
0.67437762 -0.044246856 0.20291279
0.67437387 -0.043725878 0.20290497
0.67437017 -0.043204907 0.20289715
0.67436641 -0.042683925 0.20288932
0.67436266 -0.042162951 0.20288152
0.67530584 -0.041450407 0.20328386
0.67530209 -0.040931027 0.20327607
0.67624527 -0.040223263 0.20367849
0.67624158 -0.039705481 0.20367071
0.67718482 -0.039002489 0.20407322
0.67718107 -0.038486291 0.20406547
0.67812437 -0.037788097 0.20446803
0.67812067 -0.037273489 0.20446031
0.67811692 -0.036758889 0.20445257
0.67906022 -0.036067057 0.20485523
0.67905653 -0.035554051 0.20484753
0.67999995 -0.034866996 0.20525028
0.67999625 -0.034355577 0.2052426
0.67999256 -0.033844162 0.20523492
0.68093592 -0.033163484 0.20563774
0.68093228 -0.032653663 0.20563009
0.68092859 -0.032143839 0.20562243
0.68187207 -0.031469531 0.20602536
0.68186843 -0.030961303 0.20601773
0.68186474 -0.030453075 0.2060101
0.68280822 -0.029785143 0.20641313
0.68280458 -0.029278504 0.20640552
0.68280095 -0.028771866 0.20639792
0.68279731 -0.02826523 0.20639031
0.68279362 -0.027758595 0.20638271
0.68373722 -0.027100215 0.20678587
0.68373358 -0.026595177 0.20677829
0.68372995 -0.02609013 0.20677072
0.68372631 -0.025585081 0.20676313
0.68372267 -0.025080044 0.20675555
0.68466628 -0.024431227 0.20715885
0.6846627 -0.023927778 0.20715129
0.68465906 -0.023424327 0.20714374
0.68465543 -0.022920879 0.20713617
0.68465179 -0.022417428 0.20712861
0.68464816 -0.021913975 0.20712106
0.68464458 -0.021410523 0.2071135
0.68464094 -0.020907076 0.20710595
0.68463731 -0.020403624 0.20709838
0.68558103 -0.019770741 0.20750193
0.68557745 -0.019268885 0.20749439
0.68557382 -0.018767027 0.20748687
0.68557018 -0.018265169 0.20747933
0.6855666 -0.017763313 0.2074718
0.68556297 -0.017261455 0.20746426
0.68555939 -0.016759597 0.20745672
0.68555576 -0.016257741 0.2074492
0.68555218 -0.015755882 0.20744166
0.68554854 -0.015254025 0.20743413
0.68554491 -0.014752167 0.20742659
0.68554133 -0.01425031 0.20741905
0.6855377 -0.013748453 0.20741153
0.68553412 -0.013246595 0.20740399
0.68553048 -0.012744738 0.20739646
0.68552685 -0.012242881 0.20738892
0.68457574 -0.011844959 0.2069699
0.6845721 -0.011341508 0.20696235
0.68456846 -0.010838058 0.20695479
0.68456489 -0.010334608 0.20694722
0.68456125 -0.0098311566 0.20693967
0.68455762 -0.0093277069 0.20693211
0.68455398 -0.0088242562 0.20692456
0.6845504 -0.0083208047 0.206917
0.68454677 -0.0078173531 0.20690943
0.68454313 -0.0073139016 0.20690188
0.6845395 -0.0068104519 0.20689432
0.68453586 -0.0063070022 0.20688677
0.68358457 -0.0058883713 0.20646743
0.68358094 -0.0053833271 0.20645986
0.6835773 -0.004878283 0.20645228
0.68357366 -0.0043732394 0.2064447
0.68357009 -0.0038681934 0.20643711
0.68356645 -0.0033631513 0.20642953
0.68356282 -0.0028581072 0.20642196
0.68261135 -0.0024267323 0.20600241
0.68260771 -0.0019200961 0.20599481
0.68260407 -0.0014134598 0.20598722
0.68260044 -0.00090682151 0.2059796
0.6825968 -0.00040018521 0.205972
0.68164533 4.0749612e-05 0.20555232
0.6816417 0.00054898014 0.2055447
0.681638 0.0010572107 0.20553707
0.68163437 0.0015654413 0.20552944
0.68068284 0.0020143401 0.20510966
0.68067914 0.002524164 0.205102
0.68067551 0.0030339889 0.20509434
0.68067181 0.0035438116 0.20508669
0.68066818 0.0040536346 0.20507903
0.67971659 0.0045120963 0.20465912
0.67971289 0.0050235125 0.20465143
0.6797092 0.0055349288 0.20464376
0.67970556 0.0060463459 0.20463608
0.67875385 0.0065127709 0.20421602
0.67875016 0.0070257802 0.20420833
0.67779851 0.0074969851 0.20378821
0.67779481 0.0080115888 0.20378047
0.67684311 0.0084875738 0.20336029
0.67683941 0.0090037705 0.20335254
0.67588764 0.0094845342 0.20293227
0.67493588 0.0099684848 0.20251197
0.67493212 0.010487868 0.20250416
0.6739803 0.010976598 0.20208377
0.67302847 0.011468514 0.20166335
0.67302471 0.011991084 0.20165551
0.67207283 0.012487779 0.201235
0.67206907 0.013011942 0.20122713
0.67111719 0.013513418 0.20080654
0.67111337 0.014039173 0.20079866
0.67016143 0.014545429 0.200378
0.67015767 0.015072777 0.20037009
0.66920567 0.015583812 0.19994937
0.66920185 0.016112754 0.19994143
0.66824991 0.016628569 0.19952065
0.66824609 0.017159104 0.19951268
0.66729403 0.017679699 0.19909181
0.66634196 0.018203478 0.19867091
0.66633815 0.018737201 0.19866289
0.66538602 0.01926576 0.1982419
0.66538215 0.019801075 0.19823387
0.66443002 0.020334415 0.19781281
0.6634779 0.020870941 0.1973917
0.66252571 0.021410653 0.19697057
0.66252184 0.021950748 0.19696246
0.66156965 0.02249524 0.19654123
0.66156572 0.023036927 0.1965331
0.66061348 0.023586199 0.1961118
0.67663348 -0.04954727 0.20341215
0.67662972 -0.049029481 0.20340438
0.67662603 -0.048511684 0.2033966
0.67567652 -0.048206188 0.20297773
0.67567277 -0.047686797 0.20296992
0.67472321 -0.047376521 0.20255096
0.67471951 -0.04685555 0.20254314
0.67471576 -0.046334576 0.20253533
0.6737662 -0.046017919 0.20211628
0.67376238 -0.045495346 0.20210843
0.67375863 -0.044972781 0.20210059
0.67375487 -0.044450209 0.20209274
0.67375112 -0.04392764 0.2020849
0.67374736 -0.043405071 0.20207705
0.67468947 -0.042687736 0.20248058
0.67468578 -0.042166766 0.20247276
0.67468202 -0.041645788 0.20246494
0.67562419 -0.040934827 0.20286857
0.6756205 -0.040415443 0.20286077
0.67656267 -0.03970927 0.20326446
0.67655897 -0.039191477 0.2032567
0.6775012 -0.038490068 0.20366046
0.67749751 -0.037973873 0.20365271
0.67749381 -0.037457675 0.20364496
0.6784361 -0.036762655 0.20404883
0.6784324 -0.036248051 0.20404109
0.67937469 -0.035557806 0.20444503
0.679371 -0.035044793 0.20443733
0.67936736 -0.03453178 0.20442963
0.68030971 -0.033847906 0.20483367
0.68030608 -0.033336487 0.204826
0.68030238 -0.032825071 0.20481831
0.68124479 -0.032147568 0.20522244
0.6812411 -0.031637747 0.20521478
0.68123746 -0.031127922 0.20520712
0.68217993 -0.030456794 0.20561136
0.68217629 -0.029948559 0.20560373
0.68217266 -0.029440328 0.2055961
0.68311512 -0.028775573 0.20600042
0.68311149 -0.028268937 0.2059928
0.68310785 -0.027762301 0.2059852
0.68310422 -0.02725566 0.20597759
0.6840468 -0.026598873 0.20638204
0.68404317 -0.026093826 0.20637445
0.68403953 -0.025588777 0.20636688
0.6840359 -0.025083737 0.2063593
0.68403226 -0.024578692 0.20635171
0.68402863 -0.024073649 0.20634413
0.68497127 -0.02342801 0.20674872
0.68496764 -0.022924563 0.20674117
0.68496406 -0.02242111 0.20673361
0.68496042 -0.021917658 0.20672606
0.68495679 -0.021414207 0.2067185
0.68495315 -0.020910759 0.20671093
0.68494958 -0.020407308 0.20670338
0.68494594 -0.019903855 0.20669582
0.68494231 -0.019400405 0.20668827
0.68493867 -0.018896952 0.20668072
0.68493503 -0.018393505 0.20667315
0.68493146 -0.017890053 0.20666559
0.68492782 -0.017386602 0.20665804
0.68492419 -0.016883153 0.20665048
0.68492055 -0.016379701 0.20664293
0.68491697 -0.01587625 0.20663536
0.68491334 -0.015372799 0.2066278
0.6849097 -0.014869347 0.20662025
0.68490607 -0.014365895 0.20661269
0.68490243 -0.013862447 0.20660514
0.68489885 -0.013358995 0.20659757
0.68489522 -0.012855546 0.20659001
0.68489158 -0.012352096 0.20658246
0.68488795 -0.011848642 0.2065749
0.68488437 -0.011345191 0.20656735
0.68488073 -0.010841741 0.20655978
0.6848771 -0.010338292 0.20655222
0.68487346 -0.00983484 0.20654467
0.68486983 -0.0093313893 0.20653711
0.68486625 -0.0088279396 0.20652956
0.68486261 -0.0083244881 0.20652199
0.68485898 -0.0078210365 0.20651443
0.68485534 -0.0073175849 0.20650688
0.68390507 -0.0069021541 0.20608635
0.68390143 -0.0063971099 0.20607877
0.68389779 -0.0058920663 0.20607118
0.68389416 -0.0053870222 0.2060636
0.68389052 -0.004881978 0.20605603
0.68388689 -0.0043769344 0.20604844
0.68388325 -0.0038718884 0.20604086
0.68387967 -0.0033668461 0.20603327
0.68292922 -0.0029370773 0.20561253
0.68292558 -0.002430439 0.20560491
0.68292195 -0.0019238027 0.20559731
0.68291831 -0.0014171663 0.2055897
0.68291467 -0.00091052812 0.2055821
0.68196422 -0.00047119727 0.20516121
0.68196052 3.7031401e-05 0.20515358
0.68195689 0.00054526195 0.20514596
0.68195325 0.0010534924 0.20513833
0.68100268 0.0015007874 0.20471731
0.68099904 0.0020106104 0.20470965
0.68099535 0.0025204341 0.20470199
0.68099165 0.0030302589 0.20469435
0.68098801 0.0035400817 0.20468669
0.68003744 0.0039969366 0.20426553
0.68003374 0.0045083547 0.20425786
0.68003005 0.0050197709 0.20425019
0.68002641 0.0055311872 0.2042425
0.67907572 0.005996007 0.20382121
0.67907202 0.0065090172 0.20381351
0.67906833 0.0070220269 0.20380582
0.67811763 0.0074932203 0.20338444
0.67811394 0.0080078244 0.20337673
0.67716324 0.0084837973 0.20295529
0.67621249 0.0089629563 0.20253378
0.67620873 0.0094807455 0.20252602
0.67525798 0.009964685 0.20210446
0.67525423 0.010484068 0.20209666
0.67430341 0.010972786 0.20167503
0.67335254 0.011464691 0.20125334
0.67334878 0.011987261 0.20124549
0.67239791 0.012483944 0.20082374
0.67144704 0.012983816 0.20040193
0.67144322 0.013509571 0.20039405
0.67049229 0.014014221 0.19997217
0.67048848 0.01454157 0.19996424
0.66953754 0.015051001 0.19954231
0.66953373 0.015579943 0.19953437
0.66858274 0.016094152 0.19911236
0.66857892 0.016624687 0.19910438
0.66762787 0.017143676 0.19868229
0.66762406 0.017675804 0.19867431
0.66667295 0.018199574 0.19825214
0.66572183 0.01872653 0.19782993
0.66571802 0.019261844 0.1978219
0.66476691 0.019793579 0.19739962
0.66381574 0.020328499 0.19697729
0.66381186 0.020867001 0.1969692
0.66286069 0.021406703 0.19654681
0.66190946 0.021949589 0.19612436
0.66190559 0.022491276 0.19611624
0.66190165 0.023032963 0.1961081
0.66095042 0.023582224 0.19568555
0.67790681 -0.050366357 0.20343369
0.67790306 -0.04985017 0.20342594
0.67695457 -0.049551055 0.2030059
0.67695087 -0.049033269 0.20299812
0.67694712 -0.048515473 0.20299035
0.67599863 -0.048209988 0.20257021
0.67599487 -0.0476906 0.20256242
0.67504632 -0.047380332 0.20214221
0.67504257 -0.046859361 0.20213439
0.67409402 -0.046544306 0.20171411
0.67409027 -0.046021741 0.20170628
0.67408651 -0.045499172 0.20169842
0.67408276 -0.044976603 0.20169058
0.674079 -0.044454034 0.20168273
0.67407519 -0.043931462 0.20167489
0.67407143 -0.043408893 0.20166706
0.67406768 -0.042886324 0.2016592
0.67500883 -0.042170577 0.20206401
0.67500508 -0.041649599 0.20205618
0.67500132 -0.041128624 0.20204836
0.6759426 -0.040419243 0.20245327
0.67593884 -0.03989986 0.20244546
0.67688006 -0.039195266 0.20285043
0.67687637 -0.038677473 0.20284267
0.67781764 -0.037977651 0.20324771
0.67781395 -0.037461452 0.20323996
0.67781025 -0.036945257 0.20323221
0.67875153 -0.036251813 0.20363735
0.67874783 -0.035737213 0.20362961
0.67968917 -0.035048544 0.20403482
0.67968547 -0.034535531 0.20402712
0.67968178 -0.034022529 0.20401943
0.68062323 -0.033340227 0.20442474
0.68061954 -0.032828812 0.20441705
0.68061584 -0.032317393 0.20440938
0.68061221 -0.031805981 0.2044017
0.68155366 -0.031131653 0.20480712
0.68154997 -0.030621832 0.20479947
0.68249148 -0.029952278 0.20520498
0.68248785 -0.029444046 0.20519735
0.68248415 -0.028935816 0.20518972
0.68248051 -0.028427586 0.20518208
0.68342209 -0.027766008 0.2055877
0.68341839 -0.027259367 0.20558009
0.68341476 -0.026752735 0.20557249
0.68341112 -0.026246095 0.20556487
0.68435276 -0.025592471 0.20597062
0.68434912 -0.025087433 0.20596305
0.68434548 -0.024582388 0.20595546
0.68434185 -0.024077345 0.20594788
0.68433821 -0.0235723 0.20594029
0.68433458 -0.023067256 0.20593271
0.68433094 -0.022562211 0.20592512
0.68527263 -0.021921342 0.20633104
0.685269 -0.02141789 0.20632349
0.68526542 -0.020914443 0.20631593
0.68526179 -0.02041099 0.20630838
0.68525815 -0.01990754 0.20630082
0.68525451 -0.019404087 0.20629326
0.68525094 -0.018900637 0.2062857
0.6852473 -0.018397188 0.20627815
0.68524367 -0.017893737 0.20627059
0.68524003 -0.017390285 0.20626304
0.68523639 -0.016886836 0.20625547
0.68523282 -0.016383385 0.20624791
0.68522918 -0.015879933 0.20624036
0.68522555 -0.015376482 0.2062328
0.68522191 -0.01487303 0.20622525
0.68521833 -0.014369578 0.20621768
0.6852147 -0.01386613 0.20621012
0.68521106 -0.013362679 0.20620257
0.68520743 -0.012859229 0.20619501
0.68520379 -0.012355779 0.20618746
0.68520021 -0.011852326 0.20617989
0.68519658 -0.011348874 0.20617233
0.68519294 -0.010845425 0.20616478
0.68518931 -0.010341975 0.20615722
0.68518573 -0.0098385224 0.20614967
0.68518209 -0.0093350727 0.2061421
0.68423283 -0.0089260247 0.20572042
0.6842292 -0.0084209815 0.20571284
0.68422556 -0.0079159355 0.20570526
0.68422192 -0.0074108914 0.20569767
0.68421829 -0.0069058491 0.2056901
0.68421465 -0.006400805 0.20568252
0.68421102 -0.0058957613 0.20567493
0.68420738 -0.0053907172 0.20566735
0.68420374 -0.0048856731 0.20565976
0.68420011 -0.0043806289 0.20565219
0.68325073 -0.0039540567 0.20523022
0.68324709 -0.0034474202 0.20522262
0.68324345 -0.0029407837 0.20521501
0.68323982 -0.0024341457 0.20520741
0.68323612 -0.0019275093 0.20519981
0.68323249 -0.001420873 0.20519219
0.68322885 -0.00091423473 0.20518459
0.68227941 -0.00047491555 0.20476246
0.68227571 3.3313132e-05 0.20475483
0.68227208 0.00054154365 0.2047472
0.68226844 0.0010497742 0.20473957
0.68131888 0.0014970575 0.2043173
0.68131518 0.0020068805 0.20430964
0.68131155 0.0025167041 0.20430198
0.68130785 0.003026529 0.20429434
0.68035829 0.003481779 0.20387195
0.6803546 0.003993195 0.20386428
0.6803509 0.0045046131 0.2038566
0.68034726 0.0050160293 0.20384893
0.67939758 0.0054792436 0.20342642
0.67939389 0.0059922538 0.20341872
0.67939019 0.0065052644 0.20341101
0.67844051 0.0069748526 0.20298842
0.67843682 0.0074894554 0.2029807
0.67748708 0.007963825 0.20255803
0.67748338 0.0084800208 0.20255028
0.67653358 0.0089591686 0.20212753
0.67558384 0.0094415024 0.20170476
0.67558008 0.0099608852 0.20169695
0.67463022 0.010447999 0.20127408
0.67368042 0.010938299 0.20085119
0.67367667 0.011460868 0.20084333
0.67272675 0.011955947 0.20042035
0.672723 0.012480109 0.20041248
0.67177308 0.012979969 0.19998944
0.67176932 0.013505724 0.19998154
0.67081934 0.014010363 0.19955841
0.67081553 0.014537712 0.19955049
0.66986555 0.01504713 0.1991273
0.66986179 0.015576073 0.19911936
0.66891176 0.01609027 0.19869611
0.66890794 0.016620805 0.19868813
0.6679579 0.017139783 0.19826479
0.6670078 0.017661948 0.19784141
0.66700399 0.018195668 0.19783339
0.66605383 0.018722612 0.19740993
0.66510373 0.019252742 0.19698642
0.66509986 0.019789651 0.19697836
0.6641497 0.02032456 0.19655478
0.66319948 0.020862656 0.19613115
0.66224933 0.021403939 0.19570749
0.66224539 0.021945626 0.19569936
0.66224152 0.022487314 0.19569123
0.66129124 0.023034969 0.19526745
0.66128731 0.023578249 0.1952593
0.67822695 -0.050370134 0.20302868
0.67727947 -0.050072633 0.20260741
0.67727572 -0.049554843 0.20259963
0.67727202 -0.049037058 0.20259187
0.67726827 -0.048519261 0.20258409
0.67632073 -0.048213787 0.20216271
0.67631704 -0.0476944 0.2021549
0.67536944 -0.047384143 0.20173346
0.67442185 -0.047070701 0.20131195
0.67441809 -0.046548128 0.20130411
0.67441434 -0.046025567 0.20129625
0.67346668 -0.045705751 0.20087466
0.67346293 -0.045181591 0.20086679
0.67345917 -0.044657428 0.20085892
0.67345536 -0.044133261 0.20085105
0.6734516 -0.043609101 0.20084319
0.67439181 -0.042890146 0.20124918
0.67438805 -0.042367581 0.20124134
0.6743843 -0.041845009 0.20123351
0.67532444 -0.041132439 0.20163959
0.67532068 -0.040611461 0.20163177
0.67626095 -0.039903659 0.20203796
0.67625725 -0.039384279 0.20203015
0.67719746 -0.038681261 0.2024364
0.67719376 -0.038163472 0.20242862
0.67719001 -0.037645679 0.20242085
0.67813039 -0.036949035 0.2028272
0.67812663 -0.036432836 0.20281945
0.67906702 -0.035740975 0.20322587
0.67906326 -0.035226371 0.20321813
0.68000364 -0.034539286 0.20362461
0.67999995 -0.03402628 0.20361692
0.67999625 -0.033513267 0.20360921
0.67999256 -0.033000261 0.20360151
0.68093306 -0.032321133 0.20400812
0.68092936 -0.031809721 0.20400044
0.68092567 -0.031298302 0.20399277
0.68186617 -0.030625561 0.20439945
0.68186247 -0.030115737 0.20439181
0.68185884 -0.029605908 0.20438415
0.6827994 -0.028939534 0.20479095
0.6827957 -0.028431304 0.20478332
0.68279207 -0.027923077 0.20477569
0.68373263 -0.027263073 0.20518258
0.68372899 -0.026756441 0.20517497
0.68372536 -0.026249802 0.20516737
0.68372172 -0.02574316 0.20515975
0.68371803 -0.025236528 0.20515215
0.68465871 -0.024586082 0.20555919
0.68465507 -0.02408104 0.20555161
0.68465143 -0.023575993 0.20554404
0.6846478 -0.023070952 0.20553645
0.68464416 -0.022565907 0.20552887
0.68464053 -0.022060864 0.20552129
0.68463689 -0.021555819 0.2055137
0.68463326 -0.021050775 0.20550612
0.68462962 -0.02054573 0.20549855
0.68557042 -0.019911222 0.20590581
0.68556678 -0.019407772 0.20589826
0.68556315 -0.018904319 0.2058907
0.68555951 -0.018400872 0.20588313
0.68555588 -0.01789742 0.20587558
0.6855523 -0.017393967 0.20586802
0.68554866 -0.01689052 0.20586047
0.68554503 -0.016387068 0.20585291
0.68554139 -0.015883617 0.20584534
0.68553782 -0.015380165 0.20583779
0.68553418 -0.014876713 0.20583023
0.68553054 -0.014373261 0.20582268
0.68552691 -0.013869814 0.20581512
0.68552327 -0.013366362 0.20580755
0.6855197 -0.012862912 0.2058
0.68551606 -0.012359463 0.20579244
0.68551242 -0.011856009 0.20578489
0.68550879 -0.011352558 0.20577733
0.6845606 -0.010949894 0.20535448
0.68455696 -0.010444853 0.20534691
0.68455333 -0.0099398084 0.20533933
0.68454969 -0.0094347643 0.20533174
0.68454605 -0.0089297201 0.20532416
0.68454242 -0.008424676 0.20531657
0.68453878 -0.00791963 0.205309
0.68453515 -0.0074145864 0.20530142
0.68453151 -0.0069095441 0.20529383
0.68452787 -0.0064045 0.20528625
0.68452424 -0.0058994563 0.20527866
0.6845206 -0.0053944122 0.2052711
0.68357223 -0.0049710395 0.20484793
0.6835686 -0.0044644033 0.20484032
0.68356496 -0.0039577633 0.20483272
0.68356133 -0.0034511269 0.2048251
0.68355763 -0.0029444904 0.2048175
0.68355399 -0.0024378523 0.2048099
0.68355036 -0.001931216 0.20480229
0.68354672 -0.0014245796 0.20479469
0.68259823 -0.00098686444 0.20437132
0.6825946 -0.00047863385 0.20436369
0.68259096 2.959481e-05 0.20435606
0.68258727 0.00053782534 0.20434843
0.68163872 0.00098350376 0.20392494
0.68163508 0.0014933276 0.20391728
0.68163139 0.0020031505 0.20390964
0.68162775 0.0025129742 0.20390198
0.68067914 0.0029666203 0.20347838
0.68067545 0.0034780374 0.20347069
0.68067175 0.0039894534 0.20346302
0.68066812 0.0045008715 0.20345534
0.67971945 0.0049624806 0.20303161
0.67971575 0.0054754904 0.20302391
0.67971206 0.0059885005 0.20301621
0.67970836 0.0065015107 0.2030085
0.67875969 0.0069710878 0.20258465
0.67781097 0.0074438513 0.20216078
0.67780721 0.0079600485 0.20215303
0.67685843 0.0084375897 0.20172904
0.67685473 0.0089553799 0.20172127
0.67590594 0.0094377026 0.20129724
0.6749571 0.0099232104 0.20087314
0.67495334 0.010444187 0.20086533
0.6740045 0.010934476 0.20044117
0.67305559 0.01142795 0.20001696
0.67305183 0.011952112 0.20000909
0.67210293 0.012450367 0.19958481
0.67209917 0.012976122 0.19957693
0.67209536 0.013501878 0.19956903
0.67114639 0.014006505 0.19914465
0.67019743 0.014514319 0.19872023
0.67019361 0.015043261 0.19871229
0.66924459 0.015555854 0.1982878
0.66924077 0.016086388 0.19827984
0.66829175 0.016603762 0.19785526
0.66734266 0.017124321 0.19743066
0.66733885 0.017658042 0.19742264
0.6663897 0.01818338 0.19699796
0.66638583 0.018718695 0.19698991
0.66543674 0.019248815 0.19656517
0.66448754 0.019782118 0.19614035
0.66448367 0.02032062 0.19613227
0.66353446 0.020858705 0.1957074
0.66258526 0.021399977 0.19528247
0.66258138 0.021941662 0.19527435
0.66163212 0.022487713 0.19484934
0.66162819 0.023030994 0.19484119
0.66162425 0.023574274 0.19483304
0.67854333 -0.049857724 0.20261593
0.67759687 -0.049558632 0.20219338
0.67759311 -0.049040847 0.2021856
0.67758942 -0.04852305 0.20217784
0.67664289 -0.048217587 0.2017552
0.67663914 -0.0476982 0.2017474
0.67569256 -0.047387954 0.2013247
0.67474598 -0.047074523 0.20090194
0.67379934 -0.04675791 0.20047913
0.67379558 -0.046233743 0.20047127
0.67379177 -0.045709584 0.2004634
0.67378801 -0.045185424 0.20045553
0.67378426 -0.044661261 0.20044766
0.67378044 -0.044137094 0.2004398
0.67377669 -0.043612935 0.20043193
0.67377293 -0.043088771 0.20042406
0.67471212 -0.042371403 0.20083134
0.67470837 -0.041848831 0.2008235
0.67470461 -0.041326266 0.20081565
0.6756438 -0.040615272 0.20122303
0.67564005 -0.040094297 0.20121521
0.67657936 -0.039388079 0.20162265
0.6765756 -0.038868692 0.20161486
0.67751491 -0.038167261 0.20202237
0.67751116 -0.037649468 0.2020146
0.67750746 -0.037131682 0.20200683
0.67844677 -0.036436614 0.20241445
0.67844307 -0.035920419 0.2024067
0.67938244 -0.035230137 0.20281439
0.67937875 -0.034715533 0.20280665
0.67937505 -0.034200929 0.20279893
0.68031442 -0.033517022 0.2032067
0.68031073 -0.033004016 0.203199
0.68030703 -0.032491002 0.2031913
0.68124652 -0.031813465 0.20359918
0.68124288 -0.031302046 0.20359151
0.68123919 -0.030790631 0.20358384
0.68217868 -0.030119466 0.2039918
0.68217498 -0.029609637 0.20398414
0.68217134 -0.029099816 0.2039765
0.68311089 -0.028435022 0.20438457
0.68310726 -0.027926795 0.20437694
0.68310362 -0.027418561 0.20436931
0.68309993 -0.026910335 0.20436168
0.68403953 -0.026253508 0.20476986
0.6840359 -0.025746867 0.20476225
0.68403226 -0.025240235 0.20475465
0.68402863 -0.024733596 0.20474704
0.68402499 -0.024226958 0.20473944
0.68402129 -0.023720322 0.20473184
0.68496102 -0.023074647 0.2051402
0.68495739 -0.0225696 0.20513262
0.68495375 -0.022064559 0.20512503
0.68495011 -0.021559512 0.20511745
0.68494648 -0.021054471 0.20510986
0.68494284 -0.020549426 0.20510228
0.68493921 -0.020044379 0.20509471
0.68493557 -0.019539338 0.20508713
0.68493193 -0.019034294 0.20507954
0.6849283 -0.018529249 0.20507196
0.68492466 -0.018024206 0.20506437
0.68492109 -0.017519161 0.2050568
0.68491745 -0.01701412 0.20504922
0.68491381 -0.016509073 0.20504163
0.68491018 -0.016004028 0.20503405
0.68490654 -0.015498986 0.20502646
0.68490291 -0.014993943 0.20501889
0.68489927 -0.014488897 0.20501131
0.68489563 -0.013983855 0.20500372
0.684892 -0.013478811 0.20499614
0.68488836 -0.012973767 0.20498855
0.68488473 -0.012468723 0.20498098
0.68488109 -0.011963678 0.2049734
0.68487746 -0.011458633 0.20496581
0.68487382 -0.010953589 0.20495823
0.68487018 -0.010448547 0.20495065
0.68486655 -0.009943503 0.20494308
0.68486291 -0.0094384588 0.20493549
0.68485928 -0.0089334147 0.20492791
0.68485564 -0.0084283706 0.20492032
0.684852 -0.0079233255 0.20491274
0.68484837 -0.0074182814 0.20490517
0.68484473 -0.0069132391 0.20489758
0.68389738 -0.0064946571 0.20447324
0.68389374 -0.0059880209 0.20446563
0.6838901 -0.0054813824 0.20445803
0.68388647 -0.0049747461 0.20445041
0.68388277 -0.0044681099 0.20444281
0.68387914 -0.00396147 0.20443521
0.6838755 -0.0034548335 0.2044276
0.68387187 -0.0029481971 0.20442
0.68386823 -0.002441559 0.20441239
0.68386459 -0.0019349225 0.20440479
0.68291712 -0.001498815 0.20398021
0.68291342 -0.00099058263 0.20397256
0.68290979 -0.00048235207 0.20396493
0.68290615 2.5876598e-05 0.2039573
0.68195856 0.0004699491 0.20353259
0.68195492 0.00097977382 0.20352493
0.68195122 0.0014895976 0.20351727
0.68194759 0.0019994206 0.20350963
0.68099999 0.0024514617 0.2030848
0.6809963 0.0029628787 0.20307712
0.68099266 0.0034742958 0.20306943
0.68098897 0.0039857118 0.20306176
0.68004131 0.0044457181 0.20263679
0.68003762 0.0049587274 0.2026291
0.68003392 0.0054717371 0.2026214
0.68003023 0.0059847473 0.2026137
0.67908251 0.0064527201 0.20218863
0.67907882 0.0069673229 0.20218091
0.6781311 0.0074400748 0.20175576
0.67812735 0.007956272 0.20174801
0.67717957 0.0084338021 0.20132279
0.6762318 0.00891452 0.20089753
0.67622805 0.0094339028 0.20088974
0.67528021 0.0099193994 0.2004644
0.67433238 0.010408083 0.20003901
0.67432863 0.010930653 0.20003116
0.67338067 0.011424115 0.1996057
0.67337692 0.011948277 0.19959784
0.67242903 0.012446521 0.1991723
0.67242521 0.012972276 0.19916442
0.67147726 0.013475298 0.19873881
0.67147344 0.014002647 0.1987309
0.67052549 0.014510449 0.19830522
0.67052168 0.015039391 0.19829729
0.66957366 0.015551972 0.19787155
0.66862559 0.01606774 0.19744575
0.66862172 0.016599869 0.19743776
0.66767365 0.017120417 0.1970119
0.66672558 0.01764415 0.19658598
0.6667217 0.018179465 0.19657795
0.66577357 0.018707978 0.19615197
0.6657697 0.019244887 0.19614391
0.66482151 0.019778179 0.19571786
0.66387331 0.02031466 0.19529176
0.66292512 0.020854324 0.19486561
0.66292119 0.021396013 0.19485748
0.66291732 0.0219377 0.19484934
0.66196901 0.022483738 0.19442309
0.66196513 0.02302702 0.19441493
0.66101682 0.023577837 0.19398862
0.67886347 -0.049861502 0.20221092
0.67885977 -0.0493453 0.20220317
0.67791426 -0.049044631 0.20177935
0.67791051 -0.048526838 0.20177157
0.676965 -0.048221387 0.20134771
0.67601937 -0.047912743 0.20092376
0.6750738 -0.047600918 0.20049979
0.67412817 -0.047285911 0.20007575
0.67412442 -0.046761744 0.20006788
0.67317873 -0.046441946 0.19964379
0.67317498 -0.045916196 0.19963589
0.67317116 -0.045390442 0.199628
0.67316741 -0.044864681 0.19962011
0.67316365 -0.044338927 0.19961222
0.67315984 -0.043813173 0.19960432
0.67409801 -0.043092608 0.2000128
0.6740942 -0.042568445 0.20000494
0.67503244 -0.041852657 0.2004135
0.67502868 -0.041330088 0.20040566
0.67502493 -0.040807515 0.2003978
0.67596316 -0.040098108 0.20080645
0.67595941 -0.03957713 0.20079863
0.6768977 -0.038872492 0.20120735
0.67689395 -0.038353112 0.20119956
0.67783231 -0.037653256 0.20160834
0.67782855 -0.037135471 0.20160057
0.67876691 -0.036440391 0.20200944
0.67876321 -0.035924196 0.20200169
0.67875952 -0.035407998 0.20199394
0.67969787 -0.0347193 0.2024029
0.67969418 -0.034204695 0.20239517
0.67969048 -0.033690091 0.20238745
0.6806289 -0.033007767 0.2027965
0.6806252 -0.032494754 0.2027888
0.6806215 -0.031981748 0.2027811
0.68156004 -0.031305786 0.20319025
0.68155634 -0.030794371 0.20318258
0.68155265 -0.030282952 0.2031749
0.68249118 -0.029613368 0.20358413
0.68248755 -0.029103547 0.20357649
0.68248385 -0.028593723 0.20356883
0.68342245 -0.027930513 0.20397818
0.68341881 -0.027422279 0.20397055
0.68341511 -0.026914053 0.20396292
0.68341148 -0.026405819 0.20395529
0.68340784 -0.025897589 0.20394766
0.68434644 -0.025243942 0.20435715
0.6843428 -0.024737302 0.20434955
0.68433917 -0.024230665 0.20434193
0.68433553 -0.023724029 0.20433433
0.68433189 -0.023217393 0.20432672
0.68432826 -0.022710752 0.20431912
0.68432456 -0.022204116 0.20431152
0.68526334 -0.021563208 0.2047212
0.6852597 -0.021058166 0.20471361
0.68525606 -0.020553119 0.20470603
0.68525243 -0.020048074 0.20469844
0.68524879 -0.019543031 0.20469087
0.68524516 -0.01903799 0.20468329
0.68524152 -0.018532945 0.2046757
0.68523788 -0.018027902 0.20466812
0.68523425 -0.017522857 0.20466053
0.68523067 -0.017017813 0.20465297
0.68522704 -0.016512768 0.20464538
0.6852234 -0.016007721 0.2046378
0.68521976 -0.01550268 0.20463021
0.68521613 -0.014997638 0.20462263
0.68521249 -0.014492592 0.20461506
0.68520886 -0.01398755 0.20460747
0.68520522 -0.013482505 0.20459989
0.68520159 -0.012977462 0.2045923
0.68519795 -0.012472418 0.20458472
0.68519431 -0.011967372 0.20457715
0.68519068 -0.011462328 0.20456956
0.68518704 -0.010957284 0.20456198
0.68518341 -0.010452242 0.20455439
0.68517977 -0.0099471975 0.20454681
0.68517613 -0.0094421543 0.20453924
0.6851725 -0.0089371102 0.20453165
0.68516886 -0.0084320661 0.20452407
0.68516523 -0.0079270201 0.20451649
0.68421888 -0.0075116381 0.20409095
0.68421525 -0.007005 0.20408334
0.68421161 -0.0064983638 0.20407574
0.68420792 -0.0059917271 0.20406814
0.68420428 -0.005485089 0.20406052
0.68420064 -0.0049784528 0.20405293
0.68419701 -0.0044718166 0.20404531
0.68419337 -0.0039651762 0.20403771
0.68418974 -0.00345854 0.2040301
0.68324327 -0.0030272231 0.20360433
0.68323964 -0.0025189924 0.2035967
0.68323594 -0.002010762 0.20358907
0.68323231 -0.0015025333 0.20358144
0.68322861 -0.00099430094 0.20357381
0.68322498 -0.00048607035 0.20356618
0.68227845 -4.3603708e-05 0.20314023
0.68227476 0.00046621918 0.20313258
0.68227112 0.00097604393 0.20312493
0.68226743 0.0014858678 0.20311727
0.68132085 0.001936303 0.20269123
0.68131715 0.0024477202 0.20268354
0.68131346 0.0029591373 0.20267586
0.68130982 0.0034705542 0.20266819
0.68036312 0.0039289538 0.202242
0.68035942 0.0044419649 0.2022343
0.68035573 0.0049549742 0.20222659
0.68035209 0.0054679839 0.20221889
0.67940539 0.0059343516 0.2017926
0.67940164 0.0064489553 0.20178488
0.67845494 0.0069201025 0.20135851
0.67845124 0.0074362983 0.20135076
0.67750442 0.0079122242 0.20092431
0.67655766 0.0083913365 0.20049782
0.67655391 0.0089107202 0.20049003
0.67560703 0.0093946112 0.20006345
0.67560333 0.0099155875 0.20005563
0.67465645 0.01040426 0.19962901
0.67370951 0.010896118 0.19920231
0.67370576 0.011420281 0.19919445
0.67275888 0.011916919 0.19876769
0.67275506 0.012442674 0.19875981
0.67180806 0.012944091 0.19833298
0.67180431 0.013471439 0.19832505
0.67085731 0.013977637 0.19789816
0.6708535 0.014506579 0.19789022
0.6699065 0.015017556 0.19746326
0.66990268 0.015548091 0.1974553
0.66895556 0.016063847 0.19702825
0.66800851 0.016582791 0.19660115
0.66706139 0.017104918 0.19617401
0.66705751 0.017640233 0.19616598
0.6661104 0.018167142 0.19573878
0.66610652 0.018704051 0.19573072
0.66515934 0.019235738 0.19530343
0.66421217 0.019770613 0.1948761
0.66420829 0.020310707 0.194868
0.66326106 0.020850362 0.1944406
0.66325718 0.021392049 0.19443247
0.66230989 0.021936484 0.194005
0.66230595 0.022479765 0.19399683
0.66230208 0.023023045 0.19398868
0.66135472 0.023573851 0.19356112
0.67823535 -0.04904842 0.20137309
0.67729086 -0.048744563 0.20094799
0.67634624 -0.048437539 0.20052283
0.67540169 -0.048127312 0.20009762
0.67445701 -0.047813904 0.19967236
0.6735124 -0.047497306 0.19924706
0.67350858 -0.046971545 0.19923916
0.67350483 -0.046445794 0.19923128
0.6725601 -0.046122827 0.19880587
0.67255634 -0.045595486 0.19879796
0.6734935 -0.044868529 0.1992076
0.67348969 -0.044342771 0.19919971
0.67348593 -0.043817021 0.19919181
0.67348212 -0.04329126 0.19918393
0.67441928 -0.042572282 0.19959366
0.67441553 -0.042048115 0.1995858
0.67535275 -0.04133391 0.19999564
0.675349 -0.040811341 0.1999878
0.67534524 -0.040288772 0.19997995
0.67628253 -0.039580941 0.20038986
0.67627877 -0.039059967 0.20038204
0.67721611 -0.038356911 0.20079204
0.67721236 -0.037837528 0.20078425
0.6781497 -0.037139259 0.2011943
0.67814595 -0.03662147 0.20118654
0.67908335 -0.035927974 0.20159668
0.67907965 -0.035411775 0.20158893
0.6790759 -0.034895577 0.20158118
0.68001336 -0.034208462 0.20199141
0.6800096 -0.033693857 0.20198369
0.68000591 -0.033179257 0.20197596
0.68094337 -0.032498509 0.20238629
0.68093967 -0.031985503 0.20237859
0.68093598 -0.031472489 0.20237088
0.6818735 -0.030798113 0.20278132
0.68186986 -0.030286694 0.20277363
0.68186617 -0.029775275 0.20276596
0.68280369 -0.029107276 0.20317648
0.68280005 -0.028597452 0.20316882
0.68279636 -0.028087631 0.20316117
0.68279272 -0.027577806 0.20315352
0.68373036 -0.026917771 0.20356417
0.68372667 -0.026409537 0.20355654
0.68372303 -0.025901306 0.20354891
0.6837194 -0.02539308 0.20354128
0.6837157 -0.024884846 0.20353365
0.68371207 -0.024376618 0.20352602
0.68464977 -0.023727736 0.20393682
0.68464607 -0.0232211 0.20392922
0.68464243 -0.022714458 0.20392162
0.6846388 -0.022207823 0.203914
0.68463516 -0.021701187 0.2039064
0.68463153 -0.021194549 0.20389879
0.68462789 -0.020687914 0.20389119
0.6846242 -0.020181274 0.20388357
0.68462056 -0.019674636 0.20387597
0.68461692 -0.019168001 0.20386837
0.68555474 -0.018536638 0.20427944
0.68555111 -0.018031597 0.20427187
0.68554753 -0.01752655 0.20426428
0.68554389 -0.017021509 0.2042567
0.68554026 -0.016516464 0.20424911
0.68553662 -0.016011417 0.20424153
0.68553299 -0.015506375 0.20423396
0.68552935 -0.015001333 0.20422637
0.68552572 -0.014496287 0.20421879
0.68552208 -0.013991245 0.20421121
0.68551844 -0.013486201 0.20420362
0.68551481 -0.012981157 0.20419605
0.68551117 -0.012476113 0.20418847
0.68550754 -0.011971067 0.20418088
0.6855039 -0.011466024 0.2041733
0.68550026 -0.010960979 0.20416571
0.68549663 -0.010455937 0.20415814
0.6845513 -0.01004853 0.20373146
0.68454766 -0.0095418934 0.20372386
0.68454403 -0.0090352576 0.20371625
0.68454039 -0.0085286209 0.20370865
0.68453676 -0.0080219815 0.20370105
0.68453306 -0.0075153448 0.20369343
0.68452942 -0.0070087067 0.20368584
0.68452579 -0.00650207 0.20367822
0.68452215 -0.0059954338 0.20367062
0.68451852 -0.0054887957 0.20366302
0.68451488 -0.0049821595 0.20365541
0.68451118 -0.0044755233 0.20364781
0.6835658 -0.0040474008 0.20322083
0.6835621 -0.003539172 0.2032132
0.68355846 -0.0030309414 0.20320557
0.68355483 -0.0025227109 0.20319794
0.68355113 -0.0020144803 0.20319031
0.6835475 -0.0015062516 0.20318268
0.68354386 -0.00099801924 0.20317505
0.68259829 -0.00055715651 0.20274788
0.6825946 -4.733364e-05 0.20274022
0.68259096 0.00046248923 0.20273258
0.68258727 0.00097231398 0.20272492
0.6816417 0.0014211453 0.20229763
0.681638 0.0019325614 0.20228995
0.68163437 0.0024439786 0.20228228
0.68163067 0.0029553955 0.20227461
0.68068498 0.0034121911 0.2018472
0.68068129 0.0039252006 0.20183949
0.68067759 0.0044382117 0.20183179
0.6806739 0.0049512209 0.20182408
0.67972821 0.005415983 0.20139657
0.67972451 0.0059305867 0.20138884
0.67877877 0.0064001298 0.20096125
0.67877507 0.0069163255 0.2009535
0.67782927 0.0073906463 0.20052582
0.67782557 0.0079084365 0.20051804
0.67687976 0.0083875367 0.20009032
0.6759339 0.0088698249 0.19966251
0.67593014 0.0093908003 0.1996547
0.67498428 0.009877868 0.19922684
0.67498052 0.010400437 0.19921899
0.6740346 0.010892283 0.19879106
0.67403084 0.011416445 0.19878319
0.67308491 0.011913072 0.19835518
0.67308116 0.012438827 0.1983473
0.67213517 0.012940233 0.1979192
0.67213136 0.013467582 0.19791129
0.67118537 0.013973767 0.19748315
0.67023933 0.01448314 0.19705495
0.67023551 0.015013674 0.197047
0.66928947 0.015527826 0.19661872
0.6692856 0.016059954 0.19661073
0.66833955 0.016578885 0.1961824
0.66739339 0.017101003 0.19575401
0.66644728 0.017626306 0.19532558
0.66644341 0.018163214 0.19531752
0.66549718 0.018693298 0.19488899
0.66549331 0.019231798 0.19488092
0.66454715 0.019766662 0.19445235
0.66360092 0.020304712 0.19402373
0.66359699 0.020846399 0.19401559
0.6626507 0.021389227 0.19358689
0.66264683 0.021932509 0.19357873
0.6626429 0.02247579 0.19357057
0.66263896 0.02301907 0.19356242
0.66169268 0.023569865 0.19313361
0.6785602 -0.049569998 0.20097461
0.6785565 -0.049052209 0.20096684
0.67289853 -0.047708739 0.19841586
0.67289478 -0.047181387 0.19840795
0.67289096 -0.046654038 0.19840004
0.67288721 -0.046126686 0.19839211
0.67288339 -0.045599345 0.1983842
0.67287958 -0.045071989 0.19837628
0.67287582 -0.044544641 0.19836837
0.67381197 -0.043820865 0.19877931
0.67380822 -0.043295108 0.19877142
0.6738044 -0.042769354 0.19876352
0.67474061 -0.042051952 0.19917455
0.67473686 -0.041527793 0.19916669
0.67567313 -0.040815163 0.19957778
0.67566937 -0.040292595 0.19956994
0.67660564 -0.039584752 0.19998111
0.67660189 -0.039063778 0.19997329
0.67659813 -0.038542803 0.19996548
0.67753446 -0.037841327 0.20037675
0.67753071 -0.037321948 0.20036894
0.67846709 -0.036625255 0.20078029
0.67846334 -0.036107469 0.20077251
0.67939979 -0.035415553 0.20118393
0.67939603 -0.034899354 0.20117618
0.67939234 -0.034383159 0.20116843
0.68032879 -0.03369762 0.20157993
0.68032509 -0.03318302 0.20157221
0.6803214 -0.032668415 0.20156448
0.68125784 -0.031989254 0.20197609
0.68125415 -0.031476241 0.20196839
0.68125045 -0.030963233 0.20196068
0.68218702 -0.030290436 0.20237239
0.68218333 -0.029779017 0.20236471
0.68217963 -0.029267602 0.20235702
0.68217599 -0.028756183 0.20234935
0.68311256 -0.028091362 0.20276116
0.68310887 -0.027581537 0.20275351
0.68310523 -0.027071716 0.20274585
0.68310153 -0.02656189 0.20273821
0.6830979 -0.026052065 0.20273055
0.68403459 -0.025396798 0.20314252
0.68403089 -0.024888564 0.20313489
0.68402725 -0.024380337 0.20312726
0.68402362 -0.023872102 0.20311964
0.68401992 -0.023363875 0.20311201
0.68401629 -0.022855645 0.20310438
0.68495303 -0.022211529 0.2035165
0.68494934 -0.021704894 0.2035089
0.6849457 -0.021198256 0.20350128
0.68494207 -0.02069162 0.20349368
0.68493843 -0.020184981 0.20348607
0.68493479 -0.019678343 0.20347847
0.68493116 -0.019171707 0.20347086
0.68492752 -0.018665068 0.20346326
0.68492383 -0.018158432 0.20345566
0.68492019 -0.017651794 0.20344804
0.68491656 -0.017145159 0.20344044
0.68491292 -0.016638523 0.20343283
0.68490928 -0.016131882 0.20342523
0.68490565 -0.015625246 0.20341763
0.68490195 -0.015118609 0.20341001
0.68583894 -0.014499982 0.20382254
0.68489468 -0.014105335 0.2033948
0.68489105 -0.013598698 0.2033872
0.68488741 -0.013092061 0.2033796
0.68488377 -0.012585424 0.20337199
0.68488008 -0.012078786 0.20336439
0.68487644 -0.011572148 0.20335677
0.68487281 -0.011065511 0.20334917
0.68486917 -0.010558875 0.20334157
0.68486553 -0.010052237 0.20333396
0.6848619 -0.0095456 0.20332636
0.6848582 -0.0090389643 0.20331874
0.68485457 -0.0085323276 0.20331115
0.68485093 -0.0080256881 0.20330353
0.6848473 -0.0075190514 0.20329593
0.68484366 -0.0070124133 0.20328833
0.68484002 -0.0065057767 0.20328072
0.68483639 -0.0059991404 0.20327312
0.68483269 -0.0054925024 0.2032655
0.68482906 -0.0049858661 0.2032579
0.68388462 -0.0045593511 0.2028297
0.68388098 -0.0040511186 0.20282207
0.68387735 -0.0035428901 0.20281444
0.68387365 -0.0030346597 0.20280682
0.68387002 -0.002526429 0.20279919
0.68386632 -0.0020181986 0.20279156
0.68386269 -0.0015099698 0.20278393
0.68291813 -0.0010707093 0.20235553
0.6829145 -0.00056088646 0.20234787
0.6829108 -5.1063569e-05 0.20234022
0.68290716 0.00045875931 0.20233257
0.68196255 0.00090598752 0.20190406
0.68195885 0.0014174037 0.20189638
0.68195522 0.0019288198 0.20188871
0.68195152 0.002440237 0.20188102
0.68100685 0.0028954283 0.20145239
0.68100315 0.0034084378 0.20144469
0.68099946 0.0039214473 0.20143698
0.68005478 0.0043830131 0.20100826
0.68005109 0.0048976159 0.20100054
0.68004739 0.0054122182 0.20099281
0.67910266 0.0058801565 0.200564
0.6790989 0.0063963532 0.20055625
0.67815411 0.0068690688 0.20012735
0.67815042 0.0073868581 0.20011957
0.67720562 0.0078643551 0.19969061
0.67720187 0.0083837369 0.1996828
0.67625701 0.008866013 0.19925377
0.67531216 0.0093514752 0.19882467
0.67530841 0.0098740449 0.19881684
0.67436349 0.010364286 0.19838767
0.67435968 0.010888448 0.1983798
0.67341477 0.01138347 0.19795057
0.67341101 0.011909226 0.19794269
0.67246598 0.012409026 0.19751337
0.67246222 0.012936374 0.19750546
0.67151719 0.013440955 0.19707608
0.67151338 0.013969897 0.19706814
0.67056835 0.014479258 0.1966387
0.66962332 0.014991804 0.19620921
0.66961944 0.015523933 0.19620122
0.66867435 0.016041258 0.19577165
0.66772926 0.016561771 0.19534203
0.66772538 0.017097086 0.195334
0.66678023 0.017622378 0.19490431
0.66583502 0.018150857 0.19447458
0.66583115 0.018689359 0.1944665
0.66488594 0.019222615 0.19403669
0.66394073 0.019759061 0.19360685
0.66393685 0.020300748 0.19359872
0.66299158 0.020841973 0.19316879
0.66298765 0.021385254 0.19316062
0.66298372 0.021928534 0.19315247
0.66203845 0.022476131 0.19272245
0.66203451 0.023021005 0.19271429
0.66203058 0.023565879 0.19270611
0.67228675 -0.047920182 0.19758219
0.67228293 -0.04739124 0.19757424
0.67227912 -0.0468623 0.1975663
0.6722753 -0.046333354 0.19755836
0.67227149 -0.045804415 0.19755042
0.67320663 -0.045075849 0.19796252
0.67320287 -0.0445485 0.19795461
0.67319906 -0.044021152 0.1979467
0.67413425 -0.043298952 0.19835891
0.6741305 -0.042773202 0.19835103
0.67412668 -0.042247441 0.19834313
0.67506194 -0.04153163 0.19875543
0.67505813 -0.041007463 0.19874756
0.67599344 -0.04029642 0.19915994
0.67598969 -0.039773848 0.1991521
0.67692494 -0.039067589 0.19956453
0.67692125 -0.038546614 0.19955671
0.67785656 -0.037845127 0.19996923
0.67785287 -0.037325747 0.19996144
0.67784911 -0.03680636 0.19995365
0.67878449 -0.036111258 0.20036626
0.67878073 -0.035593465 0.20035848
0.67971617 -0.034903131 0.20077118
0.67971247 -0.034386937 0.20076343
0.67970878 -0.033870738 0.20075567
0.68064421 -0.033186786 0.20116845
0.68064052 -0.032672178 0.20116073
0.68063682 -0.032157578 0.201153
0.68157232 -0.031479996 0.20156588
0.68156862 -0.030966986 0.20155817
0.68156493 -0.030453976 0.20155047
0.68156123 -0.029940963 0.20154276
0.68249685 -0.029271344 0.20195578
0.68249315 -0.028759925 0.20194811
0.68248945 -0.028248513 0.20194042
0.68248582 -0.027737094 0.20193274
0.68342143 -0.027075445 0.20234586
0.68341774 -0.026565621 0.2023382
0.68341404 -0.026055796 0.20233054
0.68341041 -0.025545975 0.2023229
0.68340671 -0.025036147 0.20231524
0.68434244 -0.024384055 0.20272851
0.68433881 -0.023875821 0.20272088
0.68433511 -0.023367593 0.20271325
0.68433148 -0.022859363 0.20270562
0.68432784 -0.022351133 0.20269799
0.68432415 -0.021842903 0.20269036
0.68432051 -0.021334672 0.20268273
0.6852563 -0.020695327 0.20309618
0.68525267 -0.020188687 0.20308857
0.68524897 -0.01968205 0.20308097
0.68524534 -0.019175414 0.20307335
0.6852417 -0.018668775 0.20306575
0.68523806 -0.018162137 0.20305815
0.68523443 -0.017655501 0.20305054
0.68523079 -0.017148865 0.20304294
0.6852271 -0.01664223 0.20303532
0.68522346 -0.016135588 0.20302773
0.68521982 -0.015628953 0.20302011
0.68521619 -0.015122316 0.20301251
0.68521255 -0.01461568 0.20300491
0.68520892 -0.014109042 0.2029973
0.68520522 -0.013602405 0.2029897
0.68520159 -0.013095767 0.20298208
0.68519795 -0.012589131 0.20297448
0.68519431 -0.012082492 0.20296688
0.68519068 -0.011575854 0.20295927
0.68518704 -0.011069218 0.20295167
0.68518341 -0.010562582 0.20294406
0.68517971 -0.010055943 0.20293646
0.68517607 -0.0095493067 0.20292886
0.68517244 -0.009042671 0.20292124
0.6851688 -0.0085360343 0.20291364
0.68516517 -0.0080293939 0.20290603
0.68516153 -0.0075227581 0.20289843
0.68515784 -0.0070161195 0.20289083
0.6851542 -0.0065094833 0.20288321
0.68421078 -0.0060877609 0.20245384
0.68420714 -0.0055795307 0.20244621
0.68420351 -0.0050713001 0.20243858
0.68419981 -0.0045630694 0.20243095
0.68419617 -0.0040548369 0.20242332
0.68419254 -0.0035466084 0.20241569
0.68418884 -0.0030383777 0.20240806
0.68418521 -0.0025301473 0.20240043
0.68418157 -0.0020219167 0.2023928
0.68323797 -0.001584264 0.20196317
0.68323433 -0.0010744393 0.20195553
0.68323064 -0.00056461635 0.20194787
0.683227 -5.4793447e-05 0.20194022
0.6822834 0.00039082704 0.20151049
0.68227971 0.00090224599 0.20150281
0.68227607 0.0014136621 0.20149513
0.68227237 0.0019250783 0.20148745
0.68132871 0.0023786637 0.20105758
0.68132502 0.0028916751 0.20104988
0.68132132 0.0034046846 0.20104218
0.6803776 0.0038646446 0.20061223
0.68037391 0.0043792482 0.20060451
0.68037021 0.004893851 0.20059678
0.67942649 0.0053601838 0.20016673
0.6794228 0.00587638 0.20015898
0.67941904 0.0063925767 0.20015123
0.67847526 0.0068652807 0.19972108
0.67753148 0.0073411721 0.1992909
0.67752773 0.0078605553 0.19928309
0.67658383 0.0083412249 0.19885282
0.67658013 0.0088622021 0.198845
0.67563623 0.0093476521 0.19841467
0.67563248 0.0098702218 0.19840683
0.67468852 0.010360451 0.19797641
0.67374462 0.010853868 0.19754596
0.6737408 0.011379624 0.19753808
0.67279685 0.011877819 0.19710754
0.67279303 0.012405167 0.19709961
0.67184907 0.012908144 0.19666903
0.67184526 0.013437086 0.19666108
0.67090124 0.013944841 0.19623041
0.67089742 0.014475376 0.19622245
0.66995329 0.014987911 0.19579171
0.66900921 0.015503633 0.19536091
0.66900539 0.016037354 0.1953529
0.66806126 0.016557856 0.19492203
0.66711706 0.017081542 0.19449112
0.66711324 0.017618451 0.19448307
0.66616899 0.018146917 0.19405207
0.66522479 0.01867857 0.19362105
0.66522092 0.019218665 0.19361295
0.66427666 0.019755097 0.19318184
0.66427279 0.020296786 0.19317372
0.66332847 0.020837998 0.19274253
0.66332459 0.021381279 0.19273438
0.66238028 0.021927271 0.19230314
0.66237634 0.022472145 0.19229496
0.66237241 0.023017019 0.19228677
0.66142803 0.023569383 0.19185543
0.67167687 -0.048131656 0.19674601
0.67167306 -0.047601111 0.19673803
0.67166924 -0.047070585 0.19673008
0.67166543 -0.046540044 0.19672211
0.67259955 -0.045808285 0.19713542
0.67259574 -0.045279343 0.19712748
0.67259192 -0.0447504 0.19711953
0.67352611 -0.044025011 0.19753294
0.67352229 -0.043497659 0.19752502
0.67445654 -0.042777047 0.19793852
0.67445278 -0.042251289 0.19793062
0.67538702 -0.041535463 0.19834417
0.67538321 -0.041011296 0.1983363
0.67537946 -0.040487137 0.19832844
0.67631376 -0.03977767 0.19874209
0.67631 -0.039255101 0.19873424
0.67724431 -0.038550425 0.19914795
0.67724055 -0.038029447 0.19914013
0.67817497 -0.037329547 0.19955394
0.67817122 -0.03681016 0.19954614
0.67816746 -0.036290783 0.19953834
0.67910188 -0.035597254 0.19995223
0.67909813 -0.035079461 0.19994445
0.68003261 -0.034390714 0.20035842
0.68002892 -0.033874515 0.20035067
0.68002522 -0.033358321 0.20034292
0.68095964 -0.032675944 0.20075697
0.68095595 -0.032161344 0.20074925
0.68095225 -0.03164674 0.20074151
0.68188679 -0.030970739 0.20115566
0.6818831 -0.030457729 0.20114796
0.6818794 -0.029944716 0.20114025
0.68187571 -0.029431712 0.20113257
0.68281031 -0.028763667 0.20154685
0.68280667 -0.028252255 0.20153916
0.68280298 -0.027740836 0.20153148
0.68279928 -0.027229421 0.20152381
0.68279558 -0.026718002 0.20151614
0.68373024 -0.026059525 0.20193054
0.68372661 -0.025549704 0.20192289
0.68372291 -0.025039876 0.20191523
0.68371928 -0.024530055 0.20190758
0.68371558 -0.02402023 0.20189993
0.6846503 -0.023371313 0.2023145
0.68464667 -0.022863081 0.20230687
0.68464303 -0.022354851 0.20229924
0.68463933 -0.02184662 0.20229161
0.6846357 -0.02133839 0.20228398
0.68463206 -0.02083016 0.20227635
0.68462837 -0.020321928 0.20226872
0.68462473 -0.019813698 0.20226109
0.6846211 -0.019305468 0.20225346
0.68555593 -0.018672481 0.20266825
0.68555224 -0.018165844 0.20266064
0.6855486 -0.017659208 0.20265304
0.68554497 -0.017152572 0.20264544
0.68554133 -0.016645936 0.20263782
0.6855377 -0.016139295 0.20263022
0.68553406 -0.015632659 0.20262261
0.68553036 -0.015126023 0.20261501
0.68552673 -0.014619387 0.20260741
0.68552309 -0.014112748 0.20259979
0.68551946 -0.013606112 0.20259219
0.68551582 -0.013099474 0.20258458
0.68551219 -0.012592837 0.20257698
0.68550855 -0.012086199 0.20256937
0.68550485 -0.011579561 0.20256177
0.68550122 -0.011072924 0.20255417
0.68549758 -0.010566289 0.20254655
0.68549395 -0.01005965 0.20253895
0.68549031 -0.0095530134 0.20253134
0.68548667 -0.0090463776 0.20252374
