# .PCD v0.7 - Point Cloud Data file format
VERSION 0.7
FIELDS x y z
SIZE 4 4 4
TYPE F F F
COUNT 1 1 1
WIDTH 1387
HEIGHT 1
VIEWPOINT 0 0 0 1 0 0 0
POINTS 1387
DATA ascii
0.57339334 0.054936673 0.031512141
0.57338744 0.055750798 0.031499919
0.5733816 0.056564923 0.031487696
0.57337576 0.057379048 0.031475473
0.57336992 0.058193173 0.031463254
0.57336402 0.059007298 0.031451032
0.57335818 0.059821419 0.031438809
0.57335234 0.060635544 0.031426586
0.5733465 0.061449673 0.031414367
0.57334059 0.062263798 0.031402145
0.57333475 0.063077927 0.031389922
0.57332891 0.063892044 0.031377699
0.57332301 0.064706169 0.03136548
0.57331717 0.065520294 0.031353258
0.57331133 0.066334419 0.031341035
0.57330549 0.067148544 0.031328812
0.57249588 0.068054572 0.030718394
0.57249004 0.068870291 0.030706149
0.57248414 0.069686003 0.030693902
0.57247829 0.070501722 0.030681657
0.57247239 0.071317442 0.030669412
0.57246655 0.072133161 0.030657165
0.57246071 0.072948873 0.03064492
0.57245481 0.073764592 0.030632675
0.57244897 0.074580312 0.030620428
0.57244307 0.075396031 0.030608183
0.57243723 0.076211751 0.030595938
0.57243133 0.07702747 0.030583691
0.57242548 0.077843182 0.030571446
0.57241958 0.078658901 0.030559201
0.57241374 0.079474621 0.030546954
0.57240784 0.080290332 0.030534709
0.572402 0.081106059 0.030522462
0.5723961 0.081921771 0.030510217
0.57239026 0.082737491 0.030497972
0.57158047 0.083675377 0.029887073
0.57157457 0.084492691 0.029874803
0.57156867 0.085309997 0.029862534
0.57156283 0.086127311 0.029850265
0.57155693 0.086944632 0.029837996
0.57155102 0.087761939 0.029825725
0.57154518 0.088579245 0.029813455
0.57153928 0.089396551 0.029801186
0.57153338 0.090213872 0.029788917
0.57152754 0.091031179 0.029776648
0.57152164 0.091848493 0.029764378
0.57151574 0.092665799 0.029752107
0.5715099 0.093483105 0.029739838
0.571504 0.094300427 0.029727569
0.5714981 0.095117733 0.0297153
0.57068813 0.096081115 0.029104019
0.57068223 0.096900016 0.029091725
0.57067639 0.097718924 0.029079432
0.57067049 0.098537818 0.029067138
0.57066458 0.099356726 0.029054845
0.5698545 0.10032968 0.028443383
0.5698486 0.10115018 0.028431065
0.5698427 0.10197068 0.028418748
0.5698368 0.10279117 0.02840643
0.56902665 0.10377207 0.027794886
0.56821656 0.10475617 0.027183294
0.5682106 0.10557985 0.02717093
0.56659615 0.10673393 0.025959931
0.56659019 0.10756079 0.025947519
0.58882964 0.25339285 0.041066263
0.58882403 0.25417352 0.041054547
0.58881837 0.25495419 0.041042827
0.58881277 0.25573486 0.041031107
0.58880717 0.25651553 0.041019388
0.58960807 0.25681394 0.041611727
0.58960247 0.25759304 0.04160003
0.58959687 0.2583721 0.041588333
0.58959126 0.25915119 0.041576639
0.58958566 0.25993025 0.041564945
0.58958006 0.26070932 0.041553248
0.5895744 0.26148841 0.04154155
0.55882603 0.031704865 0.019858595
0.55881995 0.032549262 0.019845918
0.55881387 0.033393659 0.019833243
0.55961007 0.034213074 0.020419011
0.56040627 0.035029307 0.021004861
0.56120247 0.035842348 0.021590725
0.562801 0.036622453 0.022775153
0.5643996 0.037396181 0.023959711
0.56680048 0.038130593 0.025742892
0.56839919 0.038889982 0.026927667
0.56999791 0.039643001 0.028112501
0.57159668 0.040389646 0.029297465
0.57239312 0.041169234 0.029883832
0.57318962 0.041945633 0.030470245
0.57318372 0.042761356 0.030458
0.57317787 0.043577071 0.030445753
0.57317203 0.044392787 0.030433508
0.57316613 0.045208506 0.030421263
0.57316029 0.046024226 0.030409016
0.57315439 0.046839941 0.030396771
0.57395095 0.0476036 0.030983375
0.57394511 0.048417721 0.030971155
0.57393926 0.049231846 0.030958932
0.57393336 0.050045975 0.030946711
0.57392752 0.050860099 0.030934488
0.57392168 0.051674221 0.030922268
0.57391584 0.052488346 0.030910045
0.57390994 0.053302471 0.030897824
0.5739041 0.054116592 0.030885601
0.57389826 0.054930717 0.030873381
0.57389235 0.055744842 0.030861158
0.57388651 0.05655897 0.030848937
0.57388067 0.057373092 0.030836714
0.57387483 0.058187217 0.030824494
0.57386893 0.059001341 0.030812271
0.57386309 0.059815463 0.03080005
0.57385725 0.060629588 0.030787827
0.57385141 0.061443716 0.030775607
0.57304287 0.062338576 0.030164102
0.57303703 0.063154295 0.030151857
0.57303113 0.063970014 0.030139612
0.57302529 0.064785734 0.030127365
0.57301939 0.065601446 0.03011512
0.57301354 0.066417165 0.030102875
0.57300764 0.067232884 0.030090628
0.5730018 0.068048604 0.030078383
0.5729959 0.068864323 0.030066138
0.5721873 0.069775119 0.029454395
0.5721814 0.070592426 0.029442126
0.57217556 0.07140974 0.029429857
0.57216966 0.072227046 0.029417587
0.57216376 0.07304436 0.029405318
0.57215792 0.073861666 0.029393049
0.57215202 0.07467898 0.029380778
0.57214618 0.075496286 0.029368509
0.57214028 0.076313607 0.029356239
0.57213438 0.077130921 0.02934397
0.57212853 0.07794822 0.029331701
0.57212263 0.078765534 0.02931943
0.57211673 0.079582848 0.029307161
0.57211089 0.080400161 0.029294891
0.57210499 0.081217475 0.029282622
0.57209909 0.082034774 0.029270353
0.57209325 0.082852088 0.029258084
0.57208735 0.083669394 0.029245812
0.57208145 0.084486715 0.029233543
0.57207561 0.085304022 0.029221274
0.5720697 0.086121328 0.029209005
0.57126081 0.087067179 0.028596736
0.57125497 0.08788608 0.028584443
0.57124907 0.088704988 0.02857215
0.57124317 0.089523889 0.028559856
0.57123727 0.09034279 0.028547563
0.57123137 0.091161691 0.028535269
0.57122546 0.091980599 0.028522976
0.57121956 0.092799515 0.02851068
0.57121372 0.093618415 0.028498387
0.57120782 0.094437316 0.028486094
0.57120192 0.095256217 0.0284738
0.57119602 0.096075125 0.028461507
0.57119012 0.096894026 0.028449213
0.57118422 0.097712927 0.02843692
0.57037514 0.098682679 0.027824258
0.57036924 0.099503182 0.027811941
0.57036334 0.10032368 0.027799623
0.57035744 0.10114417 0.027787305
0.57035154 0.10196467 0.027774988
0.56954241 0.10294396 0.027162218
0.56873327 0.10392646 0.026549399
0.56872737 0.10475014 0.026537035
0.56791824 0.10573741 0.025924144
0.56630576 0.10689306 0.024710622
0.5654965 0.10788829 0.024097612
0.58930814 0.2541678 0.040442035
0.58930254 0.2549485 0.040430315
0.58929694 0.25572914 0.040418595
0.58929133 0.25650981 0.040406879
0.58928567 0.25729048 0.040395159
0.59008563 0.25758734 0.040988769
0.59008002 0.25836641 0.040977076
0.59007442 0.2591455 0.040965378
0.59006882 0.25992453 0.040953685
0.59006321 0.26070362 0.040941987
0.59005761 0.26148272 0.040930294
0.5593558 0.030854292 0.019208761
0.55934972 0.031698689 0.019196086
0.56014484 0.032521304 0.019783055
0.56013882 0.03336411 0.019770402
0.56013274 0.034206908 0.01975775
0.56092799 0.035023149 0.020344852
0.5625245 0.035808053 0.021531707
0.56331974 0.036616333 0.022118893
0.56491637 0.037390083 0.023305951
0.56731427 0.038124532 0.025092883
0.56891102 0.038883943 0.026280157
0.57050776 0.039636988 0.027467491
0.57130319 0.040421367 0.028055035
0.5729 0.041163255 0.029242571
0.57289416 0.041980565 0.029230302
0.57368964 0.042755388 0.029817989
0.5736838 0.043571103 0.029805744
0.5736779 0.044386819 0.029793497
0.57367206 0.045202538 0.029781252
0.57366616 0.046018258 0.029769007
0.57366031 0.046833973 0.02975676
0.57365441 0.047649689 0.029744515
0.57364857 0.048465408 0.02973227
0.57364267 0.049281124 0.029720023
0.57363683 0.050096847 0.029707778
0.57363093 0.050912566 0.029695533
0.57362509 0.051728278 0.029683286
0.57361919 0.052543998 0.029671041
0.57361335 0.053359717 0.029658796
0.57360744 0.054175433 0.029646549
0.5736016 0.054991148 0.029634304
0.5735957 0.055806868 0.029622059
0.57358986 0.056622587 0.029609812
0.57358402 0.057438307 0.029597567
0.57357812 0.058254022 0.029585322
0.57357228 0.059069738 0.029573075
0.57356638 0.059885457 0.02956083
0.57356054 0.060701177 0.029548585
0.57355464 0.061516892 0.029536339
0.57354879 0.062332608 0.029524093
0.57354289 0.063148327 0.029511848
0.57353705 0.063964047 0.029499602
0.57353115 0.064779766 0.029487357
0.57272363 0.065682583 0.028874485
0.57271773 0.066499896 0.028862214
0.57271183 0.067317203 0.028849944
0.57270598 0.068134516 0.028837675
0.57270008 0.068951823 0.028825406
0.57269418 0.069769137 0.028813137
0.57268834 0.07058645 0.028800867
0.57188064 0.071502008 0.028187802
0.57187474 0.072320908 0.028175509
0.5718689 0.073139817 0.028163215
0.571863 0.073958717 0.028150922
0.57185709 0.074777626 0.028138628
0.57185119 0.075596526 0.028126335
0.57184529 0.076415434 0.028114041
0.57183939 0.077234335 0.028101748
0.57183349 0.078053236 0.028089454
0.57182765 0.078872152 0.028077161
0.57182175 0.079691052 0.028064867
0.57181585 0.080509953 0.028052574
0.57180995 0.081328861 0.028040281
0.57180405 0.082147762 0.028027987
0.57179815 0.082966663 0.028015694
0.57179224 0.083785564 0.0280034
0.5717864 0.084604472 0.027991107
0.5717805 0.08542338 0.027978813
0.5717746 0.086242288 0.02796652
0.5717687 0.087061189 0.027954226
0.5717628 0.08788009 0.027941933
0.5717569 0.088698998 0.027929639
0.57175106 0.089517899 0.027917346
0.57094306 0.090471707 0.027303673
0.57093716 0.091292202 0.027291356
0.57093126 0.092112698 0.027279038
0.57092535 0.0929332 0.02726672
0.57091945 0.093753695 0.027254403
0.57091355 0.094574198 0.027242085
0.57090765 0.095394686 0.027229767
0.57090169 0.096215189 0.027217451
0.57089579 0.097035684 0.027205134
0.57088989 0.097856186 0.027192816
0.57088399 0.098676674 0.027180498
0.57087809 0.099497177 0.027168181
0.57087219 0.10031768 0.027155863
0.57006413 0.10129378 0.026541891
0.57005817 0.10211587 0.026529549
0.57005227 0.10293795 0.026517209
0.56844193 0.10408082 0.025301412
0.56763369 0.10506809 0.024687236
0.56762773 0.10589495 0.024674824
0.56601727 0.10705216 0.023458812
0.56520903 0.10804897 0.022844529
0.56278414 0.11105855 0.021001356
0.58978671 0.25494277 0.039817806
0.59058559 0.2552444 0.040412597
0.59057999 0.2560235 0.0404009
0.59057438 0.25680256 0.040389206
0.59056878 0.25758165 0.040377509
0.59056318 0.25836071 0.040365815
0.59055758 0.25913978 0.040354118
0.59055197 0.25991884 0.040342424
0.59054637 0.26069793 0.04033073
0.59054077 0.26147702 0.040319033
0.56067967 0.030829534 0.019147098
0.56067365 0.031672336 0.019134445
0.56066757 0.032515138 0.019121794
0.56066149 0.033357941 0.019109141
0.56145573 0.034175787 0.019697469
0.56224996 0.034990449 0.020285809
0.56304419 0.035801925 0.020874197
0.56463879 0.036580481 0.022063646
0.56623346 0.037352663 0.02325323
0.56782812 0.03811847 0.024442872
0.56942284 0.038877908 0.025632646
0.57101756 0.039630972 0.026822479
0.57181203 0.040415365 0.027411275
0.57260656 0.041196566 0.028000152
0.57340103 0.041974586 0.028589042
0.57339513 0.042791896 0.028576773
0.57338929 0.043609206 0.028564502
0.57338339 0.044426516 0.028552232
0.57337749 0.045243826 0.028539963
0.57337165 0.04606114 0.028527694
0.57336575 0.046878453 0.028515425
0.57416034 0.047643721 0.029104505
0.57335401 0.048513073 0.028490884
0.5733481 0.04933038 0.028478615
0.5733422 0.050147697 0.028466346
0.57333636 0.050965007 0.028454076
0.57333046 0.051782317 0.028441807
0.57332456 0.052599628 0.028429536
0.57331872 0.053416938 0.028417267
0.57331282 0.054234248 0.028404998
0.57330692 0.055051561 0.028392728
0.57330108 0.055868868 0.028380459
0.57329518 0.056686185 0.02836819
0.57328928 0.057503492 0.028355919
0.57328343 0.058320805 0.02834365
0.57327753 0.059138115 0.02833138
0.57327163 0.059955426 0.028319111
0.57326579 0.060772736 0.028306842
0.57325989 0.061590046 0.028294571
0.57325399 0.062407356 0.028282302
0.57324815 0.063224673 0.028270032
0.57324225 0.06404198 0.028257763
0.57323635 0.064859293 0.028245494
0.5732305 0.0656766 0.028233225
0.57242388 0.06658259 0.027619053
0.57241797 0.067401499 0.027606759
0.57241207 0.068220399 0.027594466
0.57240623 0.069039308 0.027582172
0.57240033 0.069858208 0.027569879
0.57239443 0.070677117 0.027557585
0.57238853 0.071496017 0.027545292
0.57238263 0.072314918 0.027532998
0.57237673 0.073133826 0.027520705
0.57156998 0.074055754 0.026906259
0.57156408 0.074876256 0.026893944
0.57155818 0.075696751 0.026881626
0.57155228 0.076517254 0.026869308
0.57154638 0.077337742 0.026856991
0.57154047 0.078158237 0.026844673
0.57153457 0.07897874 0.026832355
0.57152867 0.079799242 0.026820038
0.57152277 0.08061973 0.026807722
0.57151687 0.081440233 0.026795404
0.57151097 0.082260728 0.026783086
0.57150507 0.083081223 0.026770769
0.57149911 0.083901718 0.026758451
0.57149321 0.084722221 0.026746133
0.57148731 0.085542716 0.026733816
0.57148141 0.086363211 0.0267215
0.57147551 0.087183714 0.026709182
0.5714696 0.088004209 0.026696865
0.5714637 0.088824712 0.026684547
0.5714578 0.089645199 0.026672229
0.5714519 0.090465702 0.026659911
0.571446 0.091286197 0.026647594
0.5714401 0.0921067 0.026635278
0.5714342 0.092927195 0.02662296
0.5714283 0.09374769 0.026610643
0.5714224 0.094568193 0.026598325
0.5714165 0.095388688 0.026586007
0.5714106 0.096209183 0.02657369
0.5714047 0.097029679 0.026561372
0.57059759 0.097999401 0.025946245
0.57059169 0.098821484 0.025933905
0.57058579 0.099643581 0.025921563
0.57057989 0.10046568 0.025909221
0.57057399 0.10128776 0.025896881
0.56976682 0.10226704 0.02528161
0.56976092 0.10309072 0.025269244
0.56895375 0.10407478 0.024653902
0.56814653 0.10506204 0.024038477
0.5673393 0.10605247 0.023423038
0.56653208 0.10704609 0.022807552
0.56572479 0.10804289 0.022192018
0.5649175 0.10904288 0.021576438
0.56411016 0.11004607 0.020960772
0.56250155 0.11122395 0.019741951
0.5616942 0.11223508 0.019126203
0.5910688 0.25523871 0.039801337
0.5910632 0.2560178 0.039789643
0.5910576 0.25679684 0.039777946
0.59105194 0.25757593 0.039766252
0.59104633 0.25835502 0.039754555
0.59104073 0.25913408 0.039742861
0.59103513 0.25991315 0.039731164
0.59102952 0.26069221 0.03971947
0.59102392 0.26147133 0.039707772
0.56120241 0.030823369 0.018485839
0.56119633 0.031666171 0.018473186
0.56119025 0.032508973 0.018460535
0.56118417 0.033351775 0.018447882
0.56197745 0.034169633 0.019037459
0.56277066 0.034984306 0.01962705
0.56436324 0.035767663 0.020818928
0.56515652 0.036574375 0.021408638
0.56834191 0.038112409 0.023792863
0.56993467 0.038871869 0.024985136
0.57072806 0.039661054 0.025575109
0.57232088 0.040409364 0.026767515
0.5731144 0.041190576 0.027357642
0.57310849 0.042009477 0.027345348
0.57310265 0.042828385 0.027333055
0.57389617 0.043603227 0.027923243
0.57389027 0.044420537 0.027910974
0.57388437 0.045237847 0.027898703
0.57387853 0.04605516 0.027886434
0.57387263 0.046872471 0.027874164
0.57386672 0.047689781 0.027861895
0.57386088 0.048507094 0.027849626
0.57385498 0.049324401 0.027837357
0.57384908 0.050141718 0.027825085
0.57384324 0.050959025 0.027812816
0.57383734 0.051776338 0.027800547
0.57383144 0.052593648 0.027788278
0.5738256 0.053410958 0.027776008
0.5738197 0.054228269 0.027763737
0.5738138 0.055045582 0.027751468
0.57380795 0.055862889 0.027739199
0.57380205 0.056680206 0.02772693
0.57379615 0.057497513 0.02771466
0.57379031 0.058314826 0.027702391
0.57378441 0.059132136 0.02769012
0.57297891 0.060025368 0.027074892
0.57297301 0.060844272 0.027062599
0.57296711 0.061663177 0.027050305
0.57296121 0.062482081 0.027038012
0.57295531 0.06330099 0.027025718
0.57294941 0.06411989 0.027013425
0.57294357 0.064938791 0.027001131
0.57293767 0.065757699 0.026988838
0.57293177 0.0665766 0.026976544
0.57292587 0.067395508 0.026964251
0.57212019 0.068306267 0.026348723
0.57211429 0.06912677 0.026336405
0.57210839 0.069947265 0.026324088
0.57210243 0.070767768 0.02631177
0.57209653 0.071588263 0.026299452
0.57209063 0.072408758 0.026287135
0.57208472 0.073229253 0.026274817
0.57207882 0.074049756 0.026262501
0.57207292 0.074870251 0.026250184
0.57206702 0.075690746 0.026237866
0.57206112 0.076511249 0.026225548
0.57205522 0.077331744 0.026213231
0.57204932 0.078152232 0.026200913
0.57204342 0.078972735 0.026188595
0.57203752 0.079793237 0.026176279
0.57203162 0.080613732 0.026163962
0.57202572 0.081434228 0.026151644
0.57201982 0.082254723 0.026139326
0.57201391 0.083075225 0.026127009
0.57200801 0.083895721 0.026114691
0.57200211 0.084716216 0.026102373
0.57199621 0.085536711 0.026090058
0.57199031 0.086357214 0.02607774
0.57198441 0.087177709 0.026065422
0.57197851 0.087998204 0.026053105
0.57197255 0.088818707 0.026040787
0.57196665 0.089639202 0.026028469
0.57116067 0.090594575 0.025412308
0.57115477 0.091416664 0.025399966
0.57114887 0.092238747 0.025387626
0.57114297 0.093060844 0.025375284
0.57113707 0.093882933 0.025362942
0.57113111 0.094705023 0.0253506
0.57112521 0.095527112 0.02533826
0.57111931 0.09634921 0.025325919
0.57111341 0.097171299 0.025313577
0.57110745 0.097993381 0.025301237
0.57110155 0.098815471 0.025288895
0.57109565 0.099637568 0.025276553
0.57028949 0.10061365 0.024660081
0.57028359 0.10143733 0.024647715
0.57027769 0.10226101 0.02463535
0.57027173 0.1030847 0.024622984
0.56946558 0.10406874 0.024006393
0.56785905 0.10521794 0.022785466
0.56785309 0.1060464 0.022773029
0.56624657 0.10720516 0.021551995
0.5654403 0.10820354 0.020935187
0.56463397 0.10920512 0.020318296
0.56382763 0.11020987 0.019701393
0.56302124 0.11121782 0.019084442
0.56221491 0.11222894 0.018467443
0.59154636 0.25601208 0.039178383
0.59154075 0.25679114 0.039166689
0.59153515 0.25757024 0.039154992
0.59152955 0.2583493 0.039143294
0.59152395 0.25912839 0.0391316
0.59151834 0.25990745 0.039119907
0.59151274 0.26068652 0.039108209
0.59150714 0.26146561 0.039096512
0.56252337 0.030798644 0.018427962
0.56251734 0.031639852 0.018415334
0.56251127 0.032481059 0.018402705
0.56250519 0.033322271 0.018390076
0.56249917 0.034163479 0.018377449
0.56408972 0.034951638 0.019571757
0.56488198 0.035761546 0.020162668
0.5656743 0.036568265 0.020753628
0.5688557 0.038106348 0.023142852
0.57044649 0.038865831 0.024337627
0.57123893 0.039655026 0.024928849
0.57282978 0.040403359 0.026123755
0.57282382 0.041223854 0.026111437
0.57361639 0.042003486 0.026702838
0.57361048 0.042822395 0.026690545
0.57360458 0.043641295 0.026678251
0.57359874 0.0444602 0.026665958
0.57359284 0.045279104 0.026653664
0.57358694 0.046098009 0.026641371
0.57358104 0.046916913 0.026629077
0.57357514 0.047735818 0.026616784
0.57356924 0.048554718 0.02660449
0.57356334 0.049373623 0.026592197
0.5735575 0.050192527 0.026579903
0.5735516 0.051011436 0.02656761
0.57354569 0.05183034 0.026555317
0.57353979 0.052649241 0.026543023
0.57353389 0.053468145 0.02653073
0.57352799 0.05428705 0.026518436
0.57352209 0.055105954 0.026506143
0.57351625 0.055924855 0.026493849
0.57351035 0.056743763 0.026481556
0.57350445 0.057562664 0.026469262
0.57349855 0.058381572 0.026456969
0.57349265 0.059200473 0.026444675
0.57348675 0.060019378 0.026432382
0.5734809 0.060838282 0.026420088
0.573475 0.061657187 0.026407795
0.5734691 0.062476091 0.026395502
0.5734632 0.063294999 0.026383208
0.5734573 0.0641139 0.026370915
0.57265264 0.065018281 0.025754232
0.57264674 0.065838777 0.025741914
0.57264084 0.066659272 0.025729597
0.57263494 0.067479774 0.025717279
0.57262903 0.06830027 0.025704961
0.57262313 0.069120765 0.025692644
0.57261723 0.069941267 0.025680328
0.57261133 0.070761763 0.02566801
0.57260543 0.071582258 0.025655692
0.57180071 0.072502568 0.025038807
0.57179475 0.073324658 0.025026465
0.57178885 0.074146748 0.025014125
0.57178295 0.074968837 0.025001783
0.57177705 0.075790927 0.024989441
0.57177109 0.076613024 0.024977099
0.57176518 0.077435106 0.024964759
0.57175928 0.078257196 0.024952417
0.57175338 0.079079293 0.024940075
0.57174742 0.079901382 0.024927735
0.57174152 0.080723472 0.024915393
0.57173562 0.081545562 0.024903052
0.57172972 0.082367651 0.024890712
0.57172376 0.083189741 0.02487837
0.57171786 0.08401183 0.024866028
0.57171196 0.084833927 0.024853686
0.57170606 0.08565601 0.024841346
0.57170016 0.086478107 0.024829004
0.5716942 0.087300196 0.024816662
0.57168829 0.088122286 0.024804322
0.57168239 0.088944376 0.02479198
0.57167649 0.089766465 0.024779638
0.57167053 0.090588562 0.024767298
0.57166463 0.091410644 0.024754956
0.57165873 0.092232734 0.024742614
0.57165283 0.093054831 0.024730273
0.57164687 0.093876921 0.024717933
0.57164097 0.09469901 0.024705591
0.57163507 0.0955211 0.024693249
0.57082999 0.096489199 0.024075646
0.57082409 0.097312883 0.024063282
0.57081813 0.098136574 0.024050916
0.57081223 0.098960251 0.024038551
0.57080626 0.099783935 0.024026185
0.57080036 0.10060763 0.024013821
0.5707944 0.1014313 0.024001455
0.56998926 0.10241216 0.02338366
0.5699833 0.10323743 0.023371272
0.5691781 0.10422307 0.022753369
0.56837285 0.10521188 0.022135455
0.56756759 0.10620388 0.021517493
0.56676233 0.10719907 0.020899484
0.56595707 0.10819744 0.020281427
0.56515169 0.10919902 0.019663285
0.56514567 0.11003385 0.019650752
0.563541 0.11121169 0.018426931
0.56273562 0.1122228 0.017808681
0.59202951 0.25600639 0.038567122
0.59202391 0.25678545 0.038555428
0.59201831 0.25756454 0.038543731
0.5920127 0.25834361 0.038532037
0.5920071 0.2591227 0.03852034
0.5920015 0.25990173 0.038508646
0.59199589 0.26068082 0.038496949
0.59199029 0.26145992 0.038485255
0.56384236 0.030773941 0.018372551
0.56383628 0.031613559 0.018359946
0.56383026 0.032453172 0.018347342
0.56382418 0.033292793 0.018334737
0.56461549 0.034107488 0.018926827
0.56540674 0.034918997 0.019518964
0.56619805 0.035727318 0.020111149
0.56857812 0.037303116 0.02190049
0.56936949 0.038100287 0.022492843
0.57095832 0.038859792 0.023690116
0.57174975 0.039648999 0.024282588
0.57333863 0.040397357 0.025479995
0.57333273 0.041217852 0.025467677
0.57332683 0.042038348 0.025455359
0.57411838 0.042816401 0.026048034
0.57411247 0.043635305 0.026035741
0.57410657 0.04445421 0.026023448
0.57410067 0.045273114 0.026011154
0.57409483 0.046092018 0.025998861
0.57408893 0.046910923 0.025986567
0.57408303 0.047729827 0.025974274
0.57407713 0.048548728 0.02596198
0.57407123 0.049367633 0.025949687
0.57406533 0.050186537 0.025937393
0.57405943 0.051005445 0.0259251
0.57325596 0.05188432 0.025307551
0.57325006 0.052704815 0.025295233
0.57324415 0.05352531 0.025282916
0.57323825 0.054345809 0.025270598
0.57323235 0.055166304 0.02525828
0.57322645 0.055986803 0.025245963
0.57322055 0.056807302 0.025233645
0.57321465 0.057627801 0.025221329
0.57320875 0.058448296 0.025209012
0.57320285 0.059268795 0.025196694
0.57319695 0.06008929 0.025184376
0.57319105 0.060909789 0.025172058
0.57318515 0.061730284 0.025159741
0.57317924 0.062550783 0.025147423
0.57317328 0.063371286 0.025135107
0.57316738 0.064191781 0.02512279
0.57316148 0.065012276 0.025110472
0.57315558 0.065832771 0.025098154
0.57314968 0.066653274 0.025085837
0.57234603 0.067564003 0.024467845
0.57234013 0.0683861 0.024455503
0.57233417 0.069208182 0.024443163
0.57232827 0.070030279 0.024430821
0.57232237 0.070852369 0.024418479
0.57231647 0.071674459 0.024406139
0.57231051 0.072496548 0.024393797
0.57230461 0.073318638 0.024381455
0.57229871 0.074140735 0.024369115
0.5722928 0.074962817 0.024356773
0.57228684 0.075784914 0.024344431
0.57148308 0.076714769 0.023726152
0.57147712 0.077538453 0.023713788
0.57147121 0.078362137 0.023701422
0.57146531 0.079185814 0.023689058
0.57145935 0.080009505 0.023676692
0.57145345 0.080833189 0.023664325
0.57144749 0.081656873 0.023651961
0.57223958 0.082361631 0.024245702
0.57143563 0.083304241 0.023627231
0.57142973 0.084127918 0.023614865
0.57142377 0.084951602 0.023602501
0.57141787 0.085775286 0.023590134
0.57141197 0.08659897 0.02357777
0.57140601 0.087422661 0.023565404
0.57140011 0.088246338 0.02355304
0.57139415 0.089070022 0.023540674
0.57138824 0.089893706 0.023528308
0.57138228 0.09071739 0.023515943
0.57137638 0.091541067 0.023503577
0.57137048 0.092364758 0.023491213
0.57136452 0.09318845 0.023478847
0.57135862 0.094012119 0.023466483
0.57135266 0.09483581 0.023454117
0.57134676 0.095659494 0.023441752
0.5713408 0.096483178 0.023429386
0.5713349 0.097306855 0.023417022
0.571329 0.098130547 0.023404656
0.57132304 0.098954231 0.02339229
0.57051891 0.099930279 0.022773318
0.57051295 0.10075556 0.02276093
0.57050705 0.10158084 0.022748539
0.57050109 0.10240611 0.022736151
0.57049513 0.10323139 0.022723762
0.56969088 0.10421702 0.02210461
0.56888664 0.10520582 0.021485444
0.56808239 0.1061978 0.020866234
0.56727815 0.10719299 0.020246973
0.56647384 0.10819135 0.019627666
0.56566942 0.10919291 0.019008275
0.56486511 0.11019763 0.018388871
0.56485909 0.11103407 0.018376315
0.56325632 0.11221666 0.017149922
0.59250706 0.25677976 0.037944168
0.59250146 0.25755885 0.03793247
0.59249586 0.25833791 0.037920777
0.59249026 0.25911698 0.037909079
0.59248465 0.25989604 0.037897386
0.59247905 0.26067513 0.037885692
0.59247345 0.26145422 0.037873995
0.56515932 0.030749267 0.018319638
0.5651533 0.031587288 0.018307058
0.56514728 0.03242531 0.018294478
0.5651412 0.033263333 0.018281898
0.5659315 0.034076449 0.01887526
0.5667218 0.034886379 0.019468671
0.56751215 0.035693116 0.020062167
0.56830251 0.036496677 0.020655675
0.56909293 0.037297044 0.021249229
0.56988329 0.038094226 0.021842832
0.57147014 0.038853757 0.023042606
0.57226062 0.039642975 0.023636328
0.57384747 0.040391352 0.024836233
0.57384157 0.041211847 0.024823915
0.57383567 0.042032346 0.024811599
0.57382977 0.042852845 0.024799282
0.57382387 0.04367334 0.024786964
0.57381797 0.044493839 0.024774646
0.57381207 0.045314334 0.024762329
0.57380617 0.046134837 0.024750011
0.57380027 0.046955332 0.024737693
0.57379436 0.047775831 0.024725378
0.57378846 0.048596323 0.02471306
0.57378256 0.049416821 0.024700742
0.5737766 0.05023732 0.024688425
0.5737707 0.051057819 0.024676107
0.5737648 0.051878314 0.024663789
0.5737589 0.052698813 0.024651472
0.573753 0.053519309 0.024639156
0.5737471 0.054339807 0.024626838
0.5737412 0.055160303 0.02461452
0.5737353 0.055980802 0.024602203
0.5737294 0.0568013 0.024589885
0.5737235 0.057621799 0.024577567
0.57371759 0.058442295 0.02456525
0.57371169 0.05926279 0.024552934
0.57370579 0.060083289 0.024540616
0.57369989 0.060903784 0.024528299
0.57369399 0.061724283 0.024515981
0.57368809 0.062544778 0.024503663
0.57288545 0.063447542 0.02388454
0.57287955 0.064269632 0.0238722
0.57287359 0.065091722 0.023859859
0.57286769 0.065913811 0.023847517
0.57286179 0.066735901 0.023835175
0.57285589 0.067557991 0.023822835
0.57284993 0.06838008 0.023810493
0.57204723 0.069295585 0.023191178
0.57204133 0.070119269 0.023178814
0.57203537 0.070942961 0.023166448
0.57202947 0.071766637 0.023154084
0.57202351 0.072590321 0.023141718
0.57201761 0.073414005 0.023129353
0.57201171 0.074237689 0.023116987
0.57200575 0.075061373 0.023104623
0.57199985 0.075885057 0.023092257
0.57199389 0.076708741 0.023079893
0.57198799 0.077532426 0.023067527
0.57198203 0.07835611 0.02305516
0.57197613 0.079179786 0.023042796
0.57197016 0.080003478 0.02303043
0.57196426 0.080827162 0.023018066
0.57195836 0.081650846 0.0230057
0.5719524 0.082474522 0.022993336
0.5719465 0.083298214 0.022980969
0.57194054 0.08412189 0.022968605
0.57193464 0.084945574 0.022956239
0.57192868 0.085769258 0.022943875
0.57192278 0.08659295 0.022931509
0.57191688 0.087416634 0.022919143
0.57191092 0.088240311 0.022906778
0.57190502 0.089064002 0.022894412
0.57189906 0.089887679 0.022882048
0.57189316 0.090711363 0.022869682
0.5718872 0.091535047 0.022857318
0.57108414 0.092496753 0.02223731
0.57107824 0.093322039 0.02222492
0.57107228 0.094147302 0.022212531
0.57106638 0.094972588 0.022200143
0.57106042 0.095797867 0.022187753
0.57105446 0.096623138 0.022175364
0.57104856 0.097448416 0.022162976
0.5710426 0.098273695 0.022150585
0.5710367 0.099098966 0.022138197
0.57103074 0.099924244 0.022125807
0.57102478 0.10074953 0.022113418
0.57022154 0.10173035 0.021493088
0.57021558 0.10255723 0.021480676
0.57020968 0.1033841 0.021468261
0.56940645 0.1043713 0.020847872
0.56860316 0.10536167 0.020227434
0.56779987 0.10635525 0.019606948
0.56779391 0.10718691 0.019594463
0.56699055 0.10818525 0.018973906
0.5661872 0.1091868 0.018353263
0.56538385 0.11019152 0.017732611
0.56537783 0.11102795 0.017720055
0.56457442 0.11203745 0.01709933
0.59297901 0.25833222 0.037309516
0.59297341 0.25911129 0.037297823
0.59296781 0.25989035 0.037286125
0.59296221 0.26066941 0.037274431
0.5929566 0.26144853 0.037262734
0.56647432 0.030724613 0.018269226
0.5664683 0.031561039 0.01825667
0.56646228 0.032397471 0.018244114
0.56645626 0.0332339 0.018231556
0.56724554 0.034045435 0.018826194
0.56723958 0.034880269 0.018813662
0.56802893 0.035687022 0.019408407
0.56881833 0.036490589 0.020003164
0.56960768 0.037290972 0.02059797
0.5711925 0.038055304 0.021800136
0.57198197 0.038847718 0.022395097
0.57277143 0.039636947 0.022990068
0.57356089 0.040422991 0.023585089
0.57355499 0.041245081 0.023572747
0.57434452 0.042026341 0.024167839
0.57433861 0.04284684 0.024155522
0.57433271 0.043667339 0.024143204
0.57432681 0.044487834 0.024130886
0.57432091 0.045308333 0.024118569
0.57431501 0.046128832 0.024106251
0.57430911 0.046949331 0.024093935
0.57430321 0.047769826 0.024081618
0.57429731 0.048590321 0.0240693
0.57429141 0.049410816 0.024056982
0.57428551 0.050231319 0.024044665
0.57427961 0.051051814 0.024032347
0.5734781 0.05193226 0.02341231
0.5734722 0.052754346 0.023399968
0.5734663 0.05357644 0.023387628
0.57346034 0.054398529 0.023375286
0.57345444 0.055220619 0.023362944
0.57344854 0.056042708 0.023350604
0.57344264 0.056864802 0.023338262
0.57343668 0.057686895 0.02332592
0.57343078 0.058508981 0.023313578
0.57342488 0.059331074 0.023301238
0.57341897 0.060153164 0.023288896
0.57341301 0.060975254 0.023276554
0.57340711 0.061797343 0.023264214
0.57340121 0.062619433 0.023251873
0.57339531 0.063441522 0.023239531
0.57338941 0.064263619 0.023227189
0.57338345 0.065085709 0.023214849
0.57337755 0.065907799 0.023202507
0.57257587 0.066818513 0.022582015
0.57256991 0.067642197 0.022569651
0.57256401 0.068465874 0.022557285
0.5725581 0.069289558 0.02254492
0.57255214 0.070113249 0.022532554
0.57254624 0.070936933 0.02252019
0.57254028 0.07176061 0.022507824
0.57173848 0.072684072 0.02188714
0.57173258 0.07350935 0.021874752
0.57172662 0.074334621 0.021862362
0.57172072 0.0751599 0.021849973
0.57171476 0.075985178 0.021837585
0.5717088 0.076810457 0.021825194
0.5717029 0.077635735 0.021812806
0.57169694 0.078461014 0.021800416
0.57169098 0.079286285 0.021788027
0.57168508 0.080111571 0.021775639
0.57167912 0.080936834 0.021763248
0.57167321 0.08176212 0.02175086
0.57166725 0.082587391 0.021738471
0.57166129 0.08341267 0.021726081
0.57165539 0.084237948 0.021713693
0.57164943 0.085063227 0.021701302
0.57164347 0.085888498 0.021688914
0.57163757 0.086713776 0.021676525
0.57163161 0.087539062 0.021664135
0.57162571 0.088364325 0.021651747
0.57161975 0.089189611 0.021639356
0.57161379 0.09001489 0.021626968
0.57160789 0.090840161 0.021614579
0.57160193 0.091665439 0.021602189
0.57159597 0.092490718 0.021589801
0.57159007 0.093315996 0.021577412
0.57158411 0.094141267 0.021565022
0.5715782 0.094966553 0.021552633
0.57157224 0.095791824 0.021540243
0.57156628 0.096617103 0.021527855
0.57076412 0.097589955 0.020906394
0.57075816 0.098416828 0.02089398
0.5707522 0.099243693 0.020881567
0.57074624 0.10007057 0.020869154
0.57074034 0.10089744 0.020856742
0.57073438 0.1017243 0.020844327
0.57072842 0.10255118 0.020831915
0.5699262 0.10353676 0.0202103
0.56992024 0.10436524 0.020197861
0.56911796 0.1053556 0.019576175
0.56831568 0.10634917 0.018954439
0.56830966 0.10718082 0.018941954
0.56750733 0.10817915 0.018320145
0.56670493 0.10918069 0.017698254
0.56669897 0.11001553 0.017685721
0.56589657 0.11102183 0.017063795
0.56589055 0.11185826 0.017051239
0.59344542 0.26066372 0.036663171
0.59343982 0.26144281 0.036651477
0.56778735 0.030699981 0.018221315
0.56778133 0.031534817 0.018208783
0.56777531 0.032369655 0.018196249
0.56776935 0.033204492 0.018183718
0.56855768 0.034014441 0.018779665
0.56855172 0.034847684 0.018767156
0.56934005 0.035652857 0.019363139
0.57091689 0.037253644 0.020555248
0.57170528 0.038049255 0.021151375
0.57249379 0.03884168 0.021747585
0.57328224 0.039630923 0.022343809
0.57327634 0.040454604 0.022331443
0.57406485 0.041239064 0.022927737
0.57405895 0.042061158 0.022915395
0.57405305 0.042883247 0.022903055
0.57404709 0.043705337 0.022890713
0.57404119 0.04452743 0.022878371
0.57403529 0.04534952 0.022866031
0.57402939 0.046171609 0.022853689
0.57402343 0.046993703 0.022841347
0.57401752 0.047815789 0.022829005
0.57401162 0.048637882 0.022816665
0.57400572 0.049459971 0.022804324
0.57399976 0.050282065 0.022791982
0.57399386 0.051104154 0.022779642
0.57398796 0.051926244 0.0227673
0.57398206 0.052748334 0.022754958
0.5739761 0.053570423 0.022742618
0.5739702 0.054392517 0.022730276
0.5739643 0.055214603 0.022717934
0.5739584 0.056036696 0.022705592
0.5739525 0.056858789 0.022693252
0.57394654 0.057680879 0.02268091
0.57394063 0.058502968 0.022668568
0.57314003 0.059399333 0.022047043
0.57313412 0.060223013 0.022034677
0.57312816 0.061046697 0.022022311
0.57312226 0.061870381 0.022009946
0.5731163 0.062694065 0.02199758
0.5731104 0.063517749 0.021985216
0.5731045 0.064341433 0.02197285
0.57309854 0.065165117 0.021960486
0.57309264 0.065988801 0.02194812
0.57308668 0.066812485 0.021935755
0.57308078 0.067636169 0.021923389
0.57228005 0.068551645 0.021301577
0.57227409 0.069376923 0.021289187
0.57226813 0.070202209 0.021276798
0.57226223 0.07102748 0.02126441
0.57225627 0.071852759 0.021252019
0.57225031 0.072678037 0.021239631
0.57224441 0.073503308 0.021227241
0.57223845 0.074328586 0.021214852
0.57223254 0.075153865 0.021202464
0.57222658 0.075979136 0.021190073
0.57222062 0.076804422 0.021177685
0.57221472 0.077629693 0.021165295
0.57220876 0.078454971 0.021152906
0.5722028 0.07928025 0.021140518
0.5721969 0.080105528 0.021128127
0.57219094 0.080930799 0.021115739
0.57218504 0.081756085 0.02110335
0.57217908 0.082581349 0.02109096
0.57217312 0.083406635 0.021078572
0.57216722 0.084231913 0.021066181
0.57216126 0.085057184 0.021053793
0.5721553 0.085882463 0.021041404
0.5721494 0.086707741 0.021029014
0.57134831 0.087661467 0.020406591
0.57134235 0.08848834 0.020394178
0.57133645 0.089315206 0.020381764
0.57133049 0.090142079 0.020369351
0.57132453 0.090968944 0.020356938
0.57131857 0.09179581 0.020344526
0.57131261 0.09262269 0.020332111
0.57130665 0.093449555 0.020319698
0.57130075 0.094276428 0.020307286
0.57129478 0.095103301 0.020294873
0.57128882 0.095930167 0.02028246
0.57128286 0.096757039 0.020270046
0.5712769 0.097583905 0.020257633
0.571271 0.098410778 0.020245221
0.57126504 0.099237643 0.020232808
0.57125908 0.10006452 0.020220393
0.57045788 0.10104532 0.019597599
0.57045192 0.10187379 0.019585162
0.57044595 0.10270225 0.019572726
0.57043999 0.1035307 0.019560289
0.56963873 0.10451948 0.018937375
0.56963277 0.10534953 0.018924914
0.56883144 0.10634308 0.018301928
0.56803012 0.10733982 0.017678894
0.5680241 0.10817306 0.017666386
0.56722271 0.10917458 0.017043244
0.56721669 0.11000942 0.017030712
0.56641531 0.11101571 0.016407534
0.56640929 0.11185214 0.016394978
0.56640327 0.11268856 0.01638242
0.56989771 0.029825225 0.018798022
0.56909847 0.030675374 0.018175939
0.56909245 0.031508613 0.018163431
0.56908643 0.032341857 0.018150922
0.56908047 0.0331751 0.018138412
0.56986779 0.033983473 0.018735599
0.56986183 0.034815121 0.018723113
0.57064921 0.035618711 0.019320371
0.57143664 0.03641912 0.019917676
0.57143068 0.037247583 0.019905239
0.57221812 0.038043205 0.020502616
0.57300562 0.038835641 0.021100076
0.57379311 0.039624896 0.021697549
0.57378715 0.04044858 0.021685183
0.57378125 0.041272264 0.021672819
0.57377535 0.042095944 0.021660453
0.57456285 0.042877235 0.022258045
0.57455695 0.043699324 0.022245703
0.57455105 0.044521414 0.022233361
0.57454515 0.045343507 0.022221021
0.57453918 0.046165597 0.022208679
0.57453328 0.046987686 0.022196338
0.57452738 0.047809776 0.022183996
0.57452148 0.048631866 0.022171656
0.57451558 0.049453959 0.022159314
0.57450962 0.050276048 0.022146972
0.57371014 0.051156469 0.021524435
0.57370418 0.051980153 0.021512069
0.57369828 0.052803833 0.021499705
0.57369238 0.053627521 0.021487338
0.57368642 0.054451201 0.021474974
0.57368052 0.055274885 0.021462608
0.57367456 0.056098569 0.021450244
0.57366866 0.056922257 0.021437878
0.5736627 0.057745937 0.021425514
0.5736568 0.058569621 0.021413147
0.5736509 0.059393305 0.021400783
0.57364494 0.060216986 0.021388417
0.57363904 0.061040673 0.021376053
0.57363307 0.061864354 0.021363687
0.57283342 0.062768668 0.02074079
0.57282746 0.063593954 0.0207284
0.57282156 0.064419232 0.020716012
0.5728156 0.065244503 0.020703623
0.57280964 0.066069782 0.020691233
0.57280374 0.06689506 0.020678844
0.57279778 0.067720331 0.020666456
0.57279187 0.06854561 0.020654066
0.57278591 0.069370888 0.020641677
0.57277995 0.070196167 0.020629287
0.57277405 0.071021445 0.020616898
0.57197416 0.071944885 0.01999368
0.5719682 0.07277175 0.019981265
0.5719623 0.073598623 0.019968852
0.57195634 0.074425496 0.01995644
0.57195038 0.075252362 0.019944027
0.57194442 0.076079227 0.019931613
0.57193846 0.076906107 0.0199192
0.57193255 0.07773298 0.019906787
0.57192659 0.078559838 0.019894375
0.57192063 0.079386719 0.019881962
0.57191467 0.080213584 0.019869547
0.57190871 0.081040457 0.019857135
0.57190281 0.08186733 0.019844722
0.57189685 0.082694195 0.019832309
0.57189089 0.083521068 0.019819895
0.57188493 0.084347934 0.019807482
0.57187897 0.085174806 0.019795069
0.57187301 0.086001672 0.019782657
0.57186711 0.086828545 0.019770244
0.57186115 0.087655418 0.01975783
0.57185519 0.088482291 0.019745417
0.57184923 0.089309156 0.019733004
0.57184327 0.090136029 0.019720592
0.57183737 0.090962894 0.019708177
0.57183141 0.09178976 0.019695764
0.57182544 0.09261664 0.019683352
0.57181948 0.093443505 0.019670939
0.57181352 0.094270378 0.019658526
0.57101339 0.095240019 0.019034648
0.57100743 0.096068479 0.019022211
0.57100147 0.096896946 0.019009775
0.57099551 0.097725399 0.018997338
0.57098955 0.098553866 0.018984901
0.57098359 0.099382326 0.018972464
0.57097763 0.10021079 0.018960027
0.57097167 0.10103926 0.01894759
0.57096571 0.10186772 0.018935153
0.57016546 0.1028533 0.018311037
0.57015949 0.10368335 0.018298576
0.57015347 0.10451341 0.018286115
0.56935322 0.10550535 0.017661903
0.5693472 0.106337 0.017649418
0.56854689 0.10733372 0.017025134
0.56854087 0.10816696 0.017012626
0.56774044 0.10916848 0.016388234
0.56773448 0.11000331 0.016375702
0.56772846 0.11083815 0.016363168
0.56772244 0.11167298 0.016350636
0.56692201 0.11268245 0.01572616
0.57041353 0.02981914 0.018145513
0.57040751 0.030650789 0.018133027
0.57040155 0.031482439 0.018120542
0.57039559 0.032314088 0.018108059
0.57038957 0.033145737 0.018095573
0.57038361 0.033977386 0.018083088
0.57116997 0.034782581 0.018681571
0.57116401 0.035612639 0.01866911
0.57195044 0.036413059 0.019267665
0.57194448 0.037241522 0.019255228
0.5727309 0.038037155 0.019853855
0.572725 0.038864028 0.019841442
0.57351148 0.039654881 0.020440176
0.57350558 0.040480159 0.020427788
0.57429206 0.041266236 0.021026557
0.57428616 0.04208992 0.021014193
0.57428026 0.042913605 0.021001827
0.5742743 0.043737289 0.020989463
0.5742684 0.044560969 0.020977097
0.57426244 0.045384653 0.020964731
0.57425654 0.046208341 0.020952366
0.57425058 0.047032021 0.02094
0.57424468 0.047855705 0.020927636
0.57423878 0.048679389 0.02091527
0.57423282 0.049503073 0.020902906
0.57422692 0.050326757 0.02089054
0.57422096 0.051150445 0.020878175
0.57421505 0.051974125 0.020865809
0.57420909 0.052797809 0.020853445
0.57420319 0.053621493 0.020841079
0.57419729 0.054445174 0.020828715
0.57419133 0.055268861 0.020816348
0.57339275 0.05616042 0.020192394
0.57338679 0.056985699 0.020180004
0.57338089 0.057810973 0.020167615
0.57337493 0.058636252 0.020155225
0.57336897 0.05946153 0.020142836
0.57336307 0.060286805 0.020130448
0.57335711 0.06111208 0.020118058
0.5733512 0.061937358 0.020105669
0.57334524 0.062762633 0.020093281
0.57333928 0.063587911 0.020080891
0.57333338 0.06441319 0.020068502
0.57332742 0.065238468 0.020056112
0.57252866 0.06615074 0.019431811
0.5725227 0.066977613 0.019419396
0.57251674 0.067804486 0.019406984
0.57251078 0.068631351 0.019394571
0.57250482 0.069458224 0.019382158
0.57249892 0.070285097 0.019369746
0.57249296 0.071111962 0.019357331
0.572487 0.071938835 0.019344918
0.57248104 0.072765701 0.019332506
0.57247508 0.073592573 0.019320093
0.57246912 0.074419446 0.019307679
0.57246321 0.075246312 0.019295266
0.57245725 0.076073177 0.019282853
0.57245129 0.076900057 0.019270441
0.57244533 0.07772693 0.019258028
0.57243937 0.078553788 0.019245613
0.57243347 0.079380669 0.019233201
0.57242751 0.080207534 0.019220788
0.57242155 0.081034407 0.019208375
0.57241559 0.08186128 0.019195961
0.57240963 0.082688145 0.019183548
0.57240367 0.083515018 0.019171136
0.57239777 0.084341884 0.019158723
0.57239181 0.085168757 0.01914631
0.57159275 0.086120851 0.018521445
0.57158679 0.086949319 0.018509008
0.57158083 0.087777786 0.018496571
0.57157487 0.088606246 0.018484134
0.57156891 0.089434713 0.018471697
0.57156295 0.090263166 0.01845926
0.57155699 0.09109164 0.018446824
0.57155102 0.0919201 0.018434387
0.57154506 0.09274856 0.01842195
0.5715391 0.093577035 0.018409513
0.57153314 0.094405487 0.018397076
0.57152718 0.095233954 0.018384639
0.57152122 0.096062422 0.018372202
0.57151526 0.096890882 0.018359764
0.57071608 0.097866878 0.017734542
0.57071012 0.09869694 0.017722081
0.5707041 0.099526986 0.01770962
0.57069814 0.10035705 0.017697159
0.57069218 0.1011871 0.017684698
0.57068622 0.10201716 0.017672237
0.57068026 0.10284722 0.017659776
0.57067424 0.10367727 0.017647315
0.56987494 0.10466762 0.017021878
0.56986898 0.10549926 0.017009392
0.56986302 0.10633092 0.016996907
0.56906366 0.10732763 0.016371375
0.56905764 0.10816087 0.016358865
0.56905162 0.10899411 0.016346356
0.56825221 0.1099972 0.015720692
0.56824619 0.11083204 0.015708158
0.56824017 0.11166687 0.015695626
0.56823421 0.11250171 0.015683092
0.56822819 0.11333655 0.01567056
0.57171464 0.030626228 0.018092616
0.57170868 0.031456284 0.018080154
0.57170266 0.032286339 0.018067693
0.57090533 0.033139654 0.017443063
0.57169074 0.033946455 0.018042773
0.57168478 0.034776509 0.018030312
0.57167882 0.035606567 0.018017851
0.57246423 0.036406998 0.018617656
0.57245827 0.037235457 0.018605217
0.57324374 0.038031105 0.019205095
0.57323778 0.038857978 0.019192683
0.57323182 0.039684847 0.019180268
0.57401741 0.040474121 0.019780278
0.57401145 0.041299399 0.019767888
0.57400554 0.042124674 0.019755499
0.57399958 0.042949952 0.019743109
0.57478517 0.043731261 0.020343201
0.57477921 0.044554945 0.020330837
0.57477331 0.045378629 0.020318471
0.57476735 0.046202313 0.020306107
0.57476145 0.047025993 0.020293741
0.57475549 0.047849681 0.020281376
0.57474959 0.048673362 0.02026901
0.57474369 0.049497046 0.020256646
0.57473773 0.050320733 0.02024428
0.57473183 0.051144417 0.020231914
0.57393426 0.052027997 0.019606829
0.5739283 0.052853275 0.01959444
0.5739224 0.053678554 0.01958205
0.57391644 0.054503828 0.019569661
0.57391053 0.055329103 0.019557273
0.57390457 0.056154381 0.019544883
0.57389861 0.05697966 0.019532494
0.57389271 0.057804935 0.019520106
0.57388675 0.058630217 0.019507715
0.57388079 0.059455492 0.019495327
0.5730831 0.060356602 0.018869942
0.57307714 0.061183471 0.018857529
0.57307118 0.062010344 0.018845115
0.57306522 0.062837206 0.018832702
0.57305932 0.063664086 0.01882029
0.57305336 0.064490952 0.018807877
0.5730474 0.065317824 0.018795462
0.57304144 0.06614469 0.01878305
0.57303548 0.066971563 0.018770637
0.57302958 0.067798436 0.018758224
0.57302362 0.068625301 0.018745812
0.57301766 0.069452174 0.018733397
0.5730117 0.070279047 0.018720984
0.57221389 0.071202457 0.018095301
0.57220793 0.072030917 0.018082865
0.57220197 0.072859384 0.018070428
0.57219601 0.073687844 0.018057991
0.57219005 0.074516311 0.018045554
0.57218409 0.075344771 0.018033117
0.57217813 0.076173238 0.01802068
0.57217216 0.077001698 0.018008241
0.5721662 0.077830166 0.017995805
0.57216024 0.078658625 0.017983368
0.57215428 0.079487085 0.017970931
0.57214832 0.08031556 0.017958494
0.57214236 0.081144013 0.017946057
0.5721364 0.08197248 0.01793362
0.57213044 0.082800947 0.017921183
0.57212442 0.083629407 0.017908746
0.57211846 0.084457867 0.017896309
0.5721125 0.085286334 0.017883873
0.57210654 0.086114794 0.017871436
0.57210058 0.086943261 0.017858999
0.57209462 0.087771721 0.017846562
0.57208866 0.088600188 0.017834125
0.5720827 0.089428648 0.017821686
0.57207674 0.090257108 0.017809249
0.57207078 0.091085583 0.017796813
0.57206482 0.091914035 0.017784376
0.57205886 0.092742503 0.017771939
0.57126075 0.093710527 0.017145585
0.57125473 0.094540581 0.017133126
0.57124877 0.095370635 0.017120665
0.57124281 0.09620069 0.017108204
0.57123685 0.097030751 0.017095743
0.57123089 0.097860806 0.017083282
0.57122487 0.098690867 0.017070821
0.57121891 0.099520914 0.017058359
0.57042068 0.10050327 0.016431792
0.57041466 0.10133494 0.016419306
0.5704087 0.10216658 0.016406821
0.57040268 0.10299823 0.016394338
0.57039672 0.10382988 0.016381852
0.57039076 0.10466153 0.016369367
0.56959242 0.10565504 0.015742632
0.5695864 0.10648828 0.015730122
0.56958044 0.10732153 0.015717614
0.56957442 0.10815477 0.015705105
0.5695684 0.10898802 0.015692595
0.56876993 0.1099911 0.01506568
0.56876397 0.11082593 0.015053148
0.56875795 0.11166076 0.015040616
0.56875193 0.1124956 0.015028083
0.56874591 0.11333045 0.01501555
0.57222944 0.030620156 0.017441355
0.57222342 0.031450212 0.017428895
0.57221746 0.032280266 0.017416434
0.5722115 0.033110324 0.017403973
0.57220554 0.033940382 0.017391512
0.57298994 0.034744006 0.017992519
0.57298398 0.035572469 0.017980082
0.57297802 0.036400937 0.017967645
0.57297206 0.037229396 0.017955208
0.57375658 0.038025059 0.018556334
0.57375062 0.038851928 0.018543921
0.57374465 0.039678801 0.018531509
0.57373869 0.04050567 0.018519096
0.57452327 0.04129336 0.019120378
0.57451737 0.042118635 0.01910799
0.57451141 0.042943913 0.0190956
0.57450545 0.043769192 0.019083211
0.57449955 0.044594467 0.019070821
0.57449359 0.045419745 0.019058432
0.57448763 0.04624502 0.019046044
0.57448173 0.047070298 0.019033654
0.57447577 0.047895577 0.019021265
0.57446986 0.048720852 0.019008875
0.5744639 0.04954613 0.018996486
0.57445794 0.050371408 0.018984098
0.57445204 0.051196683 0.018971708
0.57444608 0.052021958 0.018959319
0.57444012 0.052847236 0.018946931
0.57443422 0.053672515 0.01893454
0.57442826 0.05449779 0.018922152
0.57363158 0.05538933 0.018295661
0.57362568 0.056216199 0.018283246
0.57361972 0.057043072 0.018270833
0.57361376 0.057869941 0.018258421
0.5736078 0.058696814 0.018246008
0.57360184 0.059523683 0.018233594
0.57359588 0.060350552 0.018221181
0.57358998 0.061177421 0.018208768
0.57358402 0.062004294 0.018196356
0.57278728 0.062911756 0.017569661
0.57278132 0.063740224 0.017557224
0.57277536 0.064568691 0.017544787
0.5727694 0.065397151 0.01753235
0.57276344 0.066225618 0.017519914
0.57275748 0.067054078 0.017507477
0.57275152 0.067882538 0.01749504
0.57274556 0.068711005 0.017482603
0.5727396 0.069539465 0.017470164
0.57273364 0.070367932 0.017457727
0.57272768 0.071196392 0.01744529
0.57272172 0.072024859 0.017432854
0.57271576 0.072853319 0.017420417
0.5727098 0.073681787 0.01740798
0.57270384 0.074510247 0.017395543
0.57269788 0.075338714 0.017383106
0.57269192 0.076167174 0.017370669
0.57268596 0.076995641 0.017358232
0.57268 0.077824108 0.017345795
0.57267404 0.078652561 0.017333359
0.57187706 0.079593495 0.016706161
0.5718711 0.080423549 0.0166937
0.57186508 0.081253603 0.016681239
0.57185912 0.082083657 0.016668778
0.57185316 0.082913719 0.016656319
0.5718472 0.083743773 0.016643858
0.57184124 0.084573828 0.016631396
0.57183522 0.085403882 0.016618935
0.57182926 0.086233936 0.016606474
0.5718233 0.087064005 0.016594013
0.57181734 0.08789406 0.016581552
0.57181132 0.088724114 0.016569091
0.57180536 0.089554168 0.01655663
0.5717994 0.090384223 0.016544169
0.57179344 0.091214277 0.016531708
0.57178748 0.092044339 0.016519248
0.57178146 0.0928744 0.016506787
0.5717755 0.093704455 0.016494326
0.57176954 0.094534509 0.016481865
0.57097232 0.095507294 0.015854191
