# .PCD v0.7 - Point Cloud Data file format
VERSION 0.7
FIELDS x y z
SIZE 4 4 4
TYPE F F F
COUNT 1 1 1
WIDTH 1388
HEIGHT 1
VIEWPOINT 0 0 0 1 0 0 0
POINTS 1388
DATA ascii
0.56088871 0.05882806 0.041988421
0.56171054 0.059539877 0.042581055
0.5617249 0.060331669 0.042583294
0.56173927 0.061123464 0.042585533
0.56175369 0.06191526 0.042587772
0.56176805 0.062707059 0.042590011
0.56097513 0.063588396 0.042001884
0.56098956 0.064381778 0.042004127
0.56100398 0.065175168 0.04200637
0.56021118 0.066062868 0.041418277
0.5594185 0.066953756 0.040830195
0.55862576 0.06784784 0.040242083
0.55783319 0.068745099 0.039654016
0.55704063 0.069645546 0.039065961
0.55624819 0.070549183 0.038477913
0.55545574 0.071456 0.037889875
0.5546633 0.072366014 0.037301809
0.55387104 0.073279202 0.036713786
0.55307877 0.074195579 0.036125775
0.58775198 0.24629436 0.059646282
0.58776551 0.24704157 0.059648395
0.5877791 0.24778874 0.059650507
0.58779269 0.24853593 0.059652619
0.58780622 0.24928311 0.059654731
0.58781981 0.25003031 0.059656847
0.58703345 0.25127169 0.059069738
0.58704704 0.25202048 0.059071854
0.58706063 0.25276926 0.05907397
0.58707428 0.25351804 0.059076089
0.5878877 0.25376624 0.059667412
0.58790123 0.25451344 0.059669524
0.58871454 0.25475687 0.060260817
0.58872813 0.25550246 0.060262926
0.58954138 0.25574112 0.060854219
0.59035456 0.25597659 0.06144549
0.59116763 0.25620887 0.062036749
0.59198076 0.25643796 0.062628016
0.5927937 0.25666386 0.063219257
0.59360671 0.2568866 0.063810512
0.5944196 0.25710613 0.064401731
0.59523243 0.25732249 0.064992964
0.59524572 0.2580553 0.064995043
0.54279077 0.013358857 0.028224399
0.54280579 0.014187296 0.028226743
0.54362887 0.015023396 0.028820945
0.54364389 0.01585024 0.028823283
0.54365891 0.016677085 0.02882562
0.54448193 0.017506814 0.029419839
0.54449689 0.018332066 0.029422173
0.54451191 0.019157317 0.029424507
0.54533476 0.019980673 0.030018674
0.54534972 0.020804331 0.030021003
0.54536468 0.021627989 0.030023333
0.5461874 0.022444973 0.030617479
0.5462023 0.023267038 0.030619806
0.54702497 0.024079241 0.031213939
0.54703987 0.024899714 0.03121626
0.54786247 0.025707137 0.031810418
0.54787737 0.026526015 0.031812731
0.5486998 0.027328659 0.03240684
0.54952222 0.028128117 0.033000939
0.549537 0.028943811 0.033003245
0.55035937 0.02973849 0.033597331
0.55037415 0.030552588 0.033599634
0.5511964 0.031342488 0.034193706
0.55121112 0.032154996 0.034196001
0.5512259 0.0329675 0.034198299
0.55204809 0.033751026 0.03479239
0.55206281 0.03456194 0.034794681
0.55288482 0.035340685 0.035388723
0.55289954 0.036150008 0.03539101
0.55372149 0.036923975 0.035985038
0.55373615 0.037731703 0.035987321
0.55455798 0.03850089 0.036581334
0.55457264 0.039307024 0.036583614
0.55539447 0.040071432 0.037177648
0.55540907 0.040875971 0.037179925
0.55623072 0.041635599 0.037773911
0.55624533 0.042438548 0.03777618
0.55625993 0.043241497 0.037778452
0.55708146 0.043994755 0.03837242
0.55709606 0.044796109 0.038374685
0.55711061 0.045597464 0.038376953
0.55793208 0.046344347 0.038970903
0.55794656 0.047144111 0.038973164
0.55796111 0.047943871 0.038975425
0.55878246 0.048684381 0.039569356
0.55879694 0.04948255 0.039571613
0.55881143 0.05028072 0.039573871
0.55963272 0.051014856 0.04016782
0.5596472 0.051811431 0.040170074
0.55966163 0.052608006 0.040172324
0.55967611 0.053404581 0.040174577
0.56049716 0.054130752 0.040768471
0.56051165 0.054925736 0.040770717
0.56052607 0.055720717 0.040772967
0.56134701 0.056440521 0.041366838
0.56136143 0.057233907 0.041369081
0.56137586 0.058027297 0.041371327
0.56139028 0.058820687 0.04137357
0.56140465 0.059614073 0.041375812
0.56141907 0.060407463 0.041378058
0.56143349 0.06120085 0.041380301
0.56144792 0.06199424 0.041382544
0.56146234 0.06278763 0.041384786
0.56147671 0.06358102 0.041387033
0.56149113 0.06437441 0.041389275
0.56069934 0.0652605 0.040799942
0.55990762 0.066149779 0.04021062
0.55911589 0.067042254 0.039621271
0.55913037 0.067840427 0.039623529
0.55753273 0.068836741 0.038442671
0.55754727 0.069638103 0.038444936
0.55594975 0.070643984 0.037264105
0.55515832 0.071552388 0.036674801
0.55517298 0.072358526 0.036677081
0.55438167 0.073271699 0.036087826
0.55359042 0.074188061 0.035498578
0.55360514 0.07499738 0.035500865
0.58822435 0.24628742 0.059067234
0.58823788 0.24703462 0.059069347
0.58825147 0.2477818 0.059071459
0.58826506 0.24852899 0.059073575
0.58747965 0.24976717 0.058485217
0.58749324 0.25051597 0.058487337
0.58750683 0.25126475 0.058489453
0.58752042 0.25201353 0.058491573
0.58753401 0.25276232 0.058493689
0.5875476 0.2535111 0.058495805
0.58836007 0.25375929 0.059088364
0.5883736 0.2545065 0.059090476
0.58838719 0.25525367 0.059092589
0.58919948 0.25549555 0.059685111
0.59001172 0.25573421 0.060277641
0.59082389 0.2559697 0.060870145
0.59083736 0.25671211 0.060872246
0.59164947 0.25694281 0.061464734
0.59326005 0.256657 0.062647618
0.59327346 0.25739467 0.062649705
0.5940854 0.25761577 0.06324219
0.59489721 0.25783375 0.063834645
0.59570903 0.2580485 0.0644271
0.54168522 0.012497809 0.026393827
0.54170036 0.013329435 0.02639618
0.54252249 0.014170328 0.02699163
0.54334462 0.015008037 0.027587071
0.54335964 0.015836475 0.027589414
0.54418164 0.016669404 0.028184842
0.54419667 0.017496247 0.02818718
0.54501861 0.018324398 0.02878263
0.54503363 0.01914965 0.028784964
0.54504859 0.0199749 0.028787296
0.54587042 0.020796677 0.029382695
0.54588538 0.021620337 0.029385023
0.54590034 0.022443995 0.029387353
0.54672205 0.023259399 0.029982731
0.54673696 0.024081465 0.029985055
0.54755855 0.02489209 0.03058042
0.54757345 0.025712563 0.030582741
0.54839504 0.026518406 0.031178126
0.54840994 0.027337287 0.031180441
0.54923135 0.028138353 0.03177578
0.54924619 0.028955638 0.03177809
0.55006754 0.029751925 0.032373413
0.55008233 0.030567618 0.032375723
0.55090362 0.031359125 0.032971032
0.5509184 0.032173224 0.032973334
0.55173957 0.032959953 0.033568632
0.5517543 0.033772457 0.03357093
0.55257547 0.034554407 0.03416625
0.55259019 0.035365317 0.034168541
0.55341119 0.036142487 0.034763813
0.55342585 0.036951806 0.0347661
0.55424678 0.037724197 0.035361357
0.55426145 0.038531926 0.035363641
0.55508226 0.039299536 0.035958886
0.55509692 0.040105667 0.035961162
0.55591768 0.040868498 0.03655643
0.55593228 0.041673038 0.036558703
0.55594695 0.042477578 0.036560979
0.55676752 0.043234039 0.037156191
0.55678213 0.044036984 0.037158463
0.55760264 0.044788662 0.03775366
0.55761719 0.045590017 0.037755925
0.55763179 0.046391372 0.037758194
0.55845219 0.047136679 0.038353372
0.55846673 0.04793644 0.038355634
0.55848122 0.0487362 0.038357895
0.55930156 0.049475133 0.038953058
0.55931604 0.050273303 0.038955316
0.55933052 0.051071469 0.038957573
0.55934501 0.051869638 0.038959831
0.56016523 0.052600604 0.039555006
0.56017971 0.053397179 0.039557256
0.56019419 0.054193754 0.03955951
0.56101424 0.054918349 0.040154628
0.56102866 0.055713333 0.040156879
0.56104308 0.056508314 0.040159125
0.56105751 0.057303295 0.040161375
0.56107199 0.058098275 0.040163621
0.56189185 0.058813315 0.040758718
0.56190628 0.059606701 0.04076096
0.56192064 0.060400091 0.040763207
0.56193507 0.061193477 0.040765449
0.56194949 0.061986867 0.040767692
0.56196392 0.062780261 0.040769935
0.56197828 0.063573651 0.040772181
0.56118751 0.064458132 0.040181607
0.56120193 0.065253116 0.040183857
0.56041121 0.06614238 0.039593298
0.5596205 0.067034841 0.039002717
0.55882984 0.067930475 0.038412176
0.55803931 0.068829298 0.037821643
0.55724883 0.06973131 0.037231125
0.55645841 0.070636511 0.036640611
0.55647302 0.071441047 0.036642887
0.5556826 0.072351031 0.03605235
0.5548923 0.073264197 0.035461862
0.55490696 0.074071921 0.035464145
0.55411679 0.074989863 0.034873668
0.58789861 0.24676509 0.057896469
0.58871025 0.24702768 0.058490299
0.58872384 0.24777487 0.058492415
0.58873743 0.24852204 0.058494527
0.58795303 0.24976021 0.057904936
0.58796662 0.25050899 0.057907056
0.58798021 0.25125778 0.057909172
0.5879938 0.25200656 0.057911288
0.58800739 0.25275534 0.057913408
0.58802098 0.25350413 0.057915524
0.58883244 0.25375235 0.058509316
0.58884597 0.25449955 0.058511429
0.58885956 0.25524673 0.058513544
0.58967084 0.2554886 0.0591073
0.59048206 0.25572729 0.059701063
0.59049559 0.25647131 0.059703168
0.59130669 0.25670519 0.060296901
0.59211779 0.25693592 0.060890626
0.59292883 0.25716344 0.061484359
0.59373975 0.25738782 0.062078066
0.59455067 0.25760895 0.062671781
0.59536153 0.25782692 0.063265473
0.59537488 0.25856134 0.063267551
0.53814995 0.010748548 0.02277285
0.54059875 0.01246514 0.024560625
0.54142004 0.013310829 0.025157358
0.54224122 0.014153332 0.025754049
0.54306233 0.014992649 0.026350729
0.54388338 0.015828777 0.026947401
0.5438984 0.016657216 0.026949743
0.5447194 0.017488565 0.0275464
0.54473442 0.018315412 0.027548738
0.54474944 0.019142257 0.027551077
0.54557031 0.019967234 0.028147753
0.54558533 0.020792486 0.028150087
0.5456003 0.021617737 0.028152421
0.54642105 0.022436343 0.028749043
0.54643601 0.023260001 0.028751371
0.54725665 0.024073828 0.02934798
0.54727161 0.024895893 0.029350305
0.54809219 0.025704939 0.029946901
0.54810709 0.026525412 0.02994922
0.54892761 0.027329678 0.030545836
0.54894251 0.028148556 0.030548152
0.54976285 0.028948044 0.03114472
0.54977769 0.02976533 0.031147031
0.55059803 0.030560039 0.031743586
0.55061287 0.031375732 0.031745892
0.55143309 0.032165661 0.032342434
0.55144787 0.03297976 0.032344736
0.55226797 0.03376491 0.032941263
0.55228275 0.034577418 0.032943562
0.55310285 0.035357784 0.033540111
0.55311757 0.036168698 0.033542402
0.55393749 0.036944289 0.034138903
0.55395222 0.037753608 0.03414119
0.55477208 0.038524419 0.03473768
0.55478674 0.039332148 0.034739964
0.5548014 0.040139873 0.034742247
0.55562121 0.040904313 0.035338715
0.55563581 0.041710448 0.035340995
0.55645555 0.042470105 0.035937484
0.55647016 0.043274645 0.035939761
0.55728972 0.044029523 0.036536202
0.55730432 0.044832472 0.036538474
0.55812383 0.04558257 0.037134901
0.55813837 0.046383929 0.037137169
0.55815291 0.047185279 0.037139434
0.55816752 0.047986634 0.037141699
0.55898684 0.048728772 0.037738107
0.55900139 0.049528532 0.037740368
0.55982065 0.050265886 0.038336761
0.55983514 0.051064055 0.038339019
0.55984962 0.051862221 0.038341273
0.5598641 0.052660394 0.03834353
0.55987865 0.05345856 0.038345788
0.56069779 0.054186352 0.038942188
0.56071222 0.054982927 0.038944442
0.5607267 0.055779502 0.038946696
0.56074119 0.056576077 0.038948946
0.56156009 0.057295907 0.03954529
0.56157458 0.058090892 0.039547537
0.561589 0.058885876 0.039549787
0.56160343 0.059680853 0.039552033
0.56161785 0.060475834 0.039554283
0.56163234 0.061270818 0.039556529
0.56164676 0.062065799 0.039558779
0.56166118 0.062860787 0.039561026
0.56167561 0.063655764 0.039563276
0.56169009 0.064450748 0.039565522
0.56090033 0.065338403 0.038973726
0.56091481 0.066134982 0.038975976
0.56012511 0.06702742 0.038384158
0.55933547 0.067923047 0.037792385
0.55854595 0.068821855 0.037200619
0.55775642 0.069723852 0.036608864
0.55696702 0.07062903 0.036017116
0.55698162 0.071433574 0.036019392
0.55619222 0.072343543 0.035427622
0.55540293 0.073256694 0.034835897
0.5554176 0.074064419 0.034838181
0.55543226 0.074872144 0.034840468
0.58837199 0.24675813 0.057316184
0.58918262 0.24702074 0.057911254
0.58839917 0.2482557 0.05732042
0.58920979 0.2485151 0.057915479
0.58842635 0.24975325 0.057324655
0.58844 0.25050205 0.057326771
0.58845359 0.25125083 0.057328891
0.58846718 0.25199962 0.057331007
0.58848077 0.2527484 0.057333127
0.58849436 0.25349718 0.057335243
0.5893048 0.25374541 0.057930268
0.58931834 0.25449261 0.057932384
0.58933192 0.25523978 0.057934497
0.59014219 0.25548169 0.058529485
0.59015572 0.25622728 0.058531594
0.59096593 0.25646439 0.059126589
0.59177607 0.25669831 0.059721559
0.5925861 0.25692904 0.060316518
0.59339613 0.25715658 0.060911488
0.5934096 0.2578958 0.060913578
0.59421951 0.25811857 0.061508514
0.59502941 0.25833815 0.062103458
0.5958392 0.25855455 0.062698379
0.59585255 0.25928897 0.062700458
0.53868073 0.010740746 0.022122191
0.54032141 0.012444898 0.023318093
0.54114169 0.013292194 0.02391603
0.54196191 0.014136305 0.024513995
0.54278207 0.01497723 0.025111916
0.54360217 0.015814967 0.025709826
0.54361719 0.016644998 0.025712173
0.54443723 0.017477958 0.026310069
0.54445225 0.018306395 0.026312413
0.54527217 0.019134574 0.026910298
0.54528719 0.019961419 0.026912635
0.54530221 0.020788264 0.026914973
0.54612201 0.02161007 0.027512874
0.54613703 0.022435321 0.027515208
0.54695672 0.023252347 0.02811306
0.54697168 0.024076007 0.02811539
0.54698664 0.024899665 0.028117718
0.54780626 0.02571032 0.028715553
0.54782116 0.026532385 0.028717877
0.54864067 0.027338261 0.029315699
0.54865557 0.028158734 0.029318018
0.54947507 0.028959827 0.02991586
0.54948992 0.029778706 0.029918175
0.55030924 0.030575022 0.030515971
0.55112851 0.031368151 0.031113753
0.55114335 0.032183845 0.031116061
0.55196249 0.032972198 0.031713832
0.55197728 0.033786297 0.031716134
0.55279642 0.034569867 0.032313891
0.55281115 0.035382375 0.032316189
0.55282593 0.03619488 0.032318488
0.55364496 0.036972076 0.032916263
0.55365968 0.037782989 0.032918554
0.55447859 0.03855541 0.03351628
0.55449325 0.039364729 0.033518568
0.5553121 0.04013237 0.034116279
0.55532676 0.040940095 0.034118567
0.55614549 0.041702956 0.034716263
0.55616009 0.04250909 0.034718543
0.55697882 0.043267168 0.035316266
0.55699342 0.044071712 0.035318542
0.55781198 0.04482501 0.035916213
0.55782652 0.045627955 0.035918482
0.55864501 0.046376482 0.036516141
0.55865955 0.047177836 0.036518406
0.5586741 0.047979191 0.036520675
0.55868864 0.048780542 0.03652294
0.55950695 0.049521104 0.037120577
0.5595215 0.050320864 0.037122838
0.55953604 0.051120624 0.037125099
0.56035423 0.051854808 0.037722718
0.56036872 0.052652977 0.037724972
0.5603832 0.053451143 0.037727229
0.56039774 0.054249313 0.037729487
0.56041223 0.055047479 0.037731744
0.5612303 0.055772103 0.03832937
0.56124479 0.056568678 0.038331624
0.56125921 0.05736525 0.038333878
0.56127369 0.058161825 0.038336128
0.56128818 0.058958404 0.038338382
0.56210601 0.05967347 0.038935944
0.56212044 0.06046845 0.038938195
0.56213492 0.061263435 0.038940441
0.56214935 0.062058415 0.038942691
0.56216377 0.062853396 0.038944937
0.56217819 0.06364838 0.038947187
0.56138945 0.064534426 0.038354151
0.56140393 0.065331005 0.038356405
0.56061518 0.066221841 0.037763346
0.56062967 0.067020006 0.037765604
0.5598411 0.067915618 0.037172593
0.55905253 0.068814404 0.036579594
0.55826408 0.069716394 0.035986602
0.55747563 0.070621558 0.035393622
0.55749023 0.071426101 0.035395898
0.5567019 0.072336055 0.034802891
0.5567165 0.073142186 0.034805171
0.55673116 0.073948324 0.034807451
0.55674577 0.074754454 0.034809731
0.55676043 0.075560585 0.034812011
0.58883178 0.24600241 0.056733787
0.58884537 0.24675117 0.056735903
0.58965504 0.24701379 0.057332203
0.58966857 0.24776098 0.057334319
0.58968216 0.24850816 0.057336431
0.58969575 0.24925534 0.057338543
0.58970928 0.25000253 0.057340655
0.58972287 0.25074971 0.057342768
0.58973646 0.25149691 0.057344884
0.58895415 0.25274146 0.056752842
0.58976358 0.25299129 0.057349108
0.58977717 0.25373846 0.05735122
0.5897907 0.25448567 0.057353333
0.58980429 0.25523287 0.057355445
0.59061354 0.25547475 0.057951674
0.59062707 0.25622034 0.057953782
0.59143633 0.25645748 0.058550011
0.5922454 0.2566914 0.059146214
0.59225887 0.2574338 0.059148315
0.59306794 0.25766295 0.059744503
0.5938769 0.25788894 0.060340703
0.59468585 0.25811172 0.060936872
0.5946992 0.25884935 0.060938958
0.5955081 0.25906733 0.061535135
0.59552145 0.25980335 0.061537217
0.5367837 0.0098415138 0.01967865
0.53840739 0.01071726 0.020874714
0.54166943 0.013284438 0.02326908
0.54168463 0.014119248 0.02327144
0.54330778 0.014969503 0.024467431
0.54332292 0.015801126 0.024469784
0.54414195 0.016637286 0.025068924
0.54415703 0.017467318 0.025071271
0.544976 0.018298697 0.0256704
0.54499102 0.019127136 0.025672741
0.5450061 0.019955574 0.025675084
0.54582494 0.020780582 0.026274195
0.54583997 0.021607427 0.026276533
0.54665875 0.022427654 0.026875664
0.54667372 0.023252904 0.026877997
0.54668874 0.024078157 0.026880331
0.54750735 0.024892014 0.027479408
0.54752231 0.025715671 0.027481738
0.54834086 0.026524747 0.028080802
0.54835582 0.027346814 0.028083127
0.54917431 0.02815111 0.028682178
0.54918921 0.028971583 0.028684499
0.55000764 0.029771099 0.02928357
0.55002248 0.030589977 0.029285885
0.5508408 0.031384714 0.02988491
0.55165899 0.032176267 0.030483924
0.55167383 0.032991961 0.030486232
0.55249196 0.033778731 0.03108523
0.55250674 0.034592833 0.031087533
0.55332482 0.035374824 0.031686522
0.5533396 0.036187332 0.031688821
0.55335432 0.036999837 0.031691115
0.55417234 0.037775457 0.032290123
0.55418706 0.038586371 0.032292414
0.55500489 0.039357211 0.03289137
0.55501962 0.040166531 0.032893658
0.55583739 0.040932592 0.033492602
0.55585206 0.041740321 0.033494886
0.55666977 0.042501602 0.034093816
0.55668437 0.043307737 0.034096096
0.55750203 0.044064235 0.034695044
0.55751663 0.044868775 0.03469732
0.55833417 0.045620497 0.035296224
0.55834872 0.046423446 0.035298493
0.55836332 0.047226395 0.035300765
0.55918074 0.047971744 0.03589965
0.55919528 0.048773099 0.035901915
0.55920982 0.049574453 0.03590418
0.55922437 0.050375808 0.035906449
0.56004167 0.051113192 0.036505308
0.56005615 0.051912952 0.036507569
0.56007069 0.052712716 0.036509831
0.56088781 0.05344373 0.037108675
0.5609023 0.054241896 0.037110932
0.56091684 0.055040065 0.03711319
0.56093132 0.055838235 0.037115447
0.56094581 0.056636401 0.037117705
0.56096029 0.05743457 0.037119962
0.56177729 0.058154427 0.03771881
0.56179178 0.058951002 0.03772106
0.56180626 0.059747577 0.037723314
0.56182069 0.060544152 0.037725568
0.56183517 0.061340727 0.037727818
0.56184965 0.062137298 0.037730072
0.56186408 0.062933877 0.037732325
0.56187856 0.063730456 0.037734576
0.56189305 0.064527027 0.037736829
0.56190753 0.065323606 0.037739083
0.56111979 0.06621442 0.037144791
0.56113428 0.067012593 0.037147049
0.56034672 0.067908183 0.036552802
0.55955917 0.068806961 0.035958569
0.55957371 0.069608316 0.035960834
0.55878627 0.070511878 0.035366613
0.5579989 0.071418628 0.0347724
0.5580135 0.072223164 0.034774676
0.5580281 0.073027708 0.034776952
0.55804271 0.073832244 0.034779228
0.55805731 0.074636787 0.034781501
0.55887377 0.075329565 0.035380237
0.58930516 0.24599545 0.056153502
0.58931875 0.24674422 0.056155622
0.59012741 0.24700685 0.056753159
0.58934593 0.24824178 0.056159858
0.59015453 0.24850121 0.056757383
0.59016812 0.2492484 0.056759495
0.59018165 0.24999559 0.056761611
0.59019524 0.25074276 0.056763723
0.59020883 0.25148997 0.056765836
0.59022236 0.25223717 0.056767948
0.59023595 0.25298434 0.05677006
0.59024954 0.25373155 0.056772176
0.59026313 0.25447872 0.056774288
0.59027666 0.25522593 0.056776401
0.5910849 0.25546783 0.057373859
0.59109849 0.25621343 0.057375968
0.59190667 0.25645056 0.057973433
0.59271479 0.25668451 0.058570869
0.59272826 0.25742692 0.05857297
0.59353626 0.25765607 0.059170395
0.59434426 0.25788206 0.059767827
0.59435767 0.25862128 0.059769917
0.59516555 0.2588425 0.06036732
0.59517896 0.25958011 0.060369406
0.59598678 0.25979653 0.060966812
0.53484631 0.0063851862 0.017220471
0.53486168 0.0072343363 0.017222872
0.53568041 0.0081039686 0.017823378
0.53649896 0.0089704115 0.018423839
0.53731751 0.0098336684 0.01902429
0.53813601 0.01069374 0.019624732
0.53975755 0.011564735 0.020823253
0.54057586 0.012416841 0.021423675
0.54139417 0.01326576 0.022024086
0.54221237 0.014111492 0.022624487
0.54222751 0.014946303 0.022626849
0.5430457 0.015787257 0.023227273
0.54386377 0.016625024 0.023827652
0.54387885 0.017456649 0.023830004
0.54469687 0.018289637 0.024430372
0.54471195 0.019119669 0.024432719
0.54552984 0.019947875 0.025033072
0.54554486 0.020776315 0.025035413
0.5463627 0.021599744 0.025635753
0.54637772 0.022426588 0.02563809
0.54639274 0.023253433 0.02564043
0.54721045 0.02407049 0.026240787
0.54722542 0.024895743 0.02624312
0.54724044 0.025720993 0.026245454
0.54805803 0.026531678 0.026845757
0.54807299 0.027355336 0.026848085
0.54889047 0.028161241 0.027448375
0.54970789 0.028963959 0.028048657
0.54972279 0.029784432 0.028050978
0.55054015 0.030582368 0.02865128
0.55055505 0.031401247 0.028653596
0.55137229 0.032194406 0.02925385
0.55218953 0.03298438 0.029854095
0.55220431 0.033800073 0.029856401
0.55302143 0.034585267 0.030456632
0.55303621 0.035399366 0.030458935
0.55305099 0.036213469 0.030461235
0.553868 0.036992289 0.03106145
0.55388278 0.037804797 0.031063749
0.55469972 0.038578834 0.03166398
0.55471444 0.039389748 0.031666275
0.55553126 0.040159009 0.032266464
0.55554599 0.040968332 0.032268751
0.55636269 0.041732814 0.032868922
0.55637735 0.042540543 0.032871209
0.55639207 0.043348268 0.032873493
0.55720866 0.044106379 0.033473644
0.5580253 0.044861298 0.034073826
0.5580399 0.045665838 0.034076102
0.55805451 0.046470385 0.034078378
0.55887097 0.047218934 0.034678504
0.55888551 0.048021879 0.034680776
0.55970192 0.048765652 0.035280891
0.55971646 0.04956701 0.035283156
0.55973101 0.050368361 0.035285424
0.55974555 0.051169716 0.035287689
0.55976009 0.05197107 0.035289954
0.56057632 0.052705284 0.035890043
0.5605908 0.053505044 0.035892304
0.56060535 0.054304808 0.035894565
0.56061989 0.055104569 0.035896827
0.56143594 0.055830818 0.036496893
0.56145042 0.056628987 0.036499146
0.56146491 0.057427153 0.036501404
0.56147939 0.058225323 0.036503661
0.56149393 0.059023492 0.036505919
0.56150842 0.059821658 0.036508176
0.56232429 0.06053675 0.037108246
0.56233877 0.061333325 0.037110496
0.56235325 0.0621299 0.03711275
0.56236768 0.062926479 0.037115004
0.56238216 0.06372305 0.037117258
0.56239665 0.064519629 0.037119508
0.56241113 0.0653162 0.037121762
0.56162441 0.066207007 0.036526233
0.56163889 0.067005172 0.03652849
0.56085229 0.067900755 0.035933014
0.56086683 0.068700515 0.035935275
0.56008035 0.069600873 0.03533981
0.56009489 0.070402227 0.035342075
0.55930847 0.071307369 0.034746625
0.55932307 0.072110318 0.034748897
0.55933768 0.072913259 0.034751166
0.55935222 0.073716208 0.034753438
0.55936682 0.074519157 0.034755707
0.55938143 0.075322099 0.034757979
0.55939597 0.076125056 0.034760248
0.58977848 0.24598849 0.055573221
0.58979213 0.24673726 0.055575337
0.58980572 0.24748605 0.055577457
0.58981931 0.24823482 0.055579573
0.5898329 0.24898361 0.055581693
0.58984649 0.24973238 0.055583809
0.58986014 0.25048116 0.055585925
0.58987373 0.25122997 0.055588044
0.58988732 0.25197873 0.05559016
0.58990091 0.25272754 0.05559228
0.59070832 0.2529774 0.056191016
0.59072191 0.2537246 0.056193128
0.5907355 0.25447178 0.05619524
0.59074903 0.25521898 0.056197353
0.59155631 0.25546089 0.056796048
0.59156984 0.25620651 0.056798156
0.59237701 0.25644365 0.057396855
0.59239054 0.25718763 0.05739896
0.59319758 0.25742 0.057997629
0.59400463 0.25764918 0.058596287
0.59401804 0.25839001 0.058598381
0.59482503 0.25861442 0.059197046
0.59483844 0.25935364 0.059199136
0.59564525 0.25957325 0.059797768
0.59565866 0.26031089 0.059799854
0.53617007 0.0055534244 0.017159358
0.53538311 0.0063772965 0.016562406
0.53620082 0.0072485381 0.017164152
0.5362162 0.0080960942 0.017166547
0.5370338 0.0089625521 0.017768243
0.53785133 0.0098258229 0.01836993
0.53866881 0.01068591 0.018971607
0.53948623 0.011542811 0.019573312
0.54030359 0.012396523 0.020174971
0.54112089 0.013247051 0.020776622
0.54193813 0.014094392 0.021378262
0.54275531 0.014938547 0.021979896
0.54277045 0.015773358 0.021982256
0.54358763 0.016612733 0.022583911
0.54360271 0.01744595 0.022586267
0.54441971 0.018280547 0.023187872
0.54523665 0.019111956 0.023789469
0.54525173 0.019941987 0.023791818
0.54526681 0.020772018 0.023794165
0.54608363 0.021597056 0.024395743
0.54609871 0.022425493 0.024398087
0.54611373 0.023253931 0.024400428
0.54693049 0.024072597 0.025001988
0.54694545 0.024899442 0.025004325
0.54776216 0.025713326 0.02560591
0.54777712 0.026538577 0.025608243
0.5485937 0.027347684 0.026209775
0.54860866 0.028171342 0.026212106
0.54942507 0.028975667 0.026813626
0.55024147 0.029776808 0.027415136
0.55025637 0.030597281 0.027417457
0.55107272 0.03139364 0.028018989
0.55108762 0.032212518 0.028021306
0.55190384 0.033004101 0.028622789
0.55191869 0.033821385 0.028625101
0.55273479 0.034608189 0.029226571
0.5535509 0.035391804 0.029828032
0.55356568 0.036205903 0.029830335
0.55358046 0.037020002 0.029832637
0.55439645 0.037797246 0.030434079
0.55441117 0.038609754 0.030436378
0.5552271 0.039382216 0.031037843
0.55524182 0.040193126 0.031040136
0.55525655 0.041004039 0.031042429
0.55607229 0.04177013 0.031643841
0.55608702 0.042579453 0.031646129
0.55690271 0.043340765 0.032247528
0.55691737 0.04414849 0.032249812
0.55773294 0.044905022 0.032851197
0.5577476 0.045711156 0.032853477
0.55856311 0.046462908 0.033454884
0.55857772 0.047267448 0.03345716
0.55939317 0.048014421 0.034058519
0.55940771 0.048817366 0.034060787
0.55942231 0.049620319 0.03406306
0.56023765 0.050360918 0.034664396
0.56025219 0.051162269 0.034666665
0.56026673 0.051963627 0.03466893
0.56028128 0.052764982 0.034671195
0.56029582 0.053566337 0.034673464
0.56111097 0.054297376 0.035274774
0.56112552 0.055097137 0.035277035
0.56114 0.055896901 0.035279296
0.56115454 0.056696661 0.035281561
0.56116909 0.057496421 0.035283823
0.56118357 0.058296185 0.035286084
0.56199849 0.059016075 0.035887364
0.56201303 0.059814245 0.035889622
0.56202751 0.06061241 0.035891879
0.562042 0.06141058 0.035894137
0.56205648 0.062208746 0.035896394
0.56207103 0.063006915 0.035898652
0.56288576 0.063715652 0.036499936
0.56209999 0.064603254 0.035903163
0.56211448 0.06540142 0.035905421
0.56212896 0.066199593 0.035907678
0.5621435 0.066997759 0.035909936
0.56135792 0.067893319 0.035313223
0.56137246 0.068693079 0.035315484
0.56138694 0.069492847 0.035317745
0.56060147 0.070394784 0.03472105
0.56061608 0.071196139 0.034723315
0.56063062 0.071997494 0.034725584
0.56064516 0.072798848 0.034727849
0.56065971 0.073600195 0.034730114
0.56067425 0.074401557 0.034732383
0.56068885 0.075202912 0.034734648
0.5607034 0.076004267 0.034736913
0.56071794 0.076805621 0.034739181
0.59026551 0.2467303 0.054995056
0.5902791 0.2474791 0.054997176
0.59029269 0.24822786 0.054999292
0.59030628 0.24897665 0.055001408
0.59031987 0.24972542 0.055003528
0.59033346 0.25047421 0.055005644
0.59034711 0.251223 0.055007763
0.5903607 0.25197178 0.055009879
0.59037429 0.25272056 0.055011999
0.59038788 0.25346935 0.055014115
0.59119427 0.25371766 0.05561408
0.59120786 0.25446483 0.055616193
0.59122139 0.25521204 0.055618305
0.59202766 0.25545397 0.056218237
0.59204119 0.25619957 0.056220345
0.59284735 0.25643674 0.056820277
0.59286088 0.25718072 0.056822382
0.59366697 0.25741312 0.057422284
0.59368044 0.25815552 0.057424385
0.59448642 0.25838313 0.058024272
0.59449989 0.25912395 0.058026366
0.5953058 0.25934675 0.058626261
0.59531921 0.260086 0.05862835
0.59612501 0.26030403 0.059228212
0.53670585 0.0055455491 0.016502526
0.53672129 0.0063931053 0.016504923
0.53673667 0.0072406628 0.01650732
0.53755325 0.0081087276 0.017110255
0.53756863 0.0089546917 0.017112646
0.53838515 0.0098179774 0.017715568
0.53920162 0.010678079 0.018318482
0.54001802 0.011534995 0.018921418
0.54083437 0.012388722 0.019524314
0.54084963 0.013228313 0.019526688
0.54166591 0.014077262 0.020129569
0.54248208 0.014923025 0.02073244
0.54329824 0.015765602 0.021335302
0.54331338 0.016600411 0.021337664
0.54412949 0.017438209 0.021940548
0.54414463 0.018271426 0.021942904
0.54496062 0.019104443 0.02254574
0.5449757 0.019936068 0.022548093
0.54579157 0.020764306 0.023150913
0.54580665 0.021594338 0.02315326
0.54582173 0.022424368 0.023155609
0.54663748 0.023246234 0.023758411
0.54665256 0.024074674 0.023760755
0.54746819 0.024891758 0.024363546
0.54748321 0.025718603 0.024365883
0.5482989 0.02653091 0.024968697
0.54831386 0.027356161 0.024971031
0.54912937 0.028163688 0.025573796
0.54914433 0.028987348 0.025576124
0.54995972 0.029790096 0.026178874
0.55077511 0.030589657 0.026781615
0.55079001 0.031410128 0.026783936
0.55160528 0.032204911 0.027386699
0.55162019 0.03302379 0.027389014
0.5524354 0.033813793 0.027991729
0.55245024 0.034631077 0.027994039
0.55326533 0.035416301 0.02859674
0.55328012 0.036231995 0.028599046
0.55409515 0.037012439 0.029201733
0.55410993 0.037826538 0.029204035
0.55492485 0.038602203 0.029806709
0.55493963 0.039414711 0.029809006
0.55495435 0.040227216 0.029811304
0.55576921 0.040996507 0.030413995
0.55578393 0.041807421 0.030416287
0.55659866 0.042571932 0.03101893
0.55661339 0.043381255 0.031021219
0.557428 0.044140987 0.031623848
0.55744267 0.044948712 0.031626131
0.55825722 0.045703664 0.032228746
0.55827188 0.046509802 0.032231025
0.55828649 0.047315937 0.032233305
0.55910099 0.048064511 0.032835938
0.55911559 0.048869051 0.032838214
0.55992997 0.049612857 0.033440799
0.55994451 0.050415803 0.033443067
0.55995911 0.051218752 0.03344534
0.55997372 0.052021697 0.033447608
0.56078792 0.052757535 0.03405017
0.56080246 0.05355889 0.034052435
0.560817 0.054360244 0.0340547
0.56083155 0.055161599 0.034056969
0.56084615 0.055962954 0.034059234
0.56166017 0.056689233 0.034661766
0.56167465 0.057488993 0.034664031
0.5616892 0.058288753 0.034666292
0.56170374 0.059088513 0.034668554
0.56171823 0.059888277 0.034670815
0.56173277 0.060688037 0.034673076
0.56254661 0.061403167 0.035275578
0.56256109 0.062201329 0.035277836
0.56257558 0.062999502 0.035280094
0.56259012 0.063797668 0.035282351
0.56260461 0.064595841 0.035284609
0.56261909 0.065394007 0.035286862
0.56263357 0.066192172 0.03528912
0.56264806 0.066990346 0.035291377
0.5626626 0.067788512 0.035293635
0.56187803 0.068685651 0.034695692
0.56189257 0.069485418 0.034697954
0.56190711 0.070285179 0.034700215
0.5619216 0.071084939 0.034702476
0.5611372 0.071990043 0.034104556
0.56195068 0.072684459 0.034707002
0.56116635 0.073592752 0.03410909
0.56118089 0.074394107 0.034111355
0.56199425 0.07508374 0.034713786
0.5620088 0.075883508 0.034716047
0.56202328 0.076683268 0.034718309
0.56203783 0.077483028 0.03472057
0.56205237 0.078282788 0.034722831
0.59073889 0.24672335 0.054414775
0.59075248 0.24747214 0.054416891
0.59076607 0.24822092 0.054419011
0.59077966 0.24896969 0.054421127
0.59079325 0.24971847 0.054423243
0.59080684 0.25046727 0.054425362
0.59082049 0.25121605 0.054427478
0.59083408 0.25196484 0.054429598
0.59084767 0.25271362 0.054431714
0.59086126 0.2534624 0.05443383
0.59166664 0.25371072 0.055035032
0.59168023 0.25445789 0.055037145
0.59169376 0.25520509 0.055039257
0.59170735 0.25595227 0.055041369
0.59251255 0.25619265 0.05564253
0.59331775 0.25642982 0.056243699
0.59333122 0.25717381 0.056245804
0.5941363 0.2574062 0.056846939
0.59414977 0.25814864 0.05684904
0.59495473 0.25837624 0.057450164
0.5949682 0.25911707 0.057452258
0.5957731 0.2593399 0.058053385
0.59578651 0.26007912 0.058055475
0.59579998 0.26081833 0.058057565
0.53722632 0.0046901205 0.0158433
0.5372417 0.0055376743 0.015845697
0.53725708 0.0063852305 0.015848093
0.53727245 0.007232788 0.01585049
0.53728789 0.0080803437 0.015852887
0.53810346 0.0089468313 0.016457053
0.53891897 0.0098101329 0.017061209
0.53893429 0.010654503 0.017063597
0.53974968 0.011513026 0.017667739
0.54056513 0.012368361 0.018271906
0.54138041 0.013220512 0.018876031
0.54219568 0.014069476 0.019480146
0.54301083 0.014915254 0.020084253
0.54302603 0.015751656 0.020086618
0.54304123 0.016588062 0.020088984
0.54385632 0.017427465 0.020693071
0.54387146 0.018262276 0.020695433
0.5446865 0.019096902 0.021299543
0.54470164 0.019930119 0.021301899
0.54551655 0.020759966 0.021905961
0.54553163 0.021591591 0.021908313
0.54634649 0.022416657 0.02251236
0.54636157 0.023246689 0.022514706
0.54637665 0.024076719 0.022517053
0.54719132 0.024895413 0.023121085
0.54720634 0.025723852 0.023123426
0.54802096 0.026537767 0.023727443
0.54803598 0.027364612 0.023729783
0.5488506 0.028173747 0.02433382
0.54966503 0.028979694 0.024937814
0.54967999 0.029803354 0.024940144
0.55049437 0.030604523 0.025544122
0.55050933 0.03142659 0.025546448
0.55132359 0.032222979 0.026150415
0.55133849 0.033043452 0.026152736
0.55215275 0.033835061 0.026756722
0.55296689 0.034623485 0.027360668
0.55298173 0.035440773 0.02736298
0.55379581 0.036224417 0.027966909
0.5538106 0.037040111 0.027969215
0.55462462 0.037818976 0.028573133
0.5546394 0.038633075 0.028575435
0.5554533 0.03940716 0.02917934
0.55546802 0.040219668 0.029181637
0.5554828 0.041032176 0.029183935
0.55629659 0.041799884 0.029787855
0.55631131 0.042610798 0.029790148
0.55712503 0.043373734 0.030394021
0.55713969 0.044183053 0.030396311
0.5579533 0.044941209 0.031000167
0.55796802 0.045748934 0.031002453
0.55798268 0.046556663 0.031004736
0.55879617 0.047308445 0.031608578
0.55881077 0.048114579 0.031610858
0.55882543 0.048920713 0.031613138
0.55963886 0.049666122 0.032216996
0.55965346 0.050470661 0.032219268
0.55966806 0.051275201 0.032221545
0.56048131 0.052014235 0.032825351
0.56049591 0.052817188 0.032827619
0.56051052 0.053620134 0.032829892
0.56052506 0.054423083 0.032832161
0.56133819 0.055154152 0.033435941
0.56135273 0.055955507 0.033438209
0.56136727 0.056756862 0.033440474
0.56138188 0.057558216 0.033442739
0.56139642 0.058359571 0.033445008
0.56220931 0.059081085 0.034048762
0.56222385 0.059880845 0.034051023
0.5622384 0.060680605 0.034053285
0.56225294 0.061480369 0.034055546
0.56226742 0.062280126 0.034057811
0.56308019 0.062992088 0.034661539
0.56309468 0.063790254 0.034663796
0.56310922 0.064588428 0.03466605
0.5631237 0.065386586 0.034668308
0.56313819 0.066184759 0.034670565
0.56315267 0.066982925 0.034672823
0.56316715 0.067781098 0.03467508
0.5631817 0.068579264 0.034677338
0.56319618 0.06937743 0.034679595
0.56321067 0.070175603 0.034681853
0.56242722 0.071077511 0.034082688
0.56244177 0.071877271 0.03408495
0.56245631 0.072677031 0.034087211
0.56247079 0.073476791 0.034089472
0.56328315 0.074166439 0.034693137
0.56249988 0.075076312 0.034093995
0.56251436 0.075876072 0.034096256
0.56252891 0.07667584 0.034098517
0.56254345 0.0774756 0.034100782
0.562558 0.07827536 0.034103043
0.5904212 0.24720089 0.053234149
0.59122586 0.24746518 0.05383661
0.59123945 0.24821396 0.05383873
0.59125304 0.24896273 0.053840846
0.59126663 0.24971151 0.053842962
0.59128022 0.2504603 0.053845081
0.59129387 0.25120908 0.053847197
0.59130746 0.25195786 0.053849317
0.59132105 0.25270665 0.053851433
0.59133464 0.25345543 0.053853549
0.59134823 0.25420421 0.053855669
0.5921526 0.25445095 0.054458097
0.59216613 0.25519815 0.054460213
0.59217972 0.25594532 0.054462325
0.5929839 0.25618571 0.055064719
0.59299743 0.2569313 0.055066828
0.59380162 0.25716689 0.055669226
0.59460562 0.25739932 0.056271598
0.5946191 0.25814173 0.056273695
0.59463263 0.25888413 0.056275796
0.59543651 0.25911018 0.05687815
0.59544998 0.25985101 0.056880247
0.59625387 0.26007226 0.057482604
0.59626728 0.26081148 0.057484694
0.53776211 0.0046822452 0.015186471
0.53777748 0.0055297995 0.015188868
0.53779292 0.0063773552 0.015191264
0.53860754 0.0072470461 0.015796673
0.53862292 0.0080930078 0.015799066
0.53863823 0.008938971 0.015801458
0.53945273 0.0098022874 0.016406849
0.53946811 0.010646659 0.016409237
0.54028249 0.011505196 0.017014613
0.54109693 0.012360546 0.017620018
0.54111218 0.01320173 0.017622396
0.54192644 0.014052301 0.01822775
0.54274064 0.014899688 0.018833095
0.5427559 0.015737684 0.018835464
0.5427711 0.016575681 0.018837836
0.54358518 0.017416693 0.019443162
0.54360038 0.018253097 0.019445527
0.5444144 0.01908933 0.02005084
0.5444296 0.019924141 0.020053202
0.54524356 0.020755596 0.020658538
0.5452587 0.021588814 0.020660894
0.54607248 0.022415487 0.021266181
0.54608762 0.023247112 0.021268534
0.54690135 0.024069007 0.021873806
0.54691643 0.024899039 0.021876154
0.54773009 0.025716154 0.022481414
0.54774517 0.026544593 0.022483757
0.54855871 0.027356928 0.023089003
0.54857373 0.028183775 0.02309134
0.54938728 0.02899133 0.023696609
0.5502007 0.029795701 0.024301833
0.55021566 0.030619359 0.024304163
0.55102903 0.031418949 0.024909373
0.55104393 0.032241017 0.024911698
0.55185717 0.03303583 0.025516894
0.55187207 0.033856302 0.025519215
0.55268532 0.034646332 0.026124435
0.55349845 0.035433177 0.026729608
0.55351329 0.036250465 0.026731919
0.5543263 0.03703253 0.02733708
0.55434114 0.037848223 0.027339386
0.55435592 0.038663916 0.027341694
0.55516887 0.039439611 0.027946835
0.55518365 0.04025371 0.027949138
0.55599648 0.041024625 0.028554266
0.5560112 0.04183713 0.028556565
0.55602598 0.042649638 0.028558861
0.55683875 0.043414179 0.029164009
0.55685347 0.044225089 0.029166304
0.55766606 0.044984855 0.029771401
0.55768079 0.045794174 0.02977369
0.55849332 0.046549156 0.030378774
0.55850798 0.047356885 0.030381057
0.55852264 0.048164614 0.030383341
0.55933505 0.048913222 0.030988406
0.55934972 0.049719356 0.030990686
0.55936438 0.05052549 0.030992966
0.56017667 0.051267724 0.03159805
0.56019133 0.052072268 0.031600326
0.56020594 0.052876808 0.031602602
0.56101811 0.053612676 0.032207631
0.56103271 0.054415621 0.032209903
0.56104726 0.05521857 0.032212172
0.56106186 0.056021519 0.032214444
0.56107646 0.056824464 0.032216713
0.56188846 0.057550773 0.032821715
0.561903 0.058352124 0.032823984
0.56191754 0.059153482 0.032826249
0.56193215 0.059954837 0.032828514
0.56194669 0.060756188 0.032830782
0.56275851 0.061472937 0.033435758
0.56277305 0.062272698 0.033438019
0.56278759 0.063072465 0.033440281
0.56280208 0.063872226 0.033442542
0.56361377 0.064581007 0.034047496
0.56362832 0.065379173 0.034049753
0.5636428 0.066177338 0.034052011
0.56365728 0.066975512 0.034054268
0.56367177 0.067773677 0.034056526
0.56368625 0.068571843 0.034058779
0.5637008 0.069370016 0.034061037
0.56371528 0.070168182 0.034063295
0.56372976 0.070966356 0.034065552
0.56374425 0.071764521 0.03406781
0.56375879 0.072562687 0.034070067
0.56377327 0.07336086 0.034072325
0.56378776 0.074159026 0.034074582
0.56380224 0.074957192 0.03407684
0.56381679 0.075755365 0.034079097
0.56383127 0.076553531 0.034081351
0.56304908 0.077468164 0.033480991
0.56306356 0.078267932 0.033483252
0.59089559 0.24719392 0.052652631
0.59090924 0.24794431 0.052654754
0.59092283 0.24869467 0.052656874
0.59093648 0.24944505 0.052658997
0.59095013 0.25019541 0.052661121
0.59096372 0.25094581 0.052663241
0.59097737 0.25169617 0.052665364
0.59099102 0.25244653 0.052667484
0.59100461 0.25319692 0.052669607
0.59101826 0.25394729 0.052671731
0.59182161 0.25419724 0.053275388
0.5918352 0.25494602 0.053277504
0.59184885 0.25569481 0.05327962
0.59265208 0.25593838 0.053883277
0.59266567 0.25668555 0.053885389
0.59346884 0.25692439 0.054489013
0.59427196 0.25715998 0.055092648
0.59428549 0.25790399 0.055094749
0.59508848 0.25813484 0.055698354
0.59510195 0.25887725 0.055700455
0.59590489 0.2591033 0.056304041
0.59591836 0.25984412 0.056306135
0.59593177 0.26058492 0.056308232
0.59673464 0.26080459 0.056911819
0.53829795 0.0046743704 0.01452964
0.53831333 0.0055219247 0.014532037
0.53832871 0.0063694804 0.014534433
0.53914237 0.0072391857 0.015141075
0.53915769 0.0080851475 0.015143468
0.53917307 0.0089311115 0.015145861
0.53998655 0.009794442 0.015752487
0.54000193 0.010638813 0.015754875
0.54081529 0.011497365 0.016361484
0.54083061 0.012340141 0.016363868
0.54164398 0.013193915 0.016970504
0.54165924 0.014035097 0.016972883
0.54247248 0.014884091 0.017579466
0.54248774 0.015723681 0.017581841
0.54330087 0.016567895 0.018188411
0.54331613 0.017405892 0.018190783
0.54412919 0.018245326 0.018797338
0.54414439 0.01908173 0.018799704
0.54495734 0.019916385 0.019406248
0.54497248 0.020751197 0.01940861
0.54578543 0.02158107 0.020015175
0.54580057 0.022414289 0.020017531
0.5466134 0.023239385 0.020624049
0.54662848 0.02407101 0.020626402
0.54744118 0.024891326 0.021232903
0.54745626 0.025721358 0.02123525
0.54826891 0.026536895 0.021841742
0.54828393 0.027365334 0.021844083
0.54909647 0.028176092 0.022450561
0.54911149 0.029002937 0.022452898
0.54992402 0.029808914 0.023059396
0.54993898 0.030634167 0.02306173
0.55075133 0.031435367 0.023668181
0.55156368 0.03223338 0.024274619
0.55157858 0.033055443 0.024276944
0.55239081 0.033848677 0.024883373
0.55240571 0.03466915 0.024885692
0.55321789 0.035457604 0.025492141
0.55323279 0.036276482 0.025494456
0.55404478 0.037060156 0.026100857
0.55405968 0.037877444 0.026103169
0.55487162 0.038656335 0.026709555
0.55488646 0.039472029 0.026711861
0.55569828 0.040246148 0.027318234
0.55571312 0.041060247 0.027320536
0.5557279 0.041874345 0.027322838
0.55653965 0.04264209 0.027929192
0.55655438 0.043454595 0.027931491
0.55656916 0.044267103 0.027933788
0.55738086 0.04502847 0.028540162
0.55739558 0.045839384 0.028542455
0.55820709 0.046595976 0.029148778
0.55822182 0.047405295 0.029151067
0.55903327 0.048157107 0.029757377
0.55904794 0.048964832 0.02975966
0.55906266 0.049772561 0.029761946
0.559874 0.050518002 0.030368237
0.5598886 0.051324137 0.030370515
0.55990326 0.052130271 0.030372795
0.56071454 0.052869335 0.030979106
0.56072915 0.053673875 0.03098138
0.56074381 0.054478414 0.030983657
0.56075841 0.055282954 0.030985931
0.56156951 0.056014057 0.031592183
0.56158406 0.056817003 0.031594452
0.56159866 0.057619952 0.031596724
0.56161326 0.058422901 0.031598993
0.56242418 0.059146035 0.032205224
0.56243873 0.05994739 0.032207489
0.56245327 0.060748745 0.032209754
0.56246787 0.061550096 0.032212023
0.56327868 0.062265266 0.032818228
0.56329316 0.06306503 0.032820489
0.5633077 0.06386479 0.032822751
0.56332225 0.064664558 0.032825012
0.56413287 0.065371759 0.033431195
0.56414741 0.066169925 0.033433452
0.5641619 0.066968091 0.03343571
0.56417638 0.067766264 0.033437967
0.56419086 0.06856443 0.033440225
0.56420541 0.069362603 0.033442482
0.56421989 0.070160769 0.03344474
0.56423438 0.070958935 0.033446997
0.56424886 0.071757101 0.033449255
0.56426334 0.072555274 0.033451512
0.56427789 0.07335344 0.033453766
0.56429237 0.074151613 0.033456024
0.56430686 0.074949779 0.033458281
0.56432134 0.075747944 0.033460539
0.56433588 0.076546118 0.033462796
0.56355464 0.077460736 0.032861199
0.56356919 0.078260496 0.03286346
0.59138364 0.24793734 0.052073237
0.59139723 0.2486877 0.05207536
0.59141088 0.24943808 0.05207748
0.5906356 0.25067928 0.051476788
0.59064925 0.25143129 0.051478915
0.5906629 0.25218323 0.051481042
0.59067655 0.2529352 0.051483169
0.5906902 0.25368717 0.051485296
0.59070385 0.25443915 0.05148742
0.5915063 0.25469071 0.052092336
0.59151989 0.25544104 0.052094456
0.59232223 0.25568786 0.052699339
0.59233582 0.25643665 0.052701455
0.59313804 0.25667861 0.053306341
0.5939402 0.25691748 0.053911202
0.59395373 0.25766304 0.05391331
0.59475583 0.25789708 0.054518174
0.59476936 0.25864106 0.054520275
0.59557128 0.25887036 0.055125106
0.59558481 0.25961274 0.055127207
0.59638667 0.25983724 0.055732027
0.59640014 0.26057804 0.05573412
0.59641361 0.26131886 0.055736218
0.53881836 0.0038189378 0.013870413
0.53883374 0.0046664956 0.01387281
0.53884917 0.0055140494 0.013875207
0.53966177 0.0063853622 0.01448309
0.53967714 0.0072313258 0.014485481
0.53969252 0.0080772871 0.014487874
0.5397079 0.0089232512 0.014490266
0.54052037 0.0097865965 0.015098126
0.54053569 0.010630968 0.015100514
0.5413481 0.011489535 0.015708361
0.54136342 0.01233231 0.015710743
0.54137874 0.013175087 0.015713127
0.54219103 0.014027282 0.01632099
0.54220635 0.014868466 0.016323369
0.54301852 0.01571588 0.016931184
0.54303378 0.016555471 0.016933559
0.54384589 0.017398106 0.01754136
0.54386109 0.018236104 0.017543729
0.54387635 0.019074099 0.017546099
0.54468834 0.019910363 0.018153884
0.54470354 0.020746766 0.018156247
0.54551542 0.02157825 0.018764017
0.54632735 0.022406548 0.019371813
0.54634243 0.023239765 0.019374169
0.54715425 0.024063284 0.019981917
0.54716933 0.024894908 0.019984268
0.54798102 0.025713645 0.020592002
0.5479961 0.026543677 0.020594349
0.54880768 0.027357636 0.021202069
0.5488227 0.028186075 0.021204412
0.54963422 0.028995255 0.021812119
0.54964924 0.0298221 0.021814456
0.5504607 0.030626498 0.022422185
0.55047572 0.031451751 0.022424519
0.551287 0.032251369 0.0230322
0.55209827 0.033047806 0.023639871
0.55211323 0.03386987 0.023642195
0.55292439 0.034661528 0.024249852
0.5529393 0.035482001 0.024252173
0.55375046 0.036268871 0.024859851
0.55376536 0.03708775 0.024862166
0.55457634 0.037869848 0.025469797
0.55459118 0.038687136 0.025472108
0.5554021 0.039464451 0.026079725
0.55541694 0.040280145 0.026082031
0.55543172 0.041095838 0.026084339
0.55624253 0.041866783 0.026691938
0.55625731 0.042680882 0.02669424
0.55706805 0.043447047 0.027301824
0.55708283 0.044259552 0.027304122
0.55709755 0.04507206 0.027306419
0.55790824 0.045831848 0.027914023
0.55792296 0.046642765 0.027916316
0.55793768 0.047453675 0.027918609
0.55874819 0.048207097 0.028526157
0.55876285 0.049016416 0.028528446
0.55957329 0.049765058 0.02913598
0.55958796 0.050572786 0.029138265
0.55960262 0.051380511 0.029140549
0.55961728 0.052188236 0.029142832
0.56042755 0.052928913 0.029750345
0.56044221 0.053735048 0.029752625
0.56045681 0.054541182 0.029754905
0.56126702 0.055275477 0.030362437
0.56128162 0.056080021 0.030364711
0.56129622 0.056884561 0.030366987
0.56210625 0.05761249 0.030974463
0.56212085 0.058415439 0.030976735
0.56213546 0.059218388 0.030979006
0.56215 0.060021333 0.030981276
0.56295991 0.060741298 0.031588729
0.56297445 0.061542653 0.031590994
0.562989 0.062344007 0.031593263
0.5630036 0.063145362 0.031595528
0.56381333 0.063857362 0.032202959
0.56382781 0.064657122 0.03220522
0.56384236 0.065456882 0.032207482
0.56465197 0.066162512 0.032814898
0.56466651 0.066960678 0.032817155
0.56468099 0.067758851 0.032819413
0.56469548 0.068557009 0.03282167
0.56470996 0.069355182 0.032823924
0.5647245 0.070153356 0.032826182
0.56553394 0.070847817 0.033433601
0.56475347 0.071749687 0.032830697
0.56476796 0.072547853 0.032832954
0.56478244 0.073346026 0.032835212
0.56479698 0.074144192 0.032837469
0.56481147 0.074942358 0.032839727
0.56482595 0.075740531 0.032841984
0.56484044 0.076538697 0.032844242
0.56406027 0.077453308 0.032241408
0.59107 0.24841641 0.050887659
0.59108365 0.24916838 0.050889786
0.5910973 0.24992034 0.05089191
0.59111094 0.25067231 0.050894037
0.5903368 0.25191671 0.050292138
0.59035045 0.25267026 0.050294269
0.59036416 0.25342381 0.0502964
0.59037781 0.25417739 0.050298531
0.59039152 0.25493094 0.050300661
0.59040523 0.25568449 0.050302792
0.59120661 0.25593609 0.050908923
0.59200794 0.25618446 0.051515061
0.59202152 0.25693482 0.051517185
0.59282279 0.25717846 0.05212329
0.593624 0.25741887 0.052729409
0.59442508 0.25765613 0.053335495
0.59522617 0.25789016 0.053941596
0.5952397 0.25863415 0.053943697
0.59604067 0.25886345 0.054549765
0.59605414 0.25960585 0.054551866
0.59685504 0.25983036 0.055157918
0.59686846 0.26057115 0.055160012
0.59688193 0.26131198 0.055162109
0.53935421 0.0038110628 0.013213583
0.53936958 0.0046586208 0.01321598
0.53938496 0.0055061746 0.013218377
0.5401966 0.0063775019 0.013827494
0.53941578 0.0072012884 0.01322317
0.54022735 0.0080694277 0.013832279
0.54024273 0.0089153908 0.013834672
0.54105419 0.0097787511 0.014443765
0.54106951 0.010623123 0.014446153
0.54108483 0.011467492 0.014448541
0.54189622 0.012324479 0.015057618
0.54191154 0.013167256 0.015060001
0.54192686 0.014010033 0.015062384
0.54273814 0.014860651 0.015671479
0.5427534 0.015701832 0.015673857
0.54356456 0.016547671 0.016282901
0.54357982 0.01738726 0.016285276
0.54439092 0.018228317 0.016894309
0.54440612 0.019066313 0.016896678
0.54442132 0.01990431 0.016899047
0.5452323 0.020738995 0.01750806
0.5452475 0.021575399 0.017510425
0.54605836 0.022405304 0.018119426
0.5460735 0.023240115 0.018121786
0.54688436 0.024065241 0.018730808
0.5476951 0.02488718 0.019339785
0.54771018 0.025718804 0.019342138
0.5485208 0.026535966 0.019951101
0.54853588 0.027365996 0.019953448
0.54934645 0.028178377 0.020562399
