# .PCD v0.7 - Point Cloud Data file format
VERSION 0.7
FIELDS x y z
SIZE 4 4 4
TYPE F F F
COUNT 1 1 1
WIDTH 1376
HEIGHT 1
VIEWPOINT 0 0 0 1 0 0 0
POINTS 1376
DATA ascii
0.57517344 0.0090903286 0.057786357
0.57516778 0.0098773688 0.05777454
0.57598972 0.010685331 0.058327977
0.57681173 0.011490108 0.058881477
0.57680607 0.012273961 0.058869712
0.57762808 0.013073958 0.059423264
0.57762241 0.013856218 0.059411522
0.57844448 0.014651434 0.059965163
0.57843888 0.015432103 0.059953444
0.57926095 0.016222538 0.060507141
0.57925534 0.017001614 0.060495447
0.57924974 0.017780688 0.06048375
0.57924408 0.018559761 0.060472056
0.57923847 0.019338837 0.060460359
0.57840514 0.020116106 0.059883129
0.57839954 0.020896774 0.059871409
0.57839394 0.02167744 0.059859689
0.57756054 0.022461085 0.059282344
0.57755488 0.023243343 0.059270602
0.57754928 0.024025606 0.05925886
0.57671583 0.024815621 0.058681432
0.57671016 0.025599474 0.058669668
0.57587671 0.02639427 0.058092151
0.5750432 0.027192252 0.057514608
0.57503754 0.027979292 0.057502795
0.57420403 0.028782055 0.056925163
0.57419831 0.029570688 0.056913324
0.57336479 0.030378228 0.056335635
0.57335907 0.031168455 0.056323774
0.5725255 0.031980775 0.055746015
0.57251978 0.032772597 0.055734128
0.57168615 0.033589695 0.055156279
0.57168043 0.034383107 0.055144366
0.5708468 0.035204988 0.054566465
0.57001311 0.036030054 0.053988513
0.57000738 0.036826652 0.053976554
0.56917357 0.037656501 0.053398501
0.56916785 0.038454693 0.053386517
0.56916213 0.039252888 0.053374533
0.56832832 0.040089104 0.052796416
0.5683226 0.040888887 0.052784409
0.56748879 0.041729886 0.052206222
0.56748301 0.042531267 0.052194189
0.56747723 0.043332644 0.05218216
0.56664342 0.044180013 0.051603876
0.57755119 0.25384015 0.056939997
0.57754558 0.25461924 0.056928299
0.57837117 0.25491896 0.057489365
0.57919681 0.2552155 0.058050495
0.58002245 0.25550887 0.058611657
0.58001691 0.25628316 0.058600035
0.58167386 0.25608602 0.059734136
0.58249956 0.25636983 0.060295459
0.58332527 0.25665045 0.060856812
0.58415103 0.25692788 0.061418209
0.5657714 0.0047643338 0.050431829
0.56907183 0.0056924648 0.052685186
0.57071918 0.0065500513 0.053805973
0.5723666 0.0074012633 0.054926828
0.57401407 0.0082461033 0.056047786
0.57483494 0.0090604499 0.056602377
0.57565588 0.0098716104 0.057157032
0.57565022 0.010658652 0.057145216
0.57647121 0.011465032 0.057699926
0.5772922 0.012268227 0.0582547
0.57728654 0.01305208 0.058242932
0.5781076 0.013850495 0.058797762
0.57810193 0.014632755 0.05878602
0.57892305 0.015426391 0.059340935
0.57891738 0.016207058 0.059329215
0.57891178 0.016987726 0.059317496
0.57890618 0.017768392 0.059305776
0.57890058 0.01854906 0.059294056
0.57889491 0.019329729 0.059282336
0.57888931 0.020110395 0.059270617
0.57888371 0.020891063 0.059258897
0.57805127 0.0216731 0.058680326
0.57804567 0.022455361 0.058668584
0.57804006 0.023237621 0.058656842
0.57720762 0.024026033 0.058078188
0.57720196 0.024809886 0.058066424
0.57636946 0.025603076 0.057487685
0.57553697 0.026399454 0.056908913
0.5755313 0.027186494 0.056897096
0.57469875 0.02798765 0.056318238
0.57469308 0.028776284 0.056306399
0.57386053 0.029582221 0.055727486
0.57385486 0.030372448 0.055715624
0.57302225 0.031183161 0.05513664
0.57301658 0.031974982 0.055124752
0.57218391 0.032790478 0.054545682
0.57217818 0.033583891 0.054533768
0.57134557 0.034404166 0.053954642
0.57051283 0.035227627 0.053375464
0.57050711 0.036024228 0.053363506
0.56967437 0.036852468 0.052784223
0.56966859 0.03765066 0.052772239
0.56883585 0.038483679 0.052192923
0.56883013 0.039283466 0.052180916
0.56882435 0.040083252 0.052168909
0.56799155 0.040922645 0.051589493
0.56798577 0.041724022 0.05157746
0.56798005 0.042525403 0.051565431
0.5671472 0.043371167 0.050985917
0.56631434 0.04422012 0.050406359
0.56464845 0.045927588 0.049247064
0.56464267 0.046735339 0.049234938
0.57969475 0.25288215 0.057476681
0.5796892 0.25365806 0.057465032
0.5796836 0.25443396 0.057453383
0.58050823 0.25472891 0.058015771
0.58050269 0.25550321 0.058004148
0.58132738 0.25579339 0.058566622
0.58215207 0.25608039 0.05912913
0.58297682 0.2563642 0.059691697
0.58380157 0.25664482 0.060254302
0.58462632 0.25692225 0.060816951
0.56874806 0.0048547303 0.051502101
0.57039338 0.0057171178 0.052625284
0.57121325 0.0065442235 0.053180967
0.57285863 0.0073954589 0.054304317
0.57367855 0.0082145976 0.0548601
0.57449847 0.0090305489 0.055415917
0.5753184 0.0098433141 0.055971779
0.57613838 0.010652893 0.056527708
0.57613271 0.011439933 0.056515895
0.5769527 0.012244732 0.057071876
0.57694703 0.013030179 0.057060085
0.57776707 0.013830199 0.057616156
0.57858711 0.014627032 0.058172259
0.57858145 0.015409293 0.058160517
0.57857585 0.016191553 0.058148772
0.57857019 0.016973814 0.058137029
0.57939035 0.017762681 0.058693267
0.57938468 0.018543348 0.058681551
0.57855332 0.019320596 0.058101799
0.57854772 0.020102857 0.058090057
0.57854205 0.020885117 0.058078311
0.57853645 0.021667378 0.058066569
0.57770503 0.022452589 0.057486717
0.57769936 0.023236444 0.057474948
0.57769376 0.024020297 0.05746318
0.57686228 0.024811884 0.056883216
0.57685661 0.02559733 0.056871425
0.57602507 0.026393695 0.056291405
0.57601941 0.027180737 0.056279592
0.57518786 0.027981881 0.055699483
0.57435632 0.028786212 0.055119339
0.57435066 0.029576439 0.055107478
0.57351905 0.03038555 0.054527268
0.57351333 0.031177368 0.05451538
0.57268167 0.031991258 0.053935081
0.572676 0.032784674 0.053923171
0.57184434 0.033603344 0.053342815
0.57101262 0.034425199 0.052762412
0.57100689 0.035221796 0.052750453
0.57017511 0.036048435 0.052169949
0.57016939 0.03684663 0.052157965
0.56933761 0.037678044 0.051577415
0.56933188 0.038477827 0.051565409
0.5685001 0.039314024 0.050984792
0.56849432 0.040115405 0.050972763
0.56848854 0.040916782 0.050960734
0.56765676 0.041759349 0.050380018
0.56765097 0.042562325 0.050367963
0.56681907 0.043409668 0.049787179
0.56598717 0.044260204 0.049206313
0.56515521 0.045113925 0.048625432
0.56514943 0.04592168 0.048613306
0.56431746 0.046780176 0.048032351
0.5634855 0.047641862 0.047451351
0.580176 0.25287649 0.05686792
0.58099961 0.25317466 0.057431508
0.58099401 0.25394896 0.057419885
0.58181769 0.25424233 0.057983562
0.58181214 0.25501502 0.057971962
0.58263582 0.25530365 0.058535695
0.58345956 0.25558907 0.059099492
0.58345407 0.25635856 0.059087943
0.58427781 0.25663921 0.059651792
0.5851016 0.25691664 0.060215689
0.56925082 0.0040474879 0.050885372
0.57089412 0.0049130861 0.052011006
0.57171303 0.005741796 0.052567914
0.57253188 0.006567318 0.053124838
0.57252616 0.0073623243 0.053112902
0.57334501 0.0081830667 0.053669896
0.57416391 0.0090006236 0.054226954
0.57498288 0.0098149935 0.054784045
0.57497716 0.010605221 0.05477218
0.57579613 0.011414811 0.055329345
0.57661515 0.012221215 0.055886567
0.57660949 0.013008256 0.055874754
0.57742852 0.013809879 0.056432035
0.57824755 0.014608318 0.056989379
0.57824188 0.015392172 0.056977611
0.57906097 0.016185829 0.057535011
0.57905537 0.01696809 0.057523269
0.57904971 0.017750351 0.057511527
0.5790441 0.018532611 0.057499781
0.5790385 0.019314872 0.057488039
0.57903284 0.020097133 0.057476297
0.57902724 0.020879393 0.057464551
0.57819676 0.021663001 0.056883473
0.57819116 0.022446856 0.056871705
0.5781855 0.023230709 0.05685994
0.57735503 0.02402069 0.056278747
0.57734936 0.024806138 0.056266956
0.57651889 0.025600897 0.05568571
0.57651323 0.026387937 0.055673894
0.57568264 0.027187478 0.055092562
0.57485211 0.027990203 0.054511193
0.57484639 0.028780431 0.054499332
0.57484072 0.02957066 0.054487471
0.57401013 0.030379757 0.053906009
0.57317948 0.031192042 0.05332448
0.57317376 0.031985454 0.05331257
0.57234311 0.032802522 0.052730989
0.57233739 0.033597525 0.052719057
0.57150668 0.034419369 0.052137405
0.57067591 0.035244402 0.051555671
0.57067019 0.036042597 0.051543687
0.56983942 0.036872409 0.050961915
0.56983364 0.037672192 0.050949909
0.56900287 0.038506784 0.050368063
0.56899709 0.039308161 0.05035603
0.56816626 0.040147532 0.049774118
0.56816047 0.040950503 0.049762063
0.56732965 0.04179465 0.049180076
0.56732386 0.042599216 0.049167998
0.56649292 0.043448146 0.048585907
0.56566197 0.044300266 0.0480038
0.56565619 0.045108013 0.047991674
0.56482524 0.045964912 0.04740949
0.56399429 0.046824992 0.046827264
0.56316322 0.047688261 0.046244957
0.58149093 0.25162041 0.056847248
0.58148539 0.25239468 0.056835622
0.58230805 0.25269127 0.057400502
0.58230251 0.25346398 0.057388902
0.58312517 0.25375578 0.057953838
0.58311963 0.25452688 0.05794226
0.58394235 0.25481391 0.058507286
0.58393681 0.25558344 0.058495734
0.58475959 0.25586566 0.059060812
0.58558238 0.25614473 0.059625939
0.58640516 0.25642058 0.060191128
0.57140064 0.0033108613 0.051408708
0.57221854 0.0041427691 0.05196682
0.57221282 0.0049393689 0.051954862
0.57303065 0.0057664956 0.052513011
0.57302493 0.0065615019 0.052501075
0.57301921 0.0073565077 0.052489139
0.5738371 0.0081772618 0.053047385
0.57383138 0.0089706751 0.053035472
0.57464933 0.0097866505 0.053593803
0.57546729 0.010599439 0.054152168
0.57546157 0.011389665 0.054140307
0.57627958 0.012197674 0.054698739
0.57709759 0.013002497 0.055257242
0.57709193 0.013789537 0.055245426
0.57790995 0.01458958 0.055803981
0.57872808 0.015386437 0.056362599
0.57872242 0.016170291 0.056350835
0.57871675 0.016954144 0.056339066
0.57953489 0.017744629 0.056897763
0.57952923 0.018526889 0.056886021
0.57869983 0.019305706 0.056303766
0.57869422 0.020089559 0.056291997
0.57868856 0.020873412 0.056280229
0.57868296 0.021657268 0.056268461
0.5786773 0.022441121 0.056256697
0.57784778 0.023229497 0.055674277
0.57784218 0.024014944 0.055662487
0.57701266 0.024808099 0.055080015
0.577007 0.02559514 0.055068199
0.57617742 0.026393075 0.054485638
0.57617176 0.027181709 0.054473799
0.57534218 0.027984422 0.053891182
0.57533652 0.028774651 0.053879321
0.57450688 0.029582145 0.053296633
0.57367724 0.030392826 0.052713882
0.57367152 0.031186238 0.052701969
0.57284188 0.032001697 0.052119162
0.57283616 0.032796707 0.05210723
0.57200646 0.033616945 0.051524349
0.57117665 0.034440368 0.050941389
0.57117093 0.035238564 0.050929405
0.57034117 0.036066771 0.050346408
0.56951141 0.036898162 0.049763363
0.56950563 0.037699539 0.04975133
0.56949985 0.03850092 0.049739301
0.56867003 0.039338686 0.049156159
0.56866425 0.040141657 0.049144104
0.56783444 0.040984202 0.048560891
0.5678286 0.041788764 0.048548814
0.56699866 0.042636093 0.047965493
0.56616879 0.043486603 0.047382161
0.56616294 0.044294354 0.047370035
0.56533301 0.045149647 0.046786632
0.56450301 0.046008121 0.046203177
0.56449717 0.046819061 0.046191003
0.56366712 0.047682315 0.045607448
0.56283712 0.048548758 0.045023873
0.58197117 0.25161475 0.056239735
0.58279282 0.25191292 0.056805842
0.58361453 0.25220793 0.057371978
0.58360893 0.25297904 0.057360403
0.58360338 0.25375015 0.057348825
0.58359784 0.25452125 0.057337251
0.58441961 0.25480828 0.057903524
0.58524138 0.25509211 0.058469828
0.58523583 0.25586006 0.058458298
0.5860576 0.25613913 0.059024673
0.58687943 0.25641498 0.059591115
0.57189566 0.0033050217 0.050782453
0.57271254 0.0041369414 0.051341813
0.57270682 0.0049335412 0.051329855
0.5727011 0.00573014 0.051317893
0.57351798 0.0065556853 0.051877316
0.57351226 0.0073506911 0.05186538
0.57432914 0.0081714578 0.052424878
0.57432342 0.0089648701 0.052412964
0.57514042 0.0097808577 0.052972548
0.57595736 0.010593657 0.053532161
0.57595164 0.011383885 0.053520299
0.57676864 0.012191905 0.054079983
0.57676297 0.012980538 0.054068144
0.57758003 0.013783779 0.054627918
0.5783971 0.014583834 0.055187725
0.57839143 0.015369281 0.05517593
0.57920855 0.016164556 0.055735826
0.57920289 0.016948409 0.055724058
0.57919729 0.017732263 0.05571229
0.57919163 0.018516118 0.055700526
0.57918596 0.019299971 0.055688757
0.57918036 0.020083824 0.055676989
0.5791747 0.020867679 0.055665221
0.57834625 0.021652857 0.055081602
0.57834059 0.022438304 0.055069812
0.57833493 0.02322375 0.055058021
0.57750642 0.024015302 0.05447432
0.57750076 0.02480234 0.054462507
0.5766722 0.025598671 0.053878721
0.57666653 0.026387304 0.053866882
0.57583797 0.027188415 0.053283039
0.57583225 0.02797864 0.053271174
0.57500368 0.028784532 0.052687261
0.57499796 0.029576352 0.052675374
0.57416928 0.03038702 0.052091375
0.57416356 0.031180432 0.052079462
0.57333493 0.031995881 0.051495403
0.57250619 0.032814518 0.0509113
0.57167745 0.033636339 0.050327115
0.57167172 0.034434531 0.050315131
0.57084292 0.035261132 0.049730908
0.57001418 0.036090922 0.049146634
0.5700084 0.036892299 0.049134605
0.57000262 0.037693676 0.049122576
0.56917381 0.038529836 0.048538208
0.56834495 0.039369185 0.047953788
0.56833917 0.04017375 0.047941711
0.56751025 0.041017875 0.04735719
0.56750447 0.041824035 0.047345087
0.56667554 0.04267294 0.046760529
0.5666697 0.043480694 0.046748403
0.56584078 0.044334378 0.046163771
0.5650118 0.045191247 0.045579094
0.56500596 0.046002187 0.04556692
0.56417692 0.046863843 0.044982135
0.56417108 0.047676373 0.044969939
0.56334203 0.048542801 0.044385113
0.58327758 0.25113457 0.056211185
0.58327204 0.25190726 0.056199584
0.58409274 0.25220227 0.056766968
0.58408719 0.25297338 0.056755394
0.58490795 0.25326362 0.057322867
0.58490241 0.25403312 0.057311319
0.58489686 0.25480264 0.057299767
0.58571762 0.25508651 0.057867318
0.58653837 0.25536719 0.058434922
0.58653289 0.2561335 0.058423419
0.58735371 0.25640938 0.058991108
0.57239074 0.003299182 0.050156191
0.5732066 0.0041311132 0.050716802
0.57320088 0.004927713 0.050704844
0.57401675 0.0057548629 0.051265489
0.57401103 0.0065498692 0.051253557
0.57400531 0.007344875 0.051241621
0.57482123 0.0081656529 0.051802367
0.57481551 0.0089590661 0.051790453
0.57563144 0.0097750649 0.052351285
0.57562578 0.010566885 0.052339401
0.57644176 0.011378103 0.052900288
0.57643604 0.012168329 0.052888423
0.57725209 0.012974768 0.053449385
0.57806814 0.013778022 0.05401041
0.57806247 0.014565062 0.053998593
0.57887858 0.015363534 0.05455967
0.57969469 0.016158821 0.055120815
0.57968903 0.016942674 0.055109046
0.57968342 0.017726529 0.055097278
0.57967776 0.018510383 0.055085514
0.5796721 0.019294236 0.055073746
0.5796665 0.020078091 0.055061977
0.578839 0.020861663 0.054477133
0.57883334 0.021647109 0.054465342
0.57800585 0.022435464 0.053880442
0.57800019 0.023222502 0.053868625
0.57799453 0.024009544 0.053856812
0.57716697 0.024804268 0.053271797
0.57716131 0.025592903 0.053259958
0.5763337 0.026392408 0.05267489
0.57632804 0.027182633 0.052663028
0.57550043 0.027986918 0.052077889
0.57549471 0.028778737 0.052066002
0.5746671 0.029587803 0.051480774
0.57466137 0.030381216 0.051468864
0.5738337 0.031195059 0.05088358
0.57300597 0.03201209 0.050298247
0.57217824 0.032832306 0.049712837
0.57217246 0.033630501 0.049700852
0.57134473 0.034455497 0.049115401
0.57133895 0.035255279 0.049103394
0.57051116 0.036085058 0.048517875
0.56968337 0.036918018 0.047932304
0.56967759 0.037720989 0.047920249
0.56884974 0.038558733 0.047334608
0.56884396 0.039363299 0.04732253
0.56801599 0.040205821 0.046736781
0.56801021 0.041011978 0.046724681
0.5671823 0.04185928 0.046138894
0.56717652 0.042667031 0.046126768
0.56634855 0.043519113 0.04554091
0.56552058 0.044374377 0.044955008
0.56551474 0.045185316 0.044942833
0.56468666 0.046045363 0.044356823
0.56468081 0.046857897 0.044344623
0.56385279 0.047722723 0.043758575
0.5630247 0.048590735 0.043172479
0.56301886 0.04940645 0.043160234
0.58457094 0.25219664 0.056161959
0.5845654 0.25296775 0.056150384
0.58538514 0.25325799 0.056719109
0.5853796 0.25402749 0.056707557
0.58537412 0.25479701 0.056696005
0.58619386 0.25508088 0.057264809
0.58701366 0.25536156 0.05783366
0.58700818 0.25612789 0.057822157
0.58782804 0.2564038 0.058391098
0.57290298 0.00089876412 0.049565878
0.57289726 0.0016969572 0.049553897
0.57371211 0.0025320868 0.050115708
0.57370639 0.0033286866 0.05010375
0.57370061 0.0041252854 0.050091792
0.57369488 0.0049218852 0.050079834
0.57368916 0.0057184841 0.050067876
0.57450408 0.0065440526 0.050629795
0.57449836 0.0073390584 0.050617862
0.57531327 0.0081598479 0.051179856
0.57530755 0.0089532612 0.051167943
0.57530183 0.0097466735 0.051156033
0.57611686 0.010561091 0.051718142
0.57693183 0.011372321 0.052280277
0.57692617 0.012162548 0.052268416
0.57774121 0.012968998 0.052830625
0.57855624 0.013772263 0.053392898
0.57855058 0.014559303 0.053381082
0.57936567 0.015357788 0.053943414
0.57936001 0.016143234 0.05393162
0.57935441 0.016928682 0.053919829
0.57934874 0.017714128 0.053908039
0.57934308 0.018499576 0.053896248
0.57933742 0.019285023 0.053884458
0.57933176 0.020070471 0.053872664
0.57932609 0.020855917 0.053860873
0.57849962 0.021642664 0.053274747
0.57849395 0.022429705 0.05326293
0.57848829 0.023216745 0.053251117
0.57766175 0.024009867 0.052664876
0.57765609 0.024798498 0.052653037
0.57682949 0.025596399 0.052066743
0.57682383 0.026386626 0.052054882
0.57599717 0.027189305 0.051468518
0.57599151 0.027981125 0.05145663
0.57516485 0.028788585 0.050870173
0.57515913 0.029581998 0.050858263
0.57433248 0.030394237 0.050271753
0.57350576 0.031209661 0.049685199
0.57350004 0.03200626 0.049673241
0.57267326 0.032826468 0.049086578
0.57184649 0.033649858 0.048499897
0.57184076 0.034449644 0.048487891
0.57101393 0.035277814 0.047901146
0.57100821 0.036079194 0.047889113
0.57018137 0.036912143 0.047302295
0.56935453 0.037748281 0.046715427
0.56934869 0.038552847 0.04670335
0.5685218 0.039393764 0.046116374
0.56851602 0.040199924 0.046104271
0.56768906 0.041045617 0.045517262
0.56686211 0.041894499 0.044930201
0.56685632 0.042703845 0.044918053
0.56602931 0.043557506 0.044330921
0.5652023 0.044414356 0.043743707
0.56519645 0.045226891 0.043731511
0.56436944 0.04608852 0.04314426
0.56436354 0.046902642 0.043132037
0.56353647 0.047769047 0.042544715
0.56353062 0.048584767 0.04253247
0.56270355 0.049455952 0.041945077
0.58504921 0.25219101 0.055556949
0.58504367 0.25296211 0.055545375
0.5858624 0.25325236 0.056115352
0.58585685 0.25402185 0.056103799
0.58585131 0.25479138 0.056092247
0.5866701 0.25507528 0.056662299
0.58666462 0.25584319 0.056650773
0.58748341 0.25612229 0.057220899
0.58747792 0.25688863 0.057209395
0.57339799 0.00089292444 0.048939619
0.5742119 0.00172966 0.04950266
0.57420611 0.0025262588 0.049490701
0.57420039 0.0033228586 0.04947874
0.57419467 0.0041194572 0.049466781
0.57500857 0.0049482249 0.050029907
0.57500285 0.0057432302 0.050017972
0.57499713 0.0065382365 0.050006039
0.57499141 0.0073332423 0.049994104
0.57580531 0.008154043 0.050557345
0.57579964 0.0089474563 0.050545435
0.57661361 0.0097634783 0.05110877
0.57660794 0.010555298 0.051096883
0.5774219 0.01136654 0.051660269
0.57741624 0.012156767 0.051648404
0.57823026 0.012963229 0.052211866
0.57904434 0.013766505 0.05277539
0.57903868 0.014553545 0.052763574
0.57985282 0.015352041 0.053327154
0.57984716 0.016137488 0.05331536
0.57984149 0.016922936 0.05330357
0.57983583 0.017708382 0.053291779
0.57983017 0.018493829 0.053279988
0.57982457 0.019279277 0.053268198
0.57899904 0.020062827 0.052680869
0.57899338 0.020849867 0.052669052
0.57898772 0.021636907 0.052657239
0.57898206 0.022423947 0.052645423
0.57815653 0.023215463 0.052057955
0.57815087 0.024004096 0.052046116
0.57732528 0.024800392 0.051458597
0.57731956 0.025590617 0.051446736
0.57649398 0.026391692 0.050859142
0.57648826 0.027183512 0.050847255
0.57566261 0.027989367 0.050259575
0.57565689 0.028782781 0.050247665
0.57483125 0.029593416 0.04965993
0.57400554 0.030407235 0.049072146
0.57399982 0.031203834 0.049060188
0.573174 0.032022435 0.0484723
0.57316828 0.032820627 0.048460316
0.57234251 0.033644009 0.047872391
0.57151669 0.034470573 0.047284417
0.57151097 0.03527195 0.047272384
0.57068515 0.036103297 0.04668434
0.56985927 0.036937829 0.046096243
0.56985348 0.037742395 0.046084166
0.56902754 0.038581707 0.045495968
0.56820166 0.039424207 0.044907752
0.56819582 0.040231958 0.044895627
0.56736988 0.041079234 0.04430734
0.5673641 0.04188858 0.044295192
0.5665381 0.042740636 0.043706834
0.56571203 0.043595884 0.043118395
0.56570619 0.044408411 0.043106198
0.56488019 0.045268435 0.042517722
0.56487435 0.046082564 0.042505499
0.56404823 0.046947364 0.041916952
0.56404239 0.047763079 0.041904707
0.56321627 0.048632663 0.041316085
0.56239015 0.049505427 0.040727418
0.56238425 0.050324336 0.040715124
0.56237841 0.05114324 0.040702831
0.58470416 0.25266302 0.054369207
0.58552188 0.25295645 0.054940365
0.58551633 0.25372756 0.054928791
0.58551079 0.25449869 0.054917213
0.58632857 0.25478575 0.055488486
0.58632302 0.25555527 0.055476934
0.58714086 0.25583759 0.056048263
0.58713531 0.25660551 0.056036737
0.58795315 0.25688303 0.056608133
0.5747174 0.00013063334 0.048901565
0.57471162 0.00092723221 0.048889607
0.5747059 0.001723832 0.048877649
0.57470018 0.0025204308 0.048865691
0.57469445 0.0033170306 0.048853733
0.57550734 0.004147402 0.049418081
0.57550162 0.0049424083 0.049406148
0.5754959 0.0057374141 0.049394213
0.57549018 0.0065324199 0.049382277
0.57630312 0.0073548257 0.049946748
0.5762974 0.008148239 0.049934838
0.57629168 0.0089416523 0.049922924
0.57710469 0.0097576855 0.050487507
0.5779177 0.010570533 0.051052123
0.57791203 0.011360759 0.051040262
0.57872504 0.012168826 0.051604945
0.57871938 0.012957459 0.051593106
0.5795325 0.013760747 0.052157879
0.57952684 0.014547787 0.052146066
0.57952118 0.015334827 0.052134249
0.58033425 0.016131742 0.052699104
0.58032864 0.01691719 0.05268731
0.58032298 0.017702635 0.052675519
0.58031732 0.018488083 0.052663729
0.57949287 0.019270029 0.052075174
0.5794872 0.020057069 0.052063357
0.57948154 0.020844107 0.052051544
0.57947588 0.021631148 0.052039728
0.57865131 0.02242106 0.051451039
0.57864559 0.023209693 0.0514392
0.57782102 0.024004383 0.050850451
0.57781535 0.02479461 0.05083859
0.57699072 0.02559408 0.05024977
0.57698506 0.0263859 0.050237883
0.57616037 0.027190149 0.049648978
0.57615465 0.027983563 0.049637068
0.57533002 0.028792592 0.049048103
0.57450533 0.029604807 0.048459098
0.57449955 0.030401407 0.048447136
0.5736748 0.031218402 0.047858022
0.57366902 0.032016594 0.047846042
0.57284427 0.032838371 0.047256887
0.57201946 0.033663329 0.046667688
0.57201374 0.034464709 0.046655655
0.57118887 0.035294451 0.046066385
0.57036406 0.036127377 0.045477062
0.57035828 0.036931943 0.045464985
0.56953335 0.037769653 0.044875558
0.56870842 0.038610544 0.044286121
0.56870258 0.039418295 0.044273995
0.56787765 0.040263969 0.043684483
0.56787187 0.041073315 0.043672334
0.56704688 0.041923765 0.043082751
0.56622183 0.042777408 0.042493083
0.56621599 0.043589938 0.042480886
0.56539094 0.044448353 0.041891184
0.5653851 0.045262478 0.041878961
0.56456 0.04612568 0.041289188
0.56455415 0.046941396 0.041276943
0.56372905 0.04780937 0.040687095
0.56372315 0.048626684 0.040674824
0.56289804 0.049499437 0.04008491
0.56289214 0.050318345 0.040072616
0.56206691 0.051195882 0.03948259
0.56206101 0.052016381 0.039470274
0.56123585 0.052898694 0.03888021
0.58436102 0.253135 0.053178944
0.58517778 0.25343007 0.053751346
0.58517224 0.25420275 0.053739745
0.58516669 0.25497547 0.053728145
0.58598346 0.25526416 0.054300629
0.58597791 0.25603527 0.054289054
0.58679473 0.25631917 0.054861624
0.58678919 0.25708866 0.054850072
0.58760607 0.25736779 0.055422697
0.57521141 0.00012480533 0.048276555
0.57520568 0.00092140416 0.048264597
0.57519996 0.0017180039 0.048252638
0.57601184 0.0025515736 0.04881819
0.57600611 0.0033465798 0.048806258
0.57600039 0.0041415854 0.048794322
0.57681227 0.0049687829 0.04935997
0.57598895 0.0057315975 0.048770454
0.57680088 0.006555608 0.049336147
0.57679516 0.0073490213 0.049324237
0.57678944 0.0081424341 0.049312327
0.57760149 0.0089600729 0.049878135
0.57759577 0.0097518926 0.049866248
0.57840776 0.010564751 0.050432112
0.5784021 0.011354977 0.050420247
0.57921416 0.012163056 0.050986186
0.57920849 0.01295169 0.050974347
0.58002061 0.013754989 0.051540371
0.58001494 0.014542029 0.051528554
0.58000928 0.015329069 0.051516738
0.58082139 0.016125996 0.05208284
0.57999796 0.016903149 0.051493108
0.57999229 0.017690189 0.051481295
0.57998663 0.018477229 0.051469479
0.57998097 0.01926427 0.051457662
0.57997531 0.02005131 0.051445849
0.57915175 0.020838022 0.050855953
0.57914609 0.021626657 0.050844114
0.57832253 0.022418149 0.050254166
0.57831681 0.023208374 0.050242305
0.57831115 0.023998603 0.05023044
0.57748753 0.024796467 0.049640398
0.57748181 0.025588287 0.049628511
0.57665813 0.026390931 0.049038377
0.57665247 0.027184345 0.049026467
0.57582879 0.02799177 0.04843628
0.57500505 0.02880238 0.047846045
0.57499933 0.029598979 0.047834087
0.57417554 0.030414371 0.047243744
0.57416981 0.031212563 0.04723176
0.57334602 0.032032732 0.046641383
0.57252228 0.032856088 0.046050955
0.5725165 0.033657469 0.046038926
0.57169265 0.034485605 0.045448426
0.57086879 0.035316925 0.044857882
0.57086301 0.036121491 0.044845805
0.57003909 0.036957595 0.044255152
0.56921518 0.037796881 0.043664485
0.5692094 0.038604632 0.043652359
0.56838542 0.039448701 0.043061621
0.56837964 0.040258046 0.043049473
0.56755567 0.041106895 0.042458661
0.56673157 0.041958932 0.04186777
0.56672573 0.042771462 0.041855574
0.5659017 0.043628275 0.041264646
0.56589586 0.0444424 0.041252423
0.56507176 0.045303993 0.040661421
0.56506592 0.046119712 0.040649176
0.56424183 0.046986084 0.040058102
0.56341767 0.047855642 0.039466985
0.56341183 0.048674542 0.039454691
0.56258762 0.049548883 0.038863461
0.56258172 0.050369382 0.038851146
0.5617575 0.051248502 0.038259882
0.5617516 0.052070595 0.038247541
0.56092733 0.052954488 0.037656207
0.5840255 0.25283107 0.051997844
0.58401996 0.25360698 0.051986195
0.58483565 0.25390363 0.052559808
0.58483011 0.25467792 0.052548185
0.58482456 0.25545222 0.052536562
0.58564031 0.25574252 0.053110287
0.58645612 0.25602961 0.053684041
0.58645058 0.25680071 0.053672466
0.58726645 0.25708303 0.05424631
0.5872609 0.25785255 0.054234762
0.57570547 0.00011897733 0.047651548
0.57569975 0.00091557618 0.047639586
0.57651061 0.0017507515 0.048206367
0.57650489 0.002545757 0.048194431
0.57649916 0.0033407635 0.048182495
0.57649344 0.0041357693 0.048170563
0.57730436 0.004962978 0.048737459
0.57729864 0.0057563903 0.048725549
0.57729292 0.0065498031 0.048713639
0.57728726 0.0073432163 0.048701726
0.57809824 0.0081624603 0.049268764
0.57809252 0.0089542791 0.049256876
0.57890356 0.0097687431 0.049823966
0.57889789 0.010558969 0.049812101
0.57970893 0.011368653 0.050379265
0.57970327 0.012157287 0.050367426
0.58051437 0.01296219 0.050934676
0.58050871 0.013749231 0.050922859
0.58050305 0.014536271 0.050911043
0.58049738 0.015323311 0.05089923
0.58049172 0.016110351 0.050887413
0.58048606 0.016897392 0.0508756
0.5804804 0.017684432 0.050863784
0.58047473 0.018471472 0.050851967
0.58046907 0.019258512 0.050840154
0.57964653 0.020043621 0.050249033
0.57964087 0.020832254 0.050237194
0.57881826 0.021622142 0.04964602
0.5788126 0.022412367 0.049634159
0.57880688 0.023202594 0.049622294
0.57798427 0.023998855 0.049031023
0.57716161 0.024798302 0.048439689
0.57715595 0.025591714 0.048427779
0.57633328 0.026395941 0.047836389
0.57632756 0.027190948 0.047824454
0.57550484 0.027999952 0.047232993
0.57468206 0.028812146 0.04664145
0.57467633 0.029610338 0.046629466
0.57385355 0.030427311 0.046037886
0.57384783 0.031227095 0.04602588
0.57302505 0.032048848 0.045434229
0.57301927 0.032850228 0.045422196
0.57219642 0.033676758 0.044830471
0.57137358 0.034506474 0.044238701
0.5713678 0.03531104 0.044226624
0.57054484 0.036145538 0.043634742
0.56972194 0.036983222 0.04304285
0.56971616 0.037790973 0.043030724
0.56889319 0.038633436 0.04243876
0.56888735 0.039442781 0.042426612
0.56806439 0.040290024 0.041834578
0.56724137 0.041140456 0.041242458
0.56723553 0.041952986 0.041230261
0.56641245 0.042808194 0.040638108
0.56640661 0.043622319 0.040625885
0.56558353 0.044482306 0.040033657
0.56557769 0.045298025 0.040021412
0.56475461 0.046162792 0.039429113
0.56393147 0.047030747 0.038836766
0.56392556 0.047849651 0.038824473
0.56310236 0.048722383 0.038232021
0.56309646 0.049542882 0.038219705
0.56227326 0.050420396 0.037627213
0.56226736 0.051242489 0.037614871
0.5614441 0.05212478 0.037022311
0.5614382 0.05294846 0.037009947
0.58450115 0.25360131 0.051377434
0.58449554 0.25437719 0.051365789
0.58449 0.25515306 0.05135414
0.5844844 0.25592896 0.051342491
0.58529919 0.25622085 0.051917426
0.58529359 0.25699514 0.051905803
0.58610845 0.25728226 0.052480828
0.5869233 0.25756618 0.053055882
0.5869177 0.25833729 0.053044304
0.57620525 -0.00068345043 0.047038496
0.5770151 0.00015492221 0.047606476
0.57700938 0.00094992778 0.04759454
0.57700366 0.0017449352 0.047582608
0.57699794 0.0025399406 0.047570672
0.57699221 0.0033349472 0.047558736
0.57780212 0.0041637602 0.048126861
0.5777964 0.0049571735 0.048114952
0.57779074 0.0057505858 0.048103038
0.5786007 0.0065730275 0.048671279
0.57859498 0.0073648472 0.048659392
0.57858932 0.0081566665 0.048647504
0.57939935 0.0089727351 0.04921582
0.57939363 0.0097629614 0.049203955
0.57938796 0.010553188 0.049192093
0.58019805 0.011362883 0.049760506
0.58019233 0.012151516 0.049748667
0.58100247 0.012956433 0.050317165
0.58099681 0.013743473 0.050305352
0.58099115 0.014530513 0.050293535
0.58098549 0.015317553 0.050281718
0.58097982 0.016104594 0.050269905
0.58097416 0.016891634 0.050258089
0.5809685 0.017678674 0.050246276
0.58014697 0.018460583 0.049653955
0.58014131 0.019249218 0.049642116
0.58013558 0.02003785 0.049630277
0.57931405 0.020826133 0.049037874
0.57930833 0.02161636 0.049026012
0.57930267 0.022406586 0.049014147
0.57848108 0.023201242 0.048421651
0.57765943 0.023999084 0.047829092
0.57765371 0.024792496 0.047817182
0.57683206 0.025595119 0.047224563
0.57682633 0.026390124 0.047212631
0.57600462 0.027197525 0.046619944
0.57518286 0.028008113 0.046027172
0.57517707 0.028806306 0.046015192
0.57435536 0.029621674 0.045422383
0.57434958 0.03042146 0.045410376
0.57352781 0.031241605 0.044817496
0.57352203 0.032042984 0.044805467
0.5727002 0.032867912 0.044212516
0.57187837 0.033696022 0.043619517
0.57187259 0.034500588 0.04360744
0.57105064 0.035333481 0.043014336
0.5710448 0.036139641 0.043002233
0.57022291 0.036977313 0.042409092
0.56940097 0.037818171 0.041815903
0.56939512 0.038627516 0.041803755
0.56857318 0.039473154 0.041210491
0.56775111 0.04032198 0.040617146
0.56774527 0.04113451 0.040604949
0.56692326 0.041988112 0.04001157
0.56691736 0.042802237 0.039999347
0.56609529 0.043660622 0.039405894
0.56608945 0.044476338 0.039393649
0.56526732 0.045339499 0.038800124
0.56526148 0.046156812 0.038787853
0.56443936 0.047024757 0.038194258
0.56361711 0.047895886 0.037600581
0.56361121 0.048716381 0.037588261
0.56360531 0.049536876 0.037575945
0.56278312 0.050414383 0.036982205
0.56196088 0.051295072 0.036388416
0.56113863 0.052178942 0.035794582
0.56113267 0.05300422 0.035782192
0.56031036 0.053892877 0.03518825
0.58334929 0.25377175 0.049604882
0.58416301 0.25407323 0.050180923
0.58415741 0.25485072 0.050169252
0.5841518 0.2556282 0.050157581
0.58496559 0.25592327 0.050733734
0.58495998 0.25669917 0.050722085
0.58495444 0.25747505 0.05071044
0.58576822 0.25776377 0.051286671
0.58658212 0.25804931 0.051862966
0.58657652 0.25882199 0.051851369
0.58739042 0.25910279 0.05242772
0.57670498 -0.0014858773 0.046425443
0.57669926 -0.00068927841 0.046413485
0.57750815 0.00014910586 0.046982717
0.57750243 0.00094411144 0.046970781
0.57831132 0.0017777168 0.047540084
0.5783056 0.0025711292 0.047528174
0.57829988 0.0033645423 0.047516264
0.57829422 0.0041579558 0.047504354
0.57910317 0.0049835951 0.048073791
0.57909751 0.0057754149 0.048061904
0.57909179 0.0065672346 0.048050016
0.57908607 0.0073590539 0.048038132
0.57989508 0.0081767263 0.048607673
0.57988942 0.0089669535 0.048595808
0.57988375 0.0097571798 0.048583947
0.58069283 0.01056848 0.049153585
0.58068711 0.011357114 0.049141746
0.58068144 0.012145746 0.049129907
0.58149058 0.012950675 0.049699657
0.58148491 0.013737715 0.04968784
0.58147925 0.014524755 0.049676027
0.58147359 0.015311795 0.049664211
0.58146793 0.016098835 0.049652398
0.58146226 0.016885875 0.049640581
0.58064175 0.01766618 0.049047034
0.58063608 0.018454814 0.049035195
0.57981551 0.019239899 0.048441593
0.57980984 0.020030126 0.048429728
0.57980412 0.020820351 0.048417866
0.57898355 0.02161181 0.047824167
0.57897782 0.022403629 0.047812279
0.57815719 0.023199866 0.047218494
0.57815146 0.02399328 0.047206581
0.57733083 0.024794295 0.04661274
0.57651013 0.025598498 0.04601885
0.57650441 0.026395097 0.046006892
0.57568359 0.027204081 0.045412898
0.57567787 0.028002273 0.045400914
0.57485712 0.028816037 0.044806879
0.57485133 0.029615823 0.044794872
0.57403058 0.030434364 0.044200771
0.5740248 0.031235741 0.044188738
0.57320398 0.032059062 0.043594562
0.57238311 0.032885574 0.043000337
0.57237732 0.033690136 0.042988259
0.57155639 0.034521427 0.04239393
0.57155061 0.035327584 0.042381827
0.57072967 0.03616365 0.04178746
0.57072389 0.036971401 0.041775335
0.5699029 0.037812248 0.041180894
0.56908196 0.038656279 0.040586405
0.56907612 0.039467219 0.04057423
0.56825507 0.040316034 0.039979637
0.56824923 0.041128565 0.03996744
0.56742817 0.041982155 0.039372809
0.56660706 0.042838935 0.03877813
0.56660122 0.043654654 0.038765885
0.5657801 0.04451621 0.038171135
0.56577426 0.04533352 0.038158864
0.56495309 0.046199858 0.037564043
0.56413192 0.047069386 0.036969136
0.56412596 0.047889885 0.036956821
0.56330478 0.048764184 0.036361877
0.56329888 0.049586277 0.036349535
0.56247765 0.05046536 0.035754524
0.56247175 0.051289044 0.035742156
0.56165045 0.052172907 0.035147071
0.5608291 0.053059958 0.034551904
0.5608232 0.053886831 0.034539491
0.56000185 0.054778654 0.033944286
0.58383244 0.25376606 0.048993625
0.58382684 0.25454515 0.048981927
0.58382124 0.25532421 0.048970234
0.58381563 0.25610328 0.048958536
0.5846284 0.25639999 0.0495359
0.5846228 0.25717747 0.049524229
0.58543563 0.25746939 0.050101679
0.58543003 0.25824526 0.05009003
0.58624285 0.2585324 0.050667539
0.58623731 0.2593067 0.050655913
0.5870502 0.25958908 0.051233508
0.57720476 -0.002288304 0.045812391
0.57719904 -0.0014917053 0.045800433
0.57800692 -0.00065171701 0.04637089
0.5780012 0.00014328951 0.046358954
0.57799548 0.00093829504 0.046347022
0.57880336 0.0017719121 0.046917573
0.5787977 0.0025653245 0.046905663
0.57879198 0.0033587376 0.046893753
0.57959998 0.004185982 0.047464419
0.57959425 0.0049778018 0.047452532
0.57958853 0.005769622 0.047440644
0.58039659 0.0065904926 0.048011389
0.58039087 0.0073807193 0.047999524
0.58038521 0.0081709456 0.047987662
0.58037949 0.0089611718 0.047975801
0.58118755 0.0097740768 0.048546661
0.58118188 0.01056271 0.048534822
0.58117622 0.011351344 0.048522983
0.58117056 0.012139977 0.048511144
0.58197868 0.012944916 0.049082145
0.58197302 0.013731956 0.049070332
0.58196735 0.014518997 0.049058516
0.58196169 0.015306037 0.049046699
0.58114219 0.016083144 0.048451949
0.58113652 0.016871776 0.04844011
0.5811308 0.017660411 0.048428271
0.5803113 0.01844389 0.047833443
0.58030558 0.019234117 0.047821581
0.58029991 0.020024344 0.047809716
0.57948029 0.020814197 0.047214791
0.57947463 0.021606017 0.047202904
0.57865494 0.022400649 0.046607893
0.57864922 0.023194062 0.046595983
0.5778296 0.023993474 0.046000913
0.57700992 0.024796071 0.045405798
0.57700413 0.025592672 0.045393839
0.57618439 0.026400048 0.044798616
0.57617867 0.027198242 0.044786636
0.57535887 0.028010398 0.044191375
0.57453912 0.028825743 0.043596067
0.57453334 0.029627122 0.043584038
0.57371354 0.030447245 0.042988658
0.57370776 0.031250216 0.042976607
0.5728879 0.032075118 0.042381156
0.57288212 0.032879688 0.042369079
0.57206219 0.03370937 0.04177352
0.57124227 0.034542236 0.041177951
0.57123643 0.035349987 0.041165821
0.57123065 0.036157742 0.041153695
0.57041067 0.036996983 0.040558033
0.56959069 0.037839409 0.039962318
0.56958485 0.038650349 0.039950144
0.56876481 0.039497558 0.039354324
0.56875896 0.040310089 0.039342128
0.56793892 0.041162077 0.038746271
0.56711882 0.042017248 0.038150363
0.56711298 0.042832967 0.038138118
0.56629288 0.04369292 0.037542142
0.56628698 0.04451023 0.037529875
0.56546688 0.045374963 0.036933824
0.56464666 0.046242889 0.036337692
0.56464076 0.047063384 0.036325376
0.56382054 0.047936078 0.035729207
0.56381464 0.048758171 0.035716865
0.56299442 0.049635649 0.035120625
0.56298846 0.050459333 0.035108261
0.56135386 0.05140017 0.03392797
0.5613479 0.052227039 0.033915557
0.56052756 0.05311567 0.033319149
0.5605216 0.053944129 0.03330671
0.55970126 0.05483754 0.032710232
0.55888093 0.055734135 0.032113705
0.58349824 0.25423634 0.047792152
0.58431 0.25453943 0.048370667
0.58430439 0.25531852 0.048358969
0.58429879 0.25609758 0.048347276
0.58429319 0.25687665 0.048335582
0.58428758 0.25765574 0.048323885
0.5850994 0.25794926 0.048902545
0.58591121 0.25823957 0.049481273
0.58590567 0.25901547 0.049469624
0.58671749 0.25930104 0.050048403
0.58752942 0.25958341 0.05062725
0.5776931 -0.0014975333 0.045175426
0.57849997 -0.00065753335 0.045747131
0.57849425 0.00013747317 0.045735195
0.57930118 0.00097269425 0.046306975
0.57929546 0.0017661075 0.046295065
0.58010244 0.0025965502 0.046866931
0.58009672 0.0033883699 0.046855047
0.580091 0.0041801892 0.04684316
0.58008534 0.004972009 0.046831273
0.58089232 0.0057944846 0.047403242
0.58088666 0.0065847109 0.047391381
0.58088094 0.0073749376 0.047379516
0.58087528 0.0081651639 0.047367655
0.58086962 0.0089553902 0.04735579
0.58167666 0.0097683072 0.047927901
0.581671 0.010556941 0.047916062
0.58166534 0.011345574 0.047904223
0.58165967 0.012134207 0.047892384
0.58246684 0.012939159 0.048464637
0.58246118 0.013726199 0.048452821
0.58164263 0.014500108 0.047856867
0.58163697 0.01528874 0.047845028
0.5816313 0.016077375 0.047833189
0.58162558 0.016866008 0.04782135
0.58080703 0.017647883 0.047225296
0.58080137 0.018438108 0.047213435
0.57998276 0.019224765 0.046617307
0.5799771 0.020016585 0.046605419
0.57915843 0.020808019 0.046009205
0.5791527 0.021601431 0.045997296
0.57914704 0.022394843 0.045985382
0.57832837 0.02319265 0.04538909
0.57750964 0.023993645 0.044792749
0.57750392 0.024790242 0.044780791
0.57668513 0.025596017 0.044184342
0.5758664 0.026404975 0.043587878
0.57586068 0.027204761 0.043575872
0.57504189 0.028018501 0.042979341
0.57503611 0.02881988 0.042967308
0.57421726 0.029638398 0.042370703
0.57421154 0.03044137 0.042358652
0.57339269 0.031264666 0.041761972
0.57338685 0.032069232 0.041749895
0.57256794 0.032897312 0.041153111
0.57174903 0.033728577 0.040556315
0.57174319 0.034536328 0.04054419
0.57092428 0.035372373 0.03994732
0.57091844 0.036181714 0.039935172
0.57009947 0.037022538 0.039338235
0.57009363 0.037833478 0.039326061
0.5692746 0.038679082 0.038729012
0.5692687 0.039491616 0.038716815
0.56844968 0.040341996 0.03811973
0.56844383 0.041156121 0.038107511
0.56762475 0.04201128 0.037510354
0.56680566 0.042869631 0.036913153
0.56679976 0.043686941 0.036900882
0.56598061 0.044550069 0.03630361
0.56516141 0.045416385 0.035706252
0.56515551 0.046236884 0.035693932
0.5643363 0.047107976 0.035096541
0.5643304 0.047930066 0.035084199
0.56351119 0.048805937 0.034486733
0.56269193 0.049684998 0.033889219
0.56268597 0.050510276 0.033876829
0.56186664 0.05139412 0.03327921
0.56104732 0.052281145 0.032681577
0.56022799 0.053171355 0.032083895
0.56022203 0.054001413 0.032071434
0.55940264 0.054896403 0.031473681
0.55858326 0.055794578 0.03087588
0.58398241 0.25423062 0.047179639
0.58479315 0.25453374 0.047759406
0.58478755 0.2553128 0.047747713
0.58478194 0.25609189 0.047736015
0.58477634 0.25687096 0.047724321
0.58477074 0.25765005 0.047712624
0.58476514 0.25842911 0.04770093
0.58557594 0.25872105 0.048280865
0.58638686 0.25900978 0.048860863
0.58638126 0.25978568 0.048849218
0.58719212 0.26006967 0.049429271
0.57899302 -0.0006633497 0.045123372
0.5789873 0.00013165682 0.045111436
0.57979321 0.00096688955 0.045684468
0.57978749 0.0017603028 0.045672555
0.58059353 0.0025907571 0.046245672
0.5805878 0.0033825771 0.046233784
0.58058208 0.0041743959 0.046221901
0.58138812 0.0049984767 0.046795096
0.58138245 0.0057887034 0.046783231
0.58137673 0.0065789297 0.04677137
0.58137107 0.0073691565 0.046759505
0.58136535 0.0081593823 0.046747644
0.58217144 0.008973904 0.047320984
0.58216578 0.0097625377 0.047309145
0.58216012 0.010551171 0.047297306
0.58215445 0.011339804 0.047285467
0.58214873 0.012128438 0.047273628
0.58214307 0.012917071 0.047261789
0.58213741 0.013705704 0.04724995
0.58213174 0.014494338 0.047238111
0.58212608 0.015282971 0.047226273
0.58130848 0.016061649 0.046629012
0.58130282 0.016851874 0.04661715
0.58129716 0.017642101 0.046605285
0.58047956 0.01842715 0.046007935
0.58047384 0.019218972 0.045996048
0.57965618 0.020008801 0.045398608
0.57965052 0.020802213 0.045386694
0.57883286 0.021596821 0.044789199
0.57882714 0.022391828 0.044777263
0.57800943 0.023191217 0.044179697
0.57719165 0.023993792 0.043582045
0.57718593 0.024791984 0.043570064
0.57636815 0.025599338 0.042972378
0.57636243 0.026399124 0.042960372
0.57554466 0.02721126 0.042362612
0.57553887 0.028012637 0.042350583
0.57472104 0.028829552 0.041752748
0.5739032 0.029649651 0.041154869
0.57389742 0.030454217 0.041142792
0.57307953 0.031279095 0.040544808
0.57307369 0.032085255 0.040532704
0.57225579 0.032914914 0.039934684
0.57225001 0.033722669 0.039922558
0.57143205 0.034557104 0.039324462
0.57142621 0.03536645 0.039312314
0.57060826 0.036205668 0.038714148
0.57060242 0.037016608 0.038701974
0.56978434 0.037860606 0.0381037
0.5697785 0.038673136 0.038091503
0.56896043 0.039521914 0.037493192
0.56895459 0.040336039 0.037480973
0.56813651 0.041189596 0.036882591
0.56731844 0.042046338 0.036284164
0.56731254 0.042863652 0.036271892
0.56649441 0.043725174 0.035673391
0.56567615 0.044589885 0.035074808
0.56567025 0.04541038 0.035062492
0.56485206 0.046279874 0.034463871
0.56484616 0.047101963 0.034451529
0.56402797 0.047976229 0.033852838
0.56320971 0.048853684 0.033254098
0.56320375 0.049678959 0.033241708
0.56238544 0.050561201 0.032642864
0.56156713 0.051446624 0.032044005
0.56074876 0.052335225 0.031445097
0.5607428 0.053165283 0.031432636
0.55992442 0.054058671 0.030833656
0.55910605 0.05495524 0.030234629
0.55828756 0.055855006 0.029635519
0.55746913 0.056757949 0.029036397
0.58447218 0.25344425 0.046578851
0.58446658 0.25422493 0.046567131
0.58446097 0.2550056 0.046555411
0.58445537 0.25578627 0.046543691
0.58444971 0.25656691 0.046531972
0.58444411 0.25734758 0.046520256
0.58525389 0.25764433 0.047101367
0.58524829 0.25842342 0.04708967
0.58524269 0.25920248 0.047077976
0.58605254 0.25949284 0.047659185
0.58686244 0.25977999 0.048240457
0.58685684 0.26055592 0.048228808
0.57949179 -0.0014641716 0.044511549
0.57948607 -0.00066916604 0.044499613
0.58029097 0.00016767257 0.045073867
0.58028531 0.00096108485 0.045061957
0.58027959 0.0017544981 0.045050044
0.58108455 0.002584964 0.045624413
0.58107889 0.003376784 0.045612525
0.58188391 0.0042024688 0.04618695
0.58187819 0.0049926955 0.046175085
0.58187252 0.0057829223 0.046163224
0.5818668 0.0065731481 0.046151359
0.58186114 0.0073633748 0.046139497
0.58185548 0.0081536015 0.046127632
0.58266056 0.0089681344 0.046702225
0.58265489 0.0097567681 0.046690386
0.58264917 0.010545401 0.046678547
0.58264351 0.011334035 0.046666708
0.58263785 0.012122668 0.046654869
0.58263218 0.012911301 0.04664303
0.58262652 0.013699935 0.046631191
0.5826208 0.014488568 0.046619352
0.58180428 0.01526564 0.046020865
0.58179861 0.016055867 0.046009004
0.58179289 0.016846094 0.045997143
0.58097631 0.017629538 0.045398563
0.58097064 0.018421357 0.045386676
0.580154 0.019209582 0.044788007
0.58014828 0.020002997 0.044776097
0.57933164 0.020795999 0.044177376
0.57851493 0.02159219 0.043578606
0.57850921 0.02238879 0.043566648
0.57769245 0.023189759 0.04296777
0.57768667 0.023987953 0.042955786
0.57686996 0.024793701 0.042356875
0.57686418 0.025593488 0.042344868
0.57604742 0.026404018 0.041745882
0.57604164 0.027205396 0.04173385
0.57522482 0.028020704 0.041134793
0.57440799 0.028839199 0.040535688
0.57440221 0.029643765 0.040523611
0.57358527 0.030467041 0.039924398
0.57357949 0.031273197 0.039912298
0.57276255 0.032101251 0.039313048
0.57275677 0.032909006 0.039300922
0.57193983 0.033741839 0.038701601
0.57193398 0.034551185 0.038689453
0.57111698 0.035388798 0.038090061
0.5711112 0.036199737 0.038077887
0.57029408 0.03704213 0.037478387
0.57028824 0.03785466 0.037466191
0.56947124 0.038701832 0.036866654
0.56946534 0.039515957 0.036854435
0.56864828 0.040367913 0.036254827
0.56783116 0.041223049 0.035655171
0.56782532 0.042040359 0.035642903
0.56700814 0.042900279 0.035043176
0.56619096 0.043763384 0.034443367
0.56618506 0.044583879 0.034431048
0.56536782 0.045451768 0.033831201
0.56536192 0.046273857 0.03381886
0.56454468 0.047146518 0.033218943
0.56372744 0.048022371 0.032618977
0.56372154 0.048847646 0.032606591
0.56290418 0.049728278 0.032006517
0.56208688 0.050612096 0.031406432
0.56126952 0.051499099 0.030806297
0.56045216 0.052389286 0.030206116
0.5604462 0.053220935 0.030193631
0.55962878 0.054115903 0.029593378
0.55881137 0.055014059 0.028993042
0.55799389 0.0559154 0.028392693
0.55798787 0.056751829 0.028380137
0.55717039 0.057657953 0.027779717
0.58495635 0.25343853 0.045966342
0.58495075 0.2542192 0.045954622
0.58494514 0.25499991 0.045942903
0.58493948 0.25578055 0.045931183
0.58493388 0.25656122 0.045919463
0.58492827 0.25734189 0.045907743
0.58573711 0.25763863 0.046490107
0.58573151 0.25841773 0.046478413
0.5857259 0.25919679 0.046466716
0.58653474 0.25948715 0.047049176
0.58652914 0.26026464 0.047037505
0.58733809 0.26055023 0.047620051
0.57917517 -0.0015150172 0.043300394
0.5799734 0.00012002412 0.043863919
0.58077735 0.00095528015 0.044439446
0.58077163 0.0017486934 0.044427533
0.58157563 0.002579171 0.045003153
0.58156997 0.003370991 0.044991266
0.58237398 0.0041966871 0.045566939
0.58236831 0.0049869139 0.045555074
0.58236259 0.0057771406 0.045543212
0.58235693 0.0065673669 0.045531347
0.58235121 0.0073575936 0.045519486
0.58234555 0.0081478199 0.045507625
0.58314967 0.0089623649 0.046083461
0.58314395 0.0097509976 0.046071623
0.58313829 0.010539631 0.046059784
0.58313262 0.011328265 0.046047945
0.58312696 0.012116898 0.046036106
0.5831213 0.012905532 0.046024267
0.58230573 0.013679406 0.045424581
0.58230007 0.014469632 0.045412719
0.58229434 0.015259859 0.045400858
0.58147877 0.016040105 0.044801075
0.58147311 0.016831925 0.044789188
0.58065748 0.017616952 0.044189319
0.58065176 0.018410364 0.044177406
0.57983613 0.01920017 0.043577485
0.57983041 0.019995177 0.043565549
0.57901472 0.020789763 0.042965554
0.579009 0.021586362 0.042953596
0.57819319 0.022385728 0.042353492
0.57818747 0.023183919 0.042341508
0.57737172 0.023988066 0.041741367
0.57655597 0.024795396 0.041141182
0.57655019 0.025596775 0.041129153
0.57573438 0.026408885 0.040528893
0.5757286 0.027211858 0.040516838
0.57491273 0.028028749 0.039916508
0.57490695 0.028833313 0.039904431
0.57409102 0.029654985 0.039303992
0.57327515 0.030479841 0.038703538
0.57326931 0.031287592 0.038691413
0.57326353 0.032095343 0.038679287
0.5724476 0.032926574 0.03807874
0.57163161 0.033760987 0.037478149
0.57162577 0.034571927 0.037465975
0.57080972 0.035411119 0.036865272
0.57080388 0.036223654 0.036853075
0.57079804 0.037036188 0.036840878
0.56998199 0.037881751 0.036240116
0.56997615 0.038695876 0.036227893
0.56916004 0.039546225 0.03562706
0.5691542 0.040361945 0.035614815
0.56833804 0.04121707 0.03501391
0.56752193 0.042075381 0.034412958
0.56751603 0.042894289 0.034400664
0.5666998 0.043757383 0.033799604
0.56588364 0.044623662 0.033198532
0.56587768 0.045445751 0.033186194
0.56506145 0.04631681 0.032585047
0.56424522 0.047191054 0.031983856
0.56423926 0.048016332 0.031971466
0.56342292 0.048895359 0.031370167
0.56260663 0.049777567 0.030768856
0.56260067 0.050606035 0.030756418
0.56178433 0.051493026 0.030155035
