# .PCD v0.7 - Point Cloud Data file format
VERSION 0.7
FIELDS x y z
SIZE 4 4 4
TYPE F F F
COUNT 1 1 1
WIDTH 1419
HEIGHT 1
VIEWPOINT 0 0 0 1 0 0 0
POINTS 1419
DATA ascii
0.44172049 0.14012331 0.050904252
0.4417136 0.14108081 0.050889876
0.44170672 0.14203835 0.050875504
0.4416998 0.14299586 0.050861128
0.44169292 0.14395337 0.050846756
0.44168603 0.14491089 0.05083238
0.44167915 0.14586839 0.050818004
0.44167227 0.14682591 0.050803632
0.44166538 0.14778341 0.050789256
0.44165847 0.14874092 0.050774883
0.44074914 0.14991258 0.050284214
0.4416447 0.15065594 0.050746135
0.44073534 0.15183081 0.050255418
0.44072843 0.15278991 0.05024102
0.44072154 0.15374902 0.050226621
0.44071463 0.15470812 0.050212223
0.44070774 0.15566722 0.050197825
0.44070083 0.15662631 0.050183427
0.44069394 0.15758543 0.050169028
0.44068703 0.15854456 0.05015463
0.44068012 0.15950365 0.050140232
0.4415758 0.16023107 0.050602391
0.44156891 0.16118857 0.050588015
0.44156203 0.16214611 0.050573643
0.43345535 0.12068249 0.045701664
0.43434939 0.12149121 0.046163827
0.43434241 0.12246306 0.046149239
0.43523648 0.12326698 0.046611469
0.43613058 0.12406773 0.047073752
0.43612364 0.12503639 0.047059212
0.43701777 0.12583235 0.047521558
0.43791199 0.12662512 0.047983993
0.43880618 0.1274147 0.048446439
0.43970039 0.12820111 0.048908938
0.44059461 0.12898432 0.049371477
0.4405877 0.12994502 0.049357053
0.44148198 0.13072346 0.049819674
0.44237632 0.13149869 0.050282363
0.44236943 0.1324562 0.050267991
0.44236255 0.13341373 0.050253615
0.44325688 0.1341826 0.05071637
0.44325 0.13513851 0.050702021
0.44234186 0.13628626 0.050210491
0.44323626 0.13705035 0.050673321
0.44322938 0.13800628 0.050658967
0.44322249 0.13896219 0.050644618
0.44321561 0.13991812 0.050630268
0.44320872 0.14087403 0.050615918
0.44320187 0.14182997 0.050601568
0.44319499 0.14278588 0.050587218
0.4431881 0.1437418 0.050572868
0.44318122 0.14469771 0.050558515
0.44227299 0.14586139 0.05006675
0.44226608 0.14681891 0.050052375
0.44225919 0.14777641 0.050038002
0.44225231 0.14873391 0.050023627
0.44224542 0.14969143 0.050009251
0.44223854 0.15064894 0.049994878
0.44223166 0.15160646 0.049980503
0.44132325 0.15278289 0.049488515
0.44131637 0.153742 0.049474116
0.44130945 0.1547011 0.049459718
0.44220409 0.15543652 0.049923006
0.44129565 0.15661931 0.049430922
0.44219032 0.15735154 0.049894258
0.44128186 0.15853754 0.049402125
0.44217652 0.15926655 0.04986551
0.44216964 0.16022407 0.049851134
0.44216275 0.16118157 0.049836762
0.44215587 0.16213909 0.049822386
0.44214898 0.16309662 0.04980801
0.43406606 0.11970193 0.044952516
0.43405905 0.12067537 0.044937901
0.43405205 0.12164882 0.044923287
0.43494514 0.12245595 0.04538672
0.43583822 0.12325988 0.045850206
0.43673134 0.12406064 0.046313733
0.43672439 0.1250293 0.046299193
0.43851772 0.12565257 0.047240973
0.43851078 0.12661804 0.047226477
0.43940398 0.12740766 0.047690172
0.44029719 0.12819406 0.048153922
0.44119045 0.1289773 0.048617713
0.44118354 0.12993799 0.048603293
0.4420768 0.13071644 0.049067155
0.44297016 0.13149169 0.049531095
0.44296327 0.13244919 0.049516723
0.44295639 0.13340671 0.049502347
0.44384974 0.1341756 0.049966361
0.44384286 0.13513152 0.049952008
0.44383597 0.13608745 0.049937658
0.44382909 0.13704336 0.049923308
0.44382221 0.1379993 0.049908958
0.44381535 0.13895521 0.049894609
0.44380847 0.13991113 0.049880259
0.44380158 0.14086704 0.049865905
0.4437947 0.14182296 0.049851555
0.44378784 0.14277887 0.049837206
0.44378096 0.1437348 0.049822856
0.44377407 0.14469072 0.049808506
0.44376719 0.14564665 0.049794156
0.44376031 0.14660256 0.049779806
0.44375345 0.14755848 0.049765453
0.44374657 0.14851439 0.049751103
0.44373968 0.14947031 0.049736753
0.44283238 0.15064193 0.04924361
0.4428255 0.15159945 0.049229234
0.44281858 0.15255696 0.049214862
0.4428117 0.15351447 0.049200486
0.44280481 0.15447199 0.049186114
0.44279793 0.15542951 0.049171738
0.44279104 0.15638702 0.049157362
0.44278416 0.15734453 0.04914299
0.44277725 0.15830204 0.049128614
0.44277036 0.15925954 0.049114242
0.44276348 0.16021706 0.049099866
0.44275659 0.16117457 0.049085494
0.44365028 0.16189727 0.049550198
0.44364339 0.1628532 0.049535848
0.44363651 0.16380911 0.049521498
0.43377769 0.11888131 0.043724131
0.43377069 0.11985635 0.043709494
0.43466279 0.12066825 0.044174138
0.43465579 0.1216417 0.044159524
0.43554786 0.12244884 0.044624206
0.43554088 0.12342069 0.044609617
0.43733209 0.12405355 0.045553721
0.43732515 0.12502222 0.045539182
0.43821731 0.12581819 0.046004031
0.43910953 0.12661098 0.046468962
0.44000176 0.12740061 0.046933908
0.44089401 0.12818703 0.047398902
0.44178626 0.12897027 0.047863949
0.44267854 0.12975033 0.04832904
0.44357088 0.13052718 0.04879421
0.443564 0.13148469 0.048779834
0.44445634 0.13225678 0.049245045
0.44444945 0.13321269 0.049230695
0.44444257 0.13416861 0.049216341
0.44443572 0.13512453 0.049201991
0.44442883 0.13608046 0.049187642
0.44442195 0.13703637 0.049173292
0.44441506 0.13799229 0.049158942
0.44440818 0.13894822 0.049144592
0.44440132 0.13990414 0.049130239
0.44439444 0.14086005 0.049115889
0.44438756 0.14181598 0.049101539
0.44438067 0.14277188 0.049087189
0.44437382 0.14372781 0.049072839
0.44436693 0.14468372 0.04905849
0.44436005 0.14563964 0.04904414
0.44435316 0.14659555 0.049029786
0.44434628 0.14755149 0.049015436
0.44433942 0.1485074 0.049001087
0.44433254 0.14946333 0.048986737
0.44432566 0.15041924 0.048972387
0.44431877 0.15137516 0.048958037
0.44431189 0.15233107 0.048943684
0.44340554 0.15350747 0.048449226
0.44339865 0.15446497 0.04843485
0.44339177 0.15542251 0.048420478
0.44338489 0.15638001 0.048406102
0.44337797 0.15733753 0.048391726
0.44337109 0.15829504 0.048377354
0.4433642 0.15925254 0.048362978
0.44425687 0.15997843 0.048828881
0.44424999 0.16093434 0.048814531
0.44424313 0.16189027 0.048800182
0.44423625 0.16284619 0.048785832
0.44422936 0.1638021 0.048771482
0.44422248 0.16475803 0.048757132
0.43438241 0.11887418 0.042959124
0.43437538 0.11984921 0.042944483
0.43436837 0.12082425 0.042929847
0.43525949 0.12163458 0.043395765
0.43615058 0.12244173 0.043861698
0.43614361 0.12341358 0.04384711
0.43703473 0.12421595 0.044313114
0.43882403 0.12484405 0.045259792
0.43881705 0.12581113 0.045245275
0.44060647 0.12642966 0.046192117
0.44149771 0.1272177 0.046658345
0.44238898 0.12800254 0.047124613
0.44328025 0.12878419 0.04759093
0.44417161 0.12956266 0.048057325
0.44416472 0.13052016 0.048042953
0.44505605 0.13129386 0.048509389
0.4450492 0.13224977 0.048495039
0.44504231 0.1332057 0.048480686
0.44503543 0.13416162 0.048466336
0.44502854 0.13511753 0.048451986
0.44591996 0.13588168 0.048918568
0.44591308 0.13683599 0.04890424
0.44590622 0.13779032 0.048889913
0.44589937 0.13874465 0.048875589
0.44589248 0.13969898 0.048861261
0.44588563 0.1406533 0.048846934
0.44587874 0.14160763 0.048832607
0.44587189 0.14256196 0.048818283
0.44586504 0.14351627 0.048803955
0.44585815 0.1444706 0.048789628
0.4458513 0.14542492 0.0487753
0.44584441 0.14637926 0.048760977
0.44583756 0.14733358 0.048746649
0.44493225 0.1485004 0.048251081
0.44492537 0.14945632 0.048236731
0.44491851 0.15041225 0.048222382
0.44491163 0.15136817 0.048208032
0.44490474 0.15232408 0.048193678
0.44489786 0.15328 0.048179328
0.44489098 0.15423591 0.048164979
0.44488412 0.15519184 0.048150629
0.44487724 0.15614775 0.048136279
0.44487035 0.15710367 0.048121929
0.44486347 0.1580596 0.048107576
0.44485658 0.15901552 0.048093226
0.44484973 0.15997145 0.048078876
0.44484285 0.16092736 0.048064526
0.44483596 0.16188328 0.048050176
0.44482908 0.1628392 0.048035827
0.44482219 0.16379511 0.048021477
0.44481534 0.16475102 0.048007123
0.4349871 0.11886704 0.042194106
0.43498009 0.11984208 0.042179469
0.43497306 0.12081712 0.042164832
0.4358632 0.12162746 0.042632002
0.43675333 0.12243462 0.043099187
0.43674633 0.12340646 0.043084595
0.43763646 0.12420885 0.043551851
0.43852663 0.12500803 0.044019159
0.43941683 0.12580405 0.044486508
0.44120428 0.12642261 0.045435857
0.4420945 0.12721065 0.045903329
0.44298479 0.12799551 0.046370849
0.44387507 0.12877718 0.046838418
0.44476545 0.12955566 0.047306057
0.44475856 0.13051316 0.047291685
0.44564891 0.13128686 0.047759373
0.44564202 0.13224278 0.047745019
0.44563517 0.13319871 0.047730669
0.44562829 0.13415462 0.04771632
0.4456214 0.13511054 0.04770197
0.44651181 0.13587469 0.048169799
0.44650495 0.13682902 0.048155475
0.4464981 0.13778333 0.048141148
0.44649121 0.13873766 0.04812682
0.44648436 0.13969199 0.048112493
0.44647747 0.14064631 0.048098169
0.44647062 0.14160064 0.048083842
0.44646376 0.14255498 0.048069514
0.44645688 0.1435093 0.048055187
0.44645002 0.14446363 0.048040863
0.44644314 0.14541794 0.048026536
0.44643629 0.14637227 0.048012208
0.44642943 0.14732659 0.047997884
0.44642255 0.14828092 0.047983557
0.44641569 0.14923525 0.04796923
0.44551134 0.15040524 0.047472365
0.44550449 0.15136117 0.047458012
0.4454976 0.15231708 0.047443662
0.44549072 0.15327302 0.047429312
0.44548383 0.15422893 0.047414962
0.44547695 0.15518485 0.047400612
0.44547009 0.15614076 0.047386263
0.44546321 0.15709668 0.047371909
0.44545633 0.15805261 0.047357559
0.44544944 0.15900852 0.047343209
0.44544256 0.15996444 0.04732886
0.4454357 0.16092035 0.04731451
0.44542882 0.16187629 0.04730016
0.44542193 0.16283222 0.04728581
0.44541505 0.16378812 0.047271457
0.44540817 0.16474403 0.047257107
0.44540131 0.16569997 0.047242757
0.43380669 0.11820149 0.040477883
0.43469572 0.11901981 0.040946152
0.43468869 0.11999644 0.040931489
0.43557778 0.12080998 0.041399829
0.43557075 0.12178502 0.041385192
0.43645993 0.12259378 0.041853629
0.43734905 0.12339935 0.042322088
0.4382382 0.12420175 0.042790595
0.43912739 0.12500095 0.043259151
0.4400166 0.12579697 0.043727748
0.44090587 0.12658979 0.044196431
0.44269133 0.12720361 0.04514832
0.4435806 0.12798849 0.045617092
0.4444699 0.12877016 0.046085905
0.44535929 0.12954865 0.046554804
0.44535241 0.13050616 0.046540428
0.44624177 0.13127987 0.047009367
0.44623488 0.1322358 0.046995014
0.446228 0.1331917 0.046980664
0.44622111 0.13414763 0.046966314
0.44621423 0.13510355 0.046951964
0.44620737 0.13605948 0.046937615
0.44620049 0.13701539 0.046923265
0.44619361 0.13797131 0.046908911
0.44618672 0.13892724 0.046894561
0.44617987 0.13988316 0.046880212
0.44617298 0.14083907 0.046865862
0.44706246 0.14159366 0.047335088
0.44705561 0.14254799 0.047320761
0.44704875 0.14350231 0.047306433
0.44704187 0.14445664 0.047292106
0.44613859 0.14561866 0.046794109
0.44613171 0.14657457 0.046779759
0.44612482 0.14753051 0.046765409
0.44611794 0.14848642 0.04675106
0.44611108 0.14944234 0.04673671
0.4461042 0.15039825 0.04672236
0.44609731 0.15135418 0.046708006
0.44609043 0.15231009 0.046693657
0.44608355 0.15326601 0.046679307
0.44607669 0.15422192 0.046664957
0.44606981 0.15517785 0.046650607
0.44606292 0.15613377 0.046636257
0.44605604 0.1570897 0.046621904
0.44604918 0.15804562 0.046607554
0.4460423 0.15900153 0.046593204
0.44603541 0.15995745 0.046578854
0.44602853 0.16091336 0.046564505
0.44602165 0.16186929 0.046550155
0.44601479 0.16282521 0.046535801
0.44511124 0.16401909 0.046037327
0.44600102 0.16473705 0.046507102
0.44509748 0.16593412 0.046008579
0.43352532 0.1173728 0.039240893
0.43441337 0.11819433 0.039710365
0.43440634 0.11917255 0.03969568
0.43529439 0.1199893 0.040165223
0.43618247 0.12080285 0.040634815
0.43617547 0.12177789 0.040620178
0.43706363 0.12258666 0.041089866
0.43795177 0.12339225 0.041559573
0.43883994 0.12419466 0.042029329
0.43972814 0.12499387 0.042499132
0.44061637 0.1257899 0.042968988
0.44150466 0.12658273 0.043438915
0.44328812 0.12719657 0.044393308
0.44417641 0.12798145 0.044863321
0.44506472 0.12876314 0.045333393
0.44595313 0.12954164 0.045803536
0.44594625 0.13049915 0.04578916
0.44593933 0.13145667 0.045774784
0.44682774 0.13222879 0.046244998
0.44682086 0.13318472 0.046230648
0.44681397 0.13414064 0.046216298
0.44680709 0.13509655 0.046201948
0.4468002 0.13605247 0.046187598
0.44679335 0.13700838 0.046173245
0.44678646 0.13796432 0.046158895
0.44677958 0.13892023 0.046144545
0.44677269 0.13987616 0.046130195
0.44676584 0.14083207 0.046115845
0.44675896 0.14178801 0.046101496
0.44675207 0.14274392 0.046087146
0.44674519 0.14369984 0.046072792
0.4467383 0.14465575 0.046058442
0.44673145 0.14561167 0.046044093
0.44672456 0.14656758 0.046029743
0.44671768 0.14752351 0.046015393
0.4467108 0.14847942 0.046001043
0.44670391 0.14943534 0.04598669
0.44669706 0.15039127 0.04597234
0.44669017 0.15134719 0.04595799
0.44668329 0.1523031 0.04594364
0.4466764 0.15325902 0.04592929
0.44666952 0.15421493 0.045914941
0.44666266 0.15517086 0.045900591
0.44665578 0.15612677 0.045886237
0.4466489 0.15708269 0.045871887
0.44664201 0.15803862 0.045857538
0.44663516 0.15899454 0.045843188
0.44662827 0.15995046 0.045828838
0.44662139 0.16090637 0.045814488
0.4466145 0.1618623 0.045800138
0.445712 0.16305459 0.045300435
0.44570509 0.16401209 0.045286059
0.4456982 0.16496959 0.045271683
0.44569132 0.16592711 0.045257311
0.43324593 0.11654093 0.03800144
0.43413299 0.11736564 0.038472138
0.43502003 0.11818717 0.038942859
0.435013 0.11916539 0.038928173
0.43590009 0.11998215 0.039398964
0.43589306 0.12095878 0.039384302
0.43678015 0.12177075 0.039855167
0.43766734 0.12257954 0.040326107
0.4385545 0.12338513 0.040797066
0.43944168 0.12418756 0.041268069
0.4403289 0.12498678 0.041739129
0.44121611 0.12578282 0.042210225
0.44210342 0.12657566 0.042681411
0.44299069 0.12736535 0.043152604
0.443878 0.12815183 0.043623853
0.4447653 0.12893511 0.044095144
0.44565263 0.12971523 0.044566486
0.44654006 0.13049215 0.045037903
0.44653317 0.13144967 0.045023531
0.44652629 0.13240717 0.045009155
0.44741368 0.13317773 0.045480642
0.44740683 0.13413364 0.045466293
0.44739994 0.13508956 0.045451943
0.44739306 0.13604549 0.045437593
0.44738618 0.1370014 0.045423239
0.44737929 0.13795733 0.04540889
0.44737244 0.13891324 0.04539454
0.44736555 0.13986917 0.04538019
0.44735867 0.14082508 0.04536584
0.44735178 0.141781 0.04535149
0.4473449 0.14273691 0.045337141
0.44733804 0.14369284 0.045322787
0.44733116 0.14464876 0.045308437
0.44732428 0.14560468 0.045294087
0.44731739 0.14656059 0.045279738
0.44731051 0.14751652 0.045265388
0.44730365 0.14847243 0.045251038
0.44729677 0.14942835 0.045236684
0.44728988 0.15038426 0.045222335
0.447283 0.15134019 0.045207985
0.44727615 0.1522961 0.045193635
0.44726926 0.15325204 0.045179285
0.44636783 0.15442996 0.044678546
0.44636095 0.15538748 0.044664171
0.44635406 0.15634498 0.044649798
0.44634715 0.1573025 0.044635423
0.44634026 0.15826 0.04462105
0.44633338 0.15921751 0.044606674
0.44632649 0.16017503 0.044592302
0.44631961 0.16113254 0.044577926
0.4463127 0.16209006 0.044563551
0.44630581 0.16304758 0.044549178
0.4454042 0.16424304 0.044048149
0.44539732 0.16520214 0.044033751
0.4453904 0.16616125 0.044019353
0.43298271 0.11373982 0.036789063
0.43297565 0.11472282 0.036774307
0.43296859 0.11570583 0.036759548
0.43385458 0.11653375 0.037231419
0.43474066 0.11735847 0.037703373
0.43562672 0.11818002 0.038175344
0.43561968 0.11915824 0.038160659
0.43650576 0.11997501 0.038632698
0.43649876 0.12095163 0.038618036
0.43738487 0.12176362 0.039090153
0.43737787 0.12273867 0.039075516
0.43826407 0.12354586 0.039547727
0.43915024 0.12434988 0.040019959
0.44003645 0.12515071 0.04049224
0.44092268 0.12594837 0.040964566
0.4427022 0.1265686 0.041923895
0.4435885 0.12735829 0.042396341
0.44447479 0.12814479 0.042868838
0.44536111 0.1289281 0.04334138
0.44624746 0.12970823 0.043813974
0.44624057 0.13066733 0.043799575
0.44712701 0.13144265 0.044272266
0.44712013 0.13240017 0.044257894
0.44711325 0.13335769 0.044243518
0.44710633 0.13431519 0.044229146
0.44709945 0.1352727 0.04421477
0.44709256 0.13623022 0.044200394
0.44797903 0.13699441 0.044673223
0.44797215 0.13795033 0.044658873
0.44796526 0.13890626 0.044644523
0.44795841 0.13986218 0.044630174
0.44795153 0.14081809 0.044615824
0.44794464 0.14177401 0.04460147
0.44793776 0.14272992 0.04458712
0.44793087 0.14368585 0.044572771
0.44792402 0.14464176 0.044558421
0.44791713 0.14559768 0.044544071
0.44791025 0.14655359 0.044529721
0.44790336 0.14750953 0.044515371
0.44789651 0.14846544 0.044501018
0.44699612 0.14963539 0.043999154
0.44698921 0.15059289 0.043984782
0.44698232 0.15155041 0.043970406
0.44697544 0.15250793 0.043956034
0.44696856 0.15346545 0.043941658
0.44696167 0.15442295 0.043927286
0.44695479 0.15538047 0.04391291
0.44694787 0.15633798 0.043898534
0.44694099 0.1572955 0.043884162
0.4469341 0.158253 0.043869786
0.44692722 0.1592105 0.043855414
0.44602665 0.1603996 0.04335323
0.44601974 0.1613587 0.043338832
0.44601282 0.16231781 0.043324433
0.44600594 0.16327693 0.043310035
0.44510537 0.16447395 0.042807762
0.44509846 0.16543464 0.042793337
0.44509155 0.16639535 0.042778917
0.4327074 0.11289833 0.035544772
0.43270031 0.11388293 0.035529993
0.43358529 0.11471563 0.036003049
0.43357822 0.11569864 0.03598829
0.43446323 0.11652657 0.036461413
0.43534833 0.1173513 0.036934614
0.4353413 0.11833113 0.036919907
0.43622637 0.11915108 0.037393149
0.43621933 0.12012931 0.037378464
0.43710443 0.12094449 0.037851781
0.4370974 0.12192112 0.037837122
0.43798256 0.12273153 0.038310505
0.43886778 0.12353873 0.038783971
0.43975297 0.12434278 0.039257452
0.44063818 0.12514362 0.039730985
0.44152343 0.12594128 0.040204562
0.44240868 0.12673575 0.040678184
0.44329402 0.12752703 0.041151889
0.44417933 0.12831512 0.041625611
0.44506466 0.12910004 0.042099383
0.44595003 0.12988177 0.042573199
0.4468354 0.13066031 0.043047063
0.44682848 0.13161941 0.043032665
0.44771397 0.13239315 0.04350663
0.44770706 0.13335069 0.043492258
0.44770017 0.13430819 0.043477882
0.44769329 0.13526569 0.04346351
0.4476864 0.13622321 0.043449134
0.44767952 0.13718072 0.043434761
0.44767261 0.13813823 0.043420386
0.44766572 0.13909574 0.04340601
0.44765884 0.14005326 0.043391638
0.44765195 0.14101076 0.043377262
0.44764507 0.14196828 0.043362889
0.44763818 0.1429258 0.043348514
0.44763127 0.14388332 0.043334138
0.44762439 0.14484084 0.043319765
0.4476175 0.14579834 0.04330539
0.44761062 0.14675586 0.043291017
0.44760373 0.14771336 0.043276642
0.44759685 0.14867087 0.043262269
0.44758993 0.14962839 0.043247893
0.44758305 0.15058589 0.043233521
0.44757617 0.15154341 0.043219145
0.44756928 0.15250091 0.043204769
0.4475624 0.15345845 0.043190397
0.44755551 0.15441595 0.043176021
0.4475486 0.15537347 0.043161649
0.44754171 0.15633097 0.043147273
0.44664216 0.15751527 0.042643912
0.44663528 0.15847439 0.042629514
0.44662836 0.15943348 0.042615116
0.44662148 0.16039258 0.042600717
0.44572189 0.16158482 0.04209727
0.44571498 0.16254552 0.042082846
0.4457081 0.16350624 0.042068426
0.44480848 0.16470484 0.041564878
0.44480157 0.16566713 0.041550435
0.44479463 0.16662943 0.041535988
0.44389498 0.16783442 0.04103234
0.43332511 0.11190654 0.03478704
0.43331802 0.11289112 0.034772258
0.43420202 0.11372544 0.035246536
0.43419495 0.11470844 0.03523178
0.43418786 0.11569145 0.035217024
0.43507189 0.11651939 0.035691403
0.435956 0.11734413 0.036165848
0.43594897 0.11832396 0.036151137
0.43683305 0.11914392 0.036625639
0.43682602 0.12012215 0.03661095
0.43771014 0.12093734 0.037085515
0.43859428 0.12174936 0.037560128
0.43858728 0.1227244 0.037545491
0.43947151 0.12353161 0.038020205
0.44035572 0.12433566 0.038494937
0.44123992 0.12513651 0.038969718
0.44212419 0.12593418 0.039444543
0.44300845 0.12672867 0.039919425
0.44389281 0.12751997 0.040394373
0.44477713 0.12830807 0.040869351
0.44566146 0.12909299 0.041344371
0.44565454 0.13005529 0.041329924
0.44653893 0.13083543 0.041805014
0.44742331 0.13161239 0.042280152
0.44741642 0.13257149 0.042265754
0.44740951 0.13353062 0.042251356
0.44829401 0.13430119 0.042726621
0.44828713 0.13525869 0.042712245
0.44738883 0.13640793 0.042208161
0.44738191 0.13736703 0.042193763
0.447375 0.13832614 0.042179365
0.44736812 0.13928524 0.042164966
0.4473612 0.14024435 0.042150568
0.44735432 0.14120345 0.04213617
0.4473474 0.14216255 0.042121772
0.44734052 0.14312166 0.042107373
0.4473336 0.14408076 0.042092975
0.44732669 0.14503989 0.042078577
0.44731981 0.14599898 0.042064179
0.44820446 0.14674886 0.042539753
0.44819757 0.14770636 0.042525381
0.44819066 0.14866386 0.042511005
0.44729221 0.14983539 0.042006586
0.44728529 0.15079451 0.041992188
0.44727841 0.15175362 0.041977789
0.4472715 0.15271272 0.041963391
0.44726458 0.15367183 0.041948993
0.4472577 0.15463093 0.041934595
0.44725078 0.15559003 0.041920196
0.4472439 0.15654914 0.041905798
0.44723698 0.15750825 0.0418914
0.4472301 0.15846737 0.041877002
0.44633153 0.15965641 0.041372348
0.44632465 0.16061711 0.041357927
0.44631773 0.16157781 0.041343506
0.44541913 0.16277322 0.040838756
0.44541222 0.16373552 0.040824313
0.44540527 0.16469781 0.040809866
0.44450665 0.16589959 0.040305022
0.44360799 0.16710457 0.039800122
0.44360104 0.16807005 0.039785631
0.4435941 0.16903552 0.039771136
0.43483287 0.11076923 0.034519546
0.43482581 0.11175224 0.034504786
0.43481874 0.11273524 0.03449003
0.43481165 0.11371825 0.034475274
0.43569469 0.11454938 0.034950849
0.43568763 0.1155308 0.034936115
0.43568057 0.11651221 0.034921382
0.43656367 0.11733697 0.035397086
0.43744677 0.11815855 0.035872806
0.43743974 0.11913677 0.035858121
0.43743271 0.120115 0.035843436
0.43831584 0.12093019 0.036319248
0.43830881 0.12190683 0.036304589
0.43919197 0.12271727 0.036780477
0.44007522 0.12352449 0.037256442
0.44006822 0.12449794 0.037241828
0.44095144 0.12530039 0.037717834
0.44183469 0.12609968 0.038193889
0.44271797 0.12689576 0.038669992
0.44360125 0.12768868 0.03914614
0.44448462 0.12847838 0.03962237
0.44536799 0.12926491 0.040098615
0.44625133 0.13004825 0.040574908
0.44713473 0.1308284 0.04105125
0.44712782 0.1317891 0.041036829
0.44801125 0.13256449 0.041513242
0.44800434 0.1335236 0.041498844
0.44799745 0.1344827 0.041484445
0.44799054 0.13544179 0.041470047
0.44798365 0.13640091 0.041455649
0.44797674 0.13736002 0.041441251
0.44796982 0.13831912 0.041426852
0.44796294 0.13927822 0.041412454
0.44795603 0.14023733 0.041398056
0.44794914 0.14119643 0.041383658
0.44794223 0.14215553 0.041369259
0.44793534 0.14311464 0.041354861
0.44792843 0.14407375 0.041340463
0.44792151 0.14503287 0.041326065
0.44791463 0.14599197 0.041311666
0.44790772 0.14695108 0.041297268
0.44790083 0.14791018 0.04128287
0.44789392 0.14886928 0.041268472
0.44788703 0.14982837 0.041254073
0.44788012 0.15078749 0.041239675
0.44787323 0.1517466 0.041225277
0.44786632 0.1527057 0.041210879
0.44785941 0.15366481 0.04119648
0.44785252 0.15462391 0.041182082
0.446955 0.15580659 0.040676273
0.44694808 0.15676728 0.040661853
0.4469412 0.15772797 0.040647428
0.44693428 0.15868868 0.040633008
0.4460367 0.1598793 0.04012708
0.44602978 0.1608416 0.040112633
0.44602287 0.16180389 0.04009819
0.44512525 0.16300088 0.039592165
0.44511831 0.16396478 0.039577696
0.44422066 0.16516656 0.039071601
0.44421372 0.16613202 0.03905711
0.44331598 0.16733861 0.03855091
0.44330901 0.16830568 0.038536392
0.44330207 0.16927275 0.038521875
0.43544251 0.11076204 0.033748288
0.43543544 0.11174505 0.033733528
0.43542838 0.11272805 0.033718772
0.43542129 0.11371105 0.033704016
0.43630335 0.1145422 0.034180842
0.43629628 0.11552362 0.034166109
0.4371784 0.11634999 0.034643032
0.43717134 0.1173298 0.034628324
0.43805346 0.11815139 0.035105295
0.4380464 0.11912961 0.03509061
0.43892854 0.11994643 0.035567652
0.43892151 0.12092305 0.03555299
0.43980369 0.12173509 0.036030103
0.43979669 0.12271013 0.036015466
0.44067892 0.12351736 0.036492683
0.44067192 0.12449081 0.036478069
0.44155416 0.12529328 0.036955327
0.44243643 0.12609257 0.037432633
0.44331872 0.12688868 0.037909985
0.44331175 0.12785734 0.037895441
0.44508341 0.12847131 0.038864858
0.44507647 0.12943679 0.038850367
0.44595882 0.13022174 0.039327886
0.44684121 0.1310035 0.039805453
0.4468343 0.13196579 0.039791007
0.44771671 0.13274278 0.040268648
0.4477098 0.13370347 0.040254224
0.44770288 0.13466416 0.040239803
0.44769597 0.13562487 0.040225383
0.44768906 0.13658558 0.040210959
0.44768214 0.13754627 0.040196538
0.44767523 0.13850698 0.040182114
0.44766831 0.13946767 0.040167693
0.44766143 0.14042836 0.040153272
0.44765452 0.14138906 0.040138848
0.4476476 0.14234976 0.040124428
0.44764069 0.14331047 0.040110003
0.44763377 0.14427117 0.040095583
0.44762686 0.14523186 0.040081158
0.44761994 0.14619255 0.040066738
0.44761303 0.14715326 0.040052317
0.44760612 0.14811395 0.040037893
0.4475992 0.14907466 0.040023472
0.44759229 0.15003535 0.040009048
0.44758537 0.15099606 0.039994627
0.44757846 0.15195677 0.039980203
0.44757155 0.15291746 0.039965782
0.44756463 0.15387815 0.039951362
0.44755772 0.15483885 0.039936937
0.4475508 0.15579955 0.039922517
0.44754392 0.15676025 0.039908092
0.44664735 0.15794767 0.039400965
0.44664043 0.15890996 0.039386518
0.44663349 0.15987225 0.039372072
0.44573689 0.16106607 0.038864847
0.44572997 0.16202995 0.038850378
0.44572303 0.16299383 0.038835905
0.44482636 0.16419402 0.038328584
0.44481942 0.16515949 0.038314093
0.44481248 0.16612495 0.038299598
0.44391572 0.16733153 0.03779215
0.44390878 0.1682986 0.037777632
0.44390181 0.16926567 0.037763115
0.44300508 0.17047858 0.037255608
0.43605924 0.10977186 0.032991782
0.43605217 0.11075485 0.032977022
0.43693319 0.1115908 0.033455022
0.43692613 0.1125722 0.033440292
0.4378072 0.11340336 0.033918399
0.43780017 0.11438318 0.033903688
0.43779311 0.11536299 0.033888981
0.43778607 0.11634282 0.033874273
0.43866718 0.11716601 0.03435247
0.43866012 0.11814424 0.034337785
0.43954128 0.11896265 0.034816045
0.43953425 0.11993928 0.034801386
0.43952721 0.1209159 0.034786724
0.44040841 0.12172796 0.035265088
0.44040138 0.122703 0.035250451
0.44128266 0.12351025 0.03572892
0.44127566 0.12448369 0.035714306
0.44215691 0.12528618 0.036192808
0.44303817 0.12608548 0.036671363
0.44303119 0.12705573 0.036656797
0.44391251 0.12785026 0.037135426
0.44479382 0.12864159 0.0376141
0.44567525 0.12942973 0.038092848
0.44655663 0.13021469 0.038571618
0.44654968 0.13117857 0.038557149
0.44743109 0.13195875 0.039035995
0.44742417 0.13292104 0.039021548
0.44830561 0.13369645 0.03950046
0.44829869 0.13465714 0.039486039
0.44829178 0.13561784 0.039471619
0.44828486 0.13657854 0.039457195
0.44827798 0.13753924 0.039442774
0.44827107 0.13849995 0.03942835
0.44826415 0.13946064 0.039413929
0.44736877 0.14061938 0.038905978
0.44736186 0.14158167 0.038891532
0.44735494 0.14254396 0.038877089
0.447348 0.14350626 0.038862642
0.44734108 0.14446855 0.038848195
0.44733417 0.14543083 0.038833749
0.44732723 0.14639312 0.038819302
0.44820884 0.14714624 0.039298553
0.44820192 0.14810693 0.039284129
0.44819501 0.14906763 0.039269708
0.4481881 0.15002832 0.039255287
0.44818118 0.15098903 0.039240863
0.44817427 0.15194973 0.039226443
0.44816735 0.15291043 0.039212018
0.44727185 0.15409148 0.038703732
0.44726491 0.15505376 0.038689289
0.447258 0.15601605 0.038674843
0.44725108 0.15697834 0.038660396
0.44724414 0.15794064 0.038645949
0.44634855 0.15913124 0.038137522
0.44634163 0.16009513 0.038123053
0.44633469 0.16105902 0.03810858
0.44543904 0.16225599 0.037600055
0.4454321 0.16322146 0.037585564
0.44453639 0.16442324 0.037076943
0.44452941 0.16539031 0.037062425
0.44452247 0.16635737 0.037047908
0.4445155 0.16732445 0.037033387
0.44361976 0.16853419 0.036524672
0.44361281 0.16950284 0.036510132
0.44360584 0.1704715 0.036495589
0.44271004 0.1716876 0.035986777
0.43755597 0.1096208 0.032714482
0.43754891 0.11060221 0.032699749
0.43754184 0.11158361 0.032685015
0.43842193 0.11241637 0.033164348
0.43841487 0.11339619 0.033149637
0.43840784 0.11437601 0.03313493
0.43928793 0.1152024 0.03361433
0.4392809 0.11618064 0.033599645
0.43927383 0.11715885 0.03358496
0.44015399 0.11797888 0.034064453
0.44014695 0.1189555 0.034049794
0.44013992 0.11993214 0.034035131
0.4410201 0.12074579 0.034514718
0.4410131 0.12172082 0.034500077
0.44100609 0.12269586 0.034485441
0.44188637 0.12350313 0.034965161
0.44187936 0.12447657 0.034950547
0.44275963 0.12527907 0.035430301
0.4436399 0.12607838 0.035910107
0.44363293 0.12704864 0.035895541
0.44451326 0.12784317 0.036375418
0.44539359 0.12863451 0.03685534
0.44627401 0.12942266 0.037335344
0.44626707 0.13038814 0.037320852
0.44714746 0.13117152 0.037800889
0.44802788 0.13195172 0.038280986
0.44802096 0.13291401 0.03826654
0.44801405 0.13387629 0.038252093
0.44800711 0.13483858 0.038237646
0.44800019 0.13580088 0.0382232
0.44799328 0.13676317 0.038208753
0.44798633 0.13772546 0.03819431
0.44797942 0.13868776 0.038179863
0.44797251 0.13965003 0.038165417
0.44796556 0.14061235 0.03815097
0.44707119 0.14177427 0.037641723
0.44706425 0.14273815 0.03762725
0.44705731 0.14370203 0.037612781
0.44705036 0.14466591 0.037598312
0.44793096 0.1454238 0.03807874
0.44792405 0.14638609 0.038064294
0.4479171 0.14734839 0.038049847
0.44791019 0.14831068 0.0380354
0.44790328 0.14927296 0.038020957
0.44789633 0.15023525 0.038006511
0.44788942 0.15119755 0.037992064
0.4478825 0.15215984 0.037977617
0.44787556 0.15312213 0.037963171
0.44786865 0.15408443 0.037948724
0.44786173 0.15504672 0.037934281
0.44696715 0.15623254 0.037424672
0.44696021 0.15719642 0.037410203
0.44695327 0.1581603 0.037395731
0.44694635 0.1591242 0.037381262
0.44605172 0.16031797 0.036871541
0.44604477 0.16128345 0.036857046
0.44603783 0.16224892 0.036842551
0.4451431 0.16344911 0.036332697
0.44513613 0.16441618 0.036318179
0.44512919 0.16538325 0.036303662
0.44512221 0.16635031 0.036289144
0.44422749 0.16755843 0.035779208
0.44422051 0.1685271 0.035764668
0.44332576 0.16973999 0.035254654
0.44331878 0.17071025 0.035240088
0.44331178 0.17168051 0.035225522
0.33039209 0.34923092 -0.029407972
0.43905076 0.10946976 0.032439712
0.4390437 0.11044957 0.032425005
0.43903667 0.11142939 0.032410294
0.4390296 0.1124092 0.032395586
0.43990868 0.1132388 0.032876182
0.43990165 0.11421702 0.032861497
0.43989462 0.11519524 0.032846812
0.44077373 0.11601847 0.033327509
0.44076669 0.1169951 0.03331285
0.44075969 0.11797173 0.033298187
0.44163886 0.11878857 0.033778977
0.44163182 0.11976361 0.03376434
0.44162482 0.12073865 0.033749703
0.44250408 0.12154911 0.034230623
0.44249707 0.12252256 0.034216009
0.44249007 0.123496 0.034201395
0.44336936 0.12430011 0.034682374
0.44336236 0.12527196 0.034667786
0.44424164 0.12607127 0.035148844
0.44423467 0.12704153 0.035134278
0.44511402 0.12783608 0.035615403
0.44599336 0.12862745 0.036096577
0.44598639 0.12959452 0.036082059
0.44686586 0.13038108 0.036563333
0.44774526 0.13116446 0.037044626
0.44773832 0.13212836 0.037030157
0.44773138 0.13309224 0.037015684
0.44861084 0.13386926 0.037497077
0.44860393 0.13483155 0.03748263
0.44859698 0.13579383 0.037468188
0.44859007 0.13675614 0.037453741
0.44769672 0.13791166 0.036943335
0.44768977 0.13887554 0.036928866
0.44768283 0.13983943 0.036914397
0.44767591 0.14080332 0.036899924
0.44766897 0.1417672 0.036885455
0.44766203 0.14273109 0.036870986
0.44765511 0.14369497 0.036856517
0.44764817 0.14465885 0.036842044
0.44764122 0.14562275 0.036827575
0.44763428 0.14658663 0.036813106
0.44762737 0.14755052 0.036798637
0.44762042 0.1485144 0.036784165
0.44761348 0.14947829 0.036769696
0.44760656 0.15044217 0.036755227
0.44759962 0.15140606 0.036740758
0.44759268 0.15236995 0.036726285
0.44758576 0.15333383 0.036711816
0.44757882 0.15429772 0.036697347
0.44757187 0.15526159 0.036682878
0.44756493 0.15622549 0.036668405
0.44667134 0.15741447 0.036157507
0.44666439 0.15837996 0.036143012
0.44665745 0.15934543 0.036128517
0.44665051 0.16031091 0.036114026
0.44575676 0.16150787 0.035602972
0.44574982 0.16247495 0.035588454
0.44574285 0.16344203 0.035573937
0.44484916 0.16464536 0.035062816
0.44484219 0.16561402 0.035048272
0.44483522 0.16658267 0.035033733
0.44482824 0.16755135 0.035019189
0.44482127 0.16852002 0.035004649
0.4439275 0.16973288 0.03449339
0.44392052 0.17070314 0.034478825
0.44391352 0.1716734 0.034464259
0.44390655 0.17264366 0.034449693
0.33644795 0.34654298 -0.027328163
0.4396584 0.10946259 0.031670958
0.44053647 0.11029697 0.032152731
0.44052944 0.1112752 0.032138046
0.4405224 0.11225341 0.032123361
0.44051537 0.11323164 0.032108676
0.44139346 0.11405805 0.032590572
0.44138646 0.11503469 0.032575913
0.44137943 0.11601133 0.03256125
0.44225758 0.11683136 0.033043247
0.44225058 0.1178064 0.03302861
0.44224355 0.11878144 0.033013973
0.44223654 0.11975648 0.032999337
0.44311482 0.12056854 0.033481479
0.44310781 0.12154199 0.033466864
0.44310081 0.12251544 0.03345225
0.44397905 0.12332115 0.033934459
0.44397208 0.124293 0.033919867
0.44396508 0.12526485 0.033905279
0.44484338 0.12606418 0.034387581
0.44483641 0.12703444 0.034373015
0.44571474 0.127829 0.034855396
0.4457078 0.12879767 0.034840852
0.44658616 0.12958744 0.035323299
0.44657922 0.13055451 0.035308782
0.44745767 0.13133949 0.03579133
0.44745073 0.13230497 0.035776839
0.44832918 0.13308519 0.036259431
0.44832224 0.13404907 0.036244962
0.44831529 0.13501295 0.036230493
0.44830838 0.13597684 0.036216021
0.44830143 0.13694073 0.036201552
0.44829449 0.13790461 0.036187083
0.44828755 0.1388685 0.036172614
0.44828063 0.13983238 0.036158141
0.4473882 0.14099427 0.03564639
0.44738126 0.14195974 0.035631899
0.44737431 0.14292523 0.035617404
0.44736737 0.14389072 0.035602909
0.44736043 0.1448562 0.035588417
0.44735348 0.14582168 0.035573922
0.44734654 0.14678715 0.035559427
0.44733956 0.14775263 0.035544936
0.44733262 0.1487181 0.035530441
0.44732568 0.14968359 0.035515945
0.44820434 0.1504351 0.035998974
0.44819739 0.151399 0.035984501
0.44819045 0.15236288 0.035970032
0.4472979 0.1535455 0.035457972
0.44729096 0.15451097 0.035443477
0.44728401 0.15547645 0.035428982
0.44727707 0.15644193 0.035414491
0.4472701 0.1574074 0.035399996
0.44726315 0.15837289 0.035385501
0.44637045 0.15956666 0.034873247
0.44636351 0.16053373 0.03485873
0.44635653 0.1615008 0.034844212
0.44634959 0.16246787 0.034829695
0.44545686 0.1636696 0.034317352
0.44544989 0.16463827 0.034302808
0.44544294 0.16560693 0.034288269
0.44543597 0.16657558 0.034273725
0.44454321 0.16778529 0.033761259
0.44453621 0.16875553 0.033746693
0.44452924 0.16972579 0.033732127
0.44452226 0.17069605 0.033717562
0.44451529 0.17166631 0.033702996
0.44450828 0.17263657 0.03368843
0.33627263 0.34814405 -0.028757889
0.44202027 0.11112103 0.03186829
0.44201323 0.11209765 0.031853631
0.4420062 0.11307428 0.031838968
0.44288334 0.11389912 0.032322146
0.44287631 0.11487416 0.032307506
0.44286931 0.1158492 0.032292869
0.4428623 0.11682423 0.032278232
0.44285527 0.11779927 0.032263596
0.44373253 0.11861454 0.032746941
0.44372553 0.11958798 0.032732327
0.44371852 0.12056142 0.032717712
0.44371152 0.12153487 0.032703102
0.44458878 0.12234218 0.033186533
0.44458181 0.12331403 0.033171944
0.4445748 0.12428589 0.033157356
0.4445678 0.12525775 0.033142764
0.44544512 0.12605709 0.033626318
0.44543815 0.12702735 0.033611752
0.4463155 0.12782191 0.034095377
0.44630855 0.12879057 0.034080837
0.44718593 0.12958036 0.034564532
0.44717896 0.13054743 0.034550015
0.44805646 0.13133243 0.035033815
0.44804952 0.1322979 0.03501932
0.44804257 0.13326338 0.035004828
0.4480356 0.13422887 0.034990333
0.44802865 0.13519433 0.034975838
0.44802171 0.13615982 0.034961347
0.44801477 0.1371253 0.034946851
0.44800782 0.13809077 0.034932356
0.44800088 0.13905625 0.034917865
0.44799393 0.14002173 0.03490337
0.44798699 0.1409872 0.034888875
0.44798005 0.14195268 0.034874383
0.4479731 0.14291817 0.034859888
0.44708157 0.14408644 0.034346767
0.44707459 0.14505351 0.034332249
0.44706765 0.14602058 0.034317732
0.4479453 0.14678009 0.034801912
0.44793835 0.14774556 0.03478742
0.44793141 0.14871104 0.034772925
0.44792446 0.14967653 0.03475843
0.44791752 0.15064199 0.034743939
0.44791058 0.15160748 0.034729443
0.44790363 0.15257296 0.034714948
0.44789669 0.15353844 0.034700457
0.44788972 0.15450391 0.034685962
0.44788277 0.15546939 0.034671467
0.44699109 0.15665837 0.034158032
0.44698414 0.15762544 0.034143515
0.4469772 0.15859251 0.034128997
0.44697022 0.15955958 0.03411448
0.44696328 0.16052665 0.034099963
0.44607157 0.16172518 0.033586416
0.44606459 0.16269383 0.033571877
0.44605762 0.16366251 0.033557333
0.44605067 0.16463117 0.033542793
0.4460437 0.16559984 0.03352825
0.44603673 0.16656849 0.03351371
0.44514495 0.16777819 0.032999996
0.44602278 0.16850583 0.033484627
0.44513097 0.1697187 0.032970864
0.445124 0.17068896 0.032956298
0.44511703 0.17165922 0.032941733
0.44511002 0.17262948 0.032927167
0.44510305 0.17359973 0.032912601
0.44262594 0.11111388 0.031102031
0.44261891 0.11209051 0.031087371
0.44349506 0.11291695 0.031571768
0.44348803 0.11389199 0.031557132
0.44348103 0.11486703 0.031542491
0.44347402 0.11584207 0.031527855
0.44435027 0.11666053 0.032012396
0.44434327 0.11763398 0.031997785
0.44433627 0.11860742 0.031983171
0.44432926 0.11958086 0.031968556
0.44432226 0.1205543 0.031953942
0.44519851 0.12136322 0.03243861
0.44519153 0.12233508 0.032424022
0.44518453 0.12330692 0.03240943
0.44517753 0.12427878 0.032394841
0.44605386 0.12507972 0.032879621
0.44604689 0.12604998 0.032865055
0.44603989 0.12702024 0.032850489
0.44691625 0.12781483 0.033335365
0.44690928 0.12878349 0.033320826
0.44690233 0.12975216 0.033306282
0.44777873 0.13054036 0.033791255
0.44777179 0.13150743 0.033776738
0.44776481 0.1324745 0.033762217
0.44864133 0.13325632 0.034247316
0.44863439 0.13422181 0.034232821
0.44862744 0.13518727 0.03421833
0.4486205 0.13615276 0.034203835
0.44861355 0.13711824 0.03418934
0.44860661 0.13808371 0.034174848
0.44771612 0.13924401 0.033660594
0.44770914 0.14021108 0.033646077
0.4477022 0.14117815 0.033631559
0.44769523 0.14214522 0.033617042
0.44768828 0.14311229 0.033602521
0.44768131 0.14407936 0.033588003
0.44767436 0.14504643 0.033573486
0.44766739 0.1460135 0.033558968
0.44766045 0.14698057 0.033544451
0.4476535 0.14794764 0.033529934
0.44764653 0.14891471 0.033515416
0.44763958 0.14988178 0.033500899
0.44763261 0.15084885 0.033486381
0.44762567 0.15181594 0.033471864
0.44761869 0.15278301 0.033457343
0.44761175 0.15375008 0.033442825
0.44760478 0.15471715 0.033428308
0.44759783 0.15568422 0.03341379
0.44759086 0.15665129 0.033399273
0.44758391 0.15761836 0.033384755
0.44669324 0.15881209 0.032870032
0.44668627 0.15978077 0.032855488
0.44667929 0.16074942 0.032840949
0.44667232 0.1617181 0.032826405
0.44666535 0.16268675 0.032811865
0.44665837 0.16365543 0.032797322
0.4466514 0.16462409 0.032782782
0.44664446 0.16559276 0.032768238
0.44575366 0.16680081 0.032253299
0.44574669 0.16777109 0.032238733
0.44573969 0.16874133 0.032224167
0.44573271 0.16971159 0.032209601
0.44572574 0.17068185 0.032195035
0.44571877 0.17165211 0.032180469
0.44571176 0.17262237 0.032165904
0.44570479 0.17359263 0.032151338
0.34213352 0.34704152 -0.028082576
0.44323868 0.1101301 0.030350432
0.44411379 0.11095975 0.030836033
0.44410679 0.11193478 0.030821396
0.44409975 0.11290982 0.030806758
0.44497499 0.11373307 0.031292487
0.44496799 0.11470652 0.031277873
0.44496098 0.11567996 0.031263258
0.44495398 0.11665341 0.031248644
0.44494697 0.11762685 0.031234032
0.44493997 0.11860029 0.031219417
0.44493297 0.11957374 0.031204805
0.44580823 0.12038426 0.031690687
0.44580123 0.12135611 0.031676095
0.44579425 0.12232797 0.031661507
0.44578725 0.12329981 0.031646919
0.44666258 0.12410238 0.032132924
0.4466556 0.12507263 0.032118358
0.44664863 0.12604289 0.032103792
0.44664162 0.12701315 0.032089226
0.44751701 0.12780774 0.032575354
0.44751003 0.1287764 0.03256081
0.44750306 0.12974507 0.032546271
0.4483785 0.13053328 0.033032492
0.44837153 0.13150035 0.033017974
0.44836459 0.13246742 0.033003457
0.44835761 0.13343449 0.032988939
0.44835067 0.13440157 0.032974422
0.44834372 0.13536863 0.032959905
0.44833675 0.13633572 0.032945387
0.44832981 0.13730279 0.03293087
0.44832283 0.13826984 0.032916352
0.44831589 0.13923693 0.032901831
0.44830891 0.140204 0.032887314
0.44741943 0.14136904 0.032371771
0.44741246 0.14233769 0.032357227
0.44740549 0.14330636 0.032342687
0.44739851 0.14427504 0.032328144
0.44739157 0.14524369 0.032313604
0.4473846 0.14621237 0.03229906
0.44737762 0.14718102 0.032284521
0.44737065 0.1481497 0.032269977
0.44736367 0.14911835 0.032255437
0.4473567 0.15008701 0.032240894
0.44734973 0.15105568 0.032226354
0.44734278 0.15202434 0.03221181
0.44733581 0.15299302 0.032197271
0.44732884 0.15396167 0.032182727
0.44732186 0.15493035 0.032168187
0.44731489 0.155899 0.032153644
0.44730791 0.15686768 0.032139104
0.44730094 0.15783633 0.03212456
0.447294 0.158805 0.032110021
0.44728702 0.15977368 0.032095477
0.44728005 0.16074233 0.032080937
0.44727308 0.16171101 0.032066394
0.44638333 0.16291268 0.031550299
0.44637635 0.16388296 0.031535733
0.44636938 0.16485322 0.031521168
0.44636238 0.16582346 0.031506602
0.4463554 0.16679372 0.031492036
0.44634843 0.16776399 0.03147747
0.44634145 0.16873424 0.031462904
0.44633445 0.1697045 0.031448338
0.44632748 0.17067476 0.031433772
0.4463205 0.17164502 0.031419206
0.44631353 0.17261527 0.031404641
0.44630653 0.17358553 0.031390078
0.44541663 0.17480792 0.030873671
0.34195721 0.34863943 -0.029511003
0.44472551 0.10997757 0.030085655
0.44471851 0.11095261 0.030071018
0.44471148 0.11192764 0.03005638
0.44558573 0.11275251 0.030543329
0.44557872 0.11372595 0.030528715
0.44557172 0.11469939 0.030514102
0.44556469 0.11567284 0.030499488
0.44555768 0.11664628 0.030484874
0.44555068 0.11761973 0.030470261
0.44554368 0.11859317 0.030455647
0.44641796 0.11940531 0.030942762
0.44641095 0.12037715 0.030928172
0.44640398 0.121349 0.030913582
0.44639698 0.12232085 0.030898994
0.44638997 0.1232927 0.030884404
0.44726431 0.12409528 0.031371661
0.44725734 0.12506554 0.031357095
0.44725037 0.12603579 0.031342529
0.44724336 0.12700604 0.031327967
0.44811776 0.12780064 0.031815343
0.44811079 0.12876931 0.031800799
0.44810382 0.12973797 0.031786259
0.44809687 0.13070664 0.031771716
0.4480899 0.1316753 0.031757176
0.44896436 0.13246036 0.032244697
0.44895738 0.13342743 0.03223018
0.44895044 0.1343945 0.032215662
0.44894347 0.13536157 0.032201141
0.44893652 0.13632864 0.032186624
0.44804806 0.13748729 0.031669926
0.44804111 0.13845596 0.031655382
0.44803414 0.13942464 0.031640843
0.44802716 0.14039329 0.031626299
0.44802019 0.14136197 0.031611759
0.44801322 0.14233062 0.031597216
0.44800624 0.14329928 0.031582676
0.44799927 0.14426796 0.031568132
0.44799232 0.14523661 0.031553593
0.44798535 0.14620529 0.031539049
0.44797838 0.14717394 0.031524509
0.4479714 0.14814262 0.031509966
0.44796443 0.14911127 0.031495426
0.44795746 0.15007994 0.031480882
0.44795048 0.1510486 0.031466343
0.44794351 0.15201727 0.031451799
0.44793656 0.15298595 0.031437255
0.44792959 0.1539546 0.031422716
0.44792262 0.15492328 0.031408172
0.44703394 0.15611379 0.030890996
0.44702697 0.15708405 0.03087643
0.44701996 0.15805431 0.030861864
0.44701299 0.15902457 0.030847298
0.44700602 0.15999483 0.030832732
0.44699904 0.16096509 0.030818168
0.44699204 0.16193534 0.030803602
0.44698507 0.16290559 0.030789036
0.44697809 0.16387586 0.03077447
0.44697112 0.16484612 0.030759905
0.44696411 0.16581637 0.030745339
0.44695714 0.16678663 0.030730773
0.44695017 0.1677569 0.030716207
0.44694319 0.16872714 0.030701643
0.44605434 0.16994156 0.030184105
0.44692922 0.17066765 0.030672511
0.44604036 0.17188527 0.030154927
0.44603336 0.17285711 0.030140337
0.44602636 0.17382896 0.030125747
0.44601938 0.17480081 0.030111158
0.44445005 0.11011581 0.028817907
0.44444302 0.11109245 0.028803244
0.4453162 0.11192051 0.029291371
0.44530916 0.11289555 0.029276734
0.44618243 0.11371883 0.029764963
0.44617543 0.11469227 0.029750349
0.44616842 0.11566572 0.029735735
0.44616142 0.11663916 0.029721122
0.44615442 0.11761261 0.029706508
0.44614741 0.11858605 0.029691895
0.44702068 0.11939819 0.030180255
0.44701368 0.12037004 0.030165665
0.4470067 0.12134189 0.030151075
0.4469997 0.12231375 0.030136487
0.4469927 0.12328559 0.030121896
0.44786605 0.12408818 0.030610405
0.44785908 0.12505843 0.030595839
0.4478521 0.12602869 0.030581273
0.4478451 0.12699895 0.030566707
0.44783813 0.12796921 0.030552141
0.44871154 0.12876223 0.031040795
0.44870457 0.1297309 0.031026253
0.4486976 0.13069956 0.031011712
0.44869062 0.13166822 0.03099717
0.44868368 0.13263689 0.030982627
0.44867671 0.13360554 0.030968087
0.44866973 0.13457422 0.030953543
0.44866276 0.13554287 0.030939002
0.44865578 0.13651155 0.03092446
0.44864881 0.13748021 0.030909918
0.44864184 0.13844886 0.030895377
0.44775435 0.1396123 0.030377354
0.44774738 0.14058256 0.030362789
0.44774041 0.14155282 0.030348223
0.4477334 0.14252308 0.030333657
0.44772643 0.14349334 0.030319093
0.44771945 0.1444636 0.030304527
0.44771248 0.14543386 0.030289961
0.44770548 0.14640412 0.030275395
0.4476985 0.14737438 0.030260829
0.44769153 0.14834464 0.030246263
0.44768456 0.14931488 0.030231697
0.44767755 0.15028515 0.030217132
0.44767058 0.1512554 0.030202568
0.44766361 0.15222566 0.030188002
0.44765663 0.15319593 0.030173436
0.44764963 0.15416616 0.03015887
0.44764265 0.15513642 0.030144304
0.44763568 0.15610668 0.030129738
0.44762871 0.15707694 0.030115172
0.4476217 0.1580472 0.030100608
0.44761473 0.15901746 0.030086042
0.44760776 0.15998772 0.030071476
0.44760078 0.16095798 0.030056911
0.44759378 0.16192824 0.030042345
0.4475868 0.16289848 0.030027779
0.44757983 0.16386876 0.030013213
0.44757286 0.16483901 0.029998647
0.44756585 0.16580926 0.029984083
0.44667804 0.16701889 0.029465366
0.44667104 0.16799076 0.029450776
0.44666407 0.1689626 0.029436188
0.44665706 0.16993445 0.029421598
0.44753096 0.17066056 0.029911254
0.44664308 0.17187816 0.029392418
0.44663608 0.17285 0.029377829
0.44662908 0.17382185 0.029363239
0.4466221 0.17479371 0.029348649
0.44573414 0.17601928 0.028829699
0.44331148 0.10843976 0.027073083
0.44418362 0.10927581 0.027562341
0.44417655 0.11025403 0.027547656
0.44416952 0.11123225 0.027532971
0.44504169 0.11206193 0.028022323
0.44503465 0.11303855 0.028007662
0.44590685 0.11386345 0.028497081
0.44589984 0.1148385 0.028482443
0.44677213 0.1156586 0.028971964
0.44676512 0.11663204 0.028957352
0.44675812 0.11760549 0.028942738
0.44675112 0.11857893 0.028928125
0.4476234 0.11939108 0.02941774
0.44761643 0.12036293 0.029403152
0.44760942 0.12133478 0.029388562
0.44760242 0.12230664 0.029373972
0.44759545 0.12327848 0.029359384
0.44758844 0.12425034 0.029344793
0.44846082 0.12505133 0.02983457
0.44845384 0.12602159 0.029820004
0.44844687 0.12699185 0.029805439
0.44843987 0.12796211 0.029790875
0.44843289 0.12893237 0.029776309
0.44842592 0.12990263 0.029761743
0.44841895 0.13087289 0.029747177
0.44841194 0.13184313 0.029732611
0.44840497 0.13281341 0.029718045
0.44839799 0.13378365 0.029703479
0.44839102 0.13475391 0.029688913
0.44838402 0.13572417 0.029674349
0.44837704 0.13669443 0.029659783
0.44837007 0.13766469 0.029645218
0.4483631 0.13863494 0.029630652
0.44835609 0.13960519 0.029616086
0.44834912 0.14057545 0.02960152
0.44834214 0.14154571 0.029586954
0.44833517 0.14251597 0.02957239
0.44832817 0.14348623 0.029557824
0.44832119 0.14445649 0.029543258
0.4474346 0.14563106 0.029023822
0.4474276 0.14660291 0.029009234
0.44742063 0.14757477 0.028994644
0.44741362 0.14854662 0.028980054
0.44740665 0.14951846 0.028965466
0.44739965 0.15049033 0.028950876
0.44739264 0.15146217 0.028936286
0.44738567 0.15243402 0.028921695
0.44737867 0.15340587 0.028907107
0.44737166 0.15437773 0.028892517
0.44736469 0.15534958 0.028877927
0.44735768 0.15632144 0.028863337
0.44735068 0.15729329 0.028848749
0.44734371 0.15826513 0.028834159
0.4473367 0.15923697 0.028819568
0.44732973 0.16020882 0.02880498
0.44732273 0.16118068 0.02879039
0.44731572 0.16215253 0.0287758
0.44730875 0.16312438 0.028761212
0.44730175 0.16409624 0.028746622
0.44729474 0.16506809 0.028732032
0.44728777 0.16603993 0.028717441
0.44728076 0.16701178 0.028702853
0.44727376 0.16798365 0.028688263
0.44726679 0.16895549 0.028673673
0.44725978 0.16992734 0.028659085
0.44725281 0.17089918 0.028644495
0.44724581 0.17187105 0.028629905
0.4472388 0.17284289 0.028615316
