# .PCD v0.7 - Point Cloud Data file format
VERSION 0.7
FIELDS x y z
SIZE 4 4 4
TYPE F F F
COUNT 1 1 1
WIDTH 1371
HEIGHT 1
VIEWPOINT 0 0 0 1 0 0 0
POINTS 1371
DATA ascii
0.69831699 0.075945631 0.074905016
0.69904113 0.076381601 0.075610451
0.69905186 0.076971069 0.075612113
0.69906259 0.077560529 0.075613782
0.69978654 0.077990137 0.07631918
0.69979727 0.07857801 0.076320849
0.69980794 0.079165876 0.076322511
0.65212506 -0.0070420313 0.029770289
0.65213764 -0.0063506039 0.029772244
0.65215021 -0.0056591784 0.0297742
0.65287894 -0.0049125268 0.030481732
0.65289152 -0.0042226939 0.030483682
0.65290403 -0.0035328604 0.030485634
0.6536327 -0.0027925768 0.031193165
0.65364522 -0.0021043357 0.031195112
0.65437376 -0.0013688359 0.031902611
0.65438622 -0.00068218901 0.031904556
0.65511471 4.8531609e-05 0.032612063
0.65584314 0.00077606621 0.033319537
0.65657151 0.0015004143 0.034027006
0.65658391 0.0021822825 0.034028936
0.65731221 0.0029018514 0.03473641
0.6580404 0.0036182345 0.035443857
0.65805274 0.0042969179 0.035445776
0.65878087 0.0050085201 0.036153227
0.65950894 0.0057169357 0.036860652
0.66023695 0.0064221667 0.037568089
0.66096491 0.0071242116 0.038275491
0.6616928 0.0078230705 0.038982887
0.66242069 0.0085187415 0.039690293
0.66243285 0.009187866 0.039692186
0.66387624 0.0099005271 0.041105062
0.66388834 0.010566463 0.041106943
0.66461593 0.011250982 0.041814301
0.66534352 0.011932316 0.04252167
0.66535556 0.012595067 0.042523544
0.6660831 0.01327162 0.043230876
0.66681051 0.013944988 0.043938201
0.66753793 0.014615169 0.044645533
0.66754985 0.015273141 0.044647396
0.66827714 0.015938541 0.045354698
0.66900438 0.016600758 0.046062011
0.66973156 0.017259786 0.046769295
0.67117393 0.017918281 0.048182014
0.67190099 0.018569345 0.048889298
0.67191279 0.019217756 0.048891131
0.67335486 0.019861912 0.050303791
0.67336661 0.020507138 0.050305616
0.67409343 0.021147048 0.05101287
0.67482024 0.021783775 0.051720086
0.67483187 0.022425814 0.051721904
0.67555857 0.023057759 0.052429132
0.67557019 0.023698205 0.052430943
0.67629683 0.024325373 0.053138133
0.67630839 0.024964225 0.05313994
0.67703491 0.025586613 0.053847142
0.67704654 0.026223872 0.053848945
0.67777294 0.02684148 0.054556113
0.6777845 0.027477147 0.054557908
0.67851084 0.028089974 0.055265062
0.67852235 0.028724048 0.055266853
0.67924857 0.029332096 0.055974014
0.67926008 0.029964577 0.055975806
0.67927158 0.030597057 0.055977594
0.67999768 0.031198734 0.056684714
0.68000919 0.031829622 0.056686494
0.68073523 0.032426517 0.057393625
0.68074667 0.033055812 0.057395406
0.68075812 0.033685107 0.057397187
0.6807695 0.034314401 0.057398964
0.68149543 0.034903329 0.05810605
0.68150681 0.035531033 0.058107823
0.6815182 0.036158733 0.0581096
0.682244 0.03674129 0.058816686
0.68225539 0.0373674 0.05881846
0.68226677 0.037993506 0.058820229
0.68299246 0.038569693 0.059527278
0.68300378 0.039194208 0.059529044
0.68372935 0.039765615 0.060236078
0.68374068 0.040388536 0.06023784
0.683752 0.04101146 0.060239602
0.68447751 0.04157649 0.060946643
0.68448877 0.04219782 0.060948398
0.68450004 0.04281915 0.060950156
0.68522543 0.043377809 0.061657153
0.68523663 0.043997545 0.061658908
0.68596196 0.044551425 0.062365916
0.68597317 0.04516957 0.062367663
0.68598437 0.045787711 0.06236941
0.68670952 0.046335217 0.063076377
0.68672073 0.046951767 0.06307812
0.68744582 0.047494497 0.063785098
0.68745697 0.048109453 0.063786834
0.68746817 0.048724405 0.063788578
0.68747932 0.049339365 0.063790314
0.68820423 0.049874127 0.064497247
0.68821537 0.050487492 0.064498983
0.68822652 0.051100854 0.064500719
0.68823767 0.051714215 0.064502448
0.68896246 0.052241016 0.065209381
0.68897355 0.052852783 0.06521111
0.68898469 0.053464554 0.065212838
0.68970937 0.053984977 0.065919735
0.68972045 0.054595158 0.065921456
0.69044501 0.055110801 0.066628337
0.69045603 0.055719387 0.066630058
0.69046712 0.056327969 0.066631779
0.69047815 0.056936555 0.0666335
0.69120258 0.057444233 0.067340374
0.69121361 0.058051225 0.067342088
0.69122463 0.058658212 0.067343809
0.69123566 0.059265204 0.067345522
0.69195998 0.059764918 0.068052359
0.69197094 0.060370311 0.068054073
0.69198197 0.060975712 0.068055779
0.69270611 0.061469056 0.068762615
0.69271708 0.062072854 0.068764322
0.69272804 0.062676661 0.068766028
0.69345212 0.063163631 0.069472827
0.69346303 0.063765839 0.069474533
0.69347399 0.064368054 0.069476232
0.69419795 0.064848647 0.070183031
0.69420886 0.06544926 0.07018473
0.69421977 0.066049881 0.070186429
0.69423068 0.066650502 0.070188127
0.69495445 0.06712313 0.07089489
0.69496536 0.067722157 0.070896581
0.69497621 0.068321176 0.070898272
0.69569987 0.068787441 0.071605012
0.69571072 0.069384865 0.071606703
0.69572157 0.069982298 0.071608387
0.69644517 0.070442185 0.072315134
0.69645602 0.071038023 0.072316818
0.69717944 0.071493134 0.073023528
0.69719023 0.072087377 0.073025204
0.69720107 0.072681628 0.073026888
0.69721186 0.073275864 0.073028564
0.69793516 0.073723011 0.073735267
0.69794595 0.07431566 0.073736943
0.69795674 0.074908309 0.07373862
0.69867992 0.075349078 0.074445285
0.69869065 0.07594014 0.074446961
0.69870138 0.076531194 0.07444863
0.69942451 0.076965593 0.075155303
0.69943523 0.077555053 0.075156964
0.65257478 -0.0063570281 0.02923641
0.65258735 -0.0056656026 0.029238364
0.65331507 -0.0049189366 0.029947132
0.65332758 -0.0042291032 0.029949082
0.65334016 -0.0035392698 0.029951034
0.65335268 -0.0028494329 0.029952984
0.65408033 -0.0021107304 0.030661749
0.65409279 -0.0014224893 0.030663695
0.65482032 -0.00068856886 0.031372424
0.65483278 -1.9220313e-06 0.031374365
0.65556026 0.00072722114 0.032083105
0.65628767 0.0014531782 0.032791808
0.65630007 0.0021366386 0.032793742
0.65702736 0.0028578152 0.033502437
0.6577546 0.0035758067 0.034211144
0.65848178 0.0042906119 0.034919817
0.65849411 0.0049692937 0.034921736
0.65922123 0.0056793182 0.03563042
0.65994829 0.0063861548 0.036339074
0.66067523 0.00708981 0.03704774
0.66140217 0.0077902735 0.037756372
0.66212904 0.0084875524 0.038465001
0.66285586 0.0091816485 0.039173637
0.66358262 0.0098725548 0.039882246
0.66430932 0.010560275 0.040590864
0.66432142 0.011226212 0.040592749
0.665048 0.011909154 0.041301336
0.66577458 0.012588909 0.042009931
0.66578662 0.013251659 0.042011805
0.66651309 0.013926635 0.042720366
0.66723949 0.014598424 0.043428924
0.66796583 0.015267027 0.044137489
0.66869211 0.015932443 0.044846024
0.66941833 0.016594674 0.045554575
0.6701445 0.017253717 0.046263091
0.67087066 0.017909575 0.046971619
0.67159671 0.018562246 0.047680121
0.67232269 0.019211732 0.048388634
0.67304862 0.019858031 0.049097113
0.67377454 0.020501142 0.049805589
0.67450035 0.021141069 0.050514072
0.67451203 0.021784702 0.050515894
0.67523777 0.022419849 0.051224343
0.67524946 0.023061888 0.051226158
0.67597508 0.023692256 0.051934615
0.67598671 0.024332702 0.051936425
0.67671227 0.02495829 0.052644853
0.67743784 0.025580691 0.053353287
0.67744941 0.026217951 0.05335509
0.67817479 0.026835574 0.054063488
0.67818636 0.027471241 0.054065287
0.67819792 0.028106907 0.054067083
0.67892319 0.028718157 0.054775469
0.67893469 0.029352231 0.054777261
0.67965996 0.029958701 0.055485651
0.67967141 0.030591181 0.055487439
0.67968291 0.031223662 0.055489227
0.680408 0.031823758 0.05619758
0.68041945 0.032454647 0.056199361
0.68114448 0.033049963 0.056907721
0.68115592 0.033679258 0.056909502
0.68116736 0.034308553 0.056911279
0.68189228 0.034897499 0.057619601
0.68190366 0.035525199 0.057621375
0.68191504 0.036152903 0.057623152
0.68192643 0.036780603 0.057624925
0.68265122 0.037361581 0.058333244
0.68266261 0.03798769 0.058335014
0.68338728 0.038563889 0.059043296
0.6833986 0.039188404 0.059045061
0.68340993 0.039812922 0.059046831
0.68413448 0.040382747 0.059755098
0.68414581 0.041005671 0.059756856
0.6848703 0.041570716 0.060465131
0.68488157 0.042192046 0.060466889
0.68489283 0.042813376 0.060468644
0.68561721 0.04337205 0.061176877
0.68562847 0.043991785 0.061178632
0.68563974 0.044611521 0.061180383
0.68636394 0.045163825 0.061888624
0.6863752 0.045781966 0.061890371
0.68709934 0.046329491 0.062598571
0.68711054 0.046946041 0.062600315
0.68783462 0.047488783 0.063308522
0.68784577 0.048103739 0.063310266
0.68785691 0.048718695 0.063312002
0.68786812 0.049333651 0.063313745
0.68859202 0.049868431 0.064021908
0.68860316 0.050481793 0.064023644
0.68861431 0.051095154 0.06402538
0.68862545 0.051708519 0.064027116
0.68934923 0.052235331 0.064735278
0.68936032 0.052847099 0.064737007
0.68937147 0.053458869 0.064738736
0.69009507 0.053979311 0.065446861
0.69010615 0.054589488 0.06544859
0.69011724 0.055199664 0.065450311
0.69084078 0.055713732 0.066158421
0.69085187 0.056322314 0.066160142
0.69086289 0.0569309 0.066161864
0.69087398 0.057539485 0.066163585
0.69159734 0.058045585 0.066871695
0.69160837 0.058652572 0.066873409
0.6916194 0.059259564 0.066875122
0.69163042 0.059866551 0.066876844
0.69235367 0.06036469 0.067584902
0.69236469 0.060970087 0.067586616
0.69237566 0.061575487 0.067588329
0.69309884 0.062067244 0.068296395
0.69310981 0.06267105 0.068298101
0.69312078 0.063274853 0.068299808
0.69384378 0.063760243 0.069007836
0.69385469 0.064362459 0.069009542
0.69386566 0.064964667 0.069011241
0.69458854 0.06544368 0.06971927
0.69459945 0.066044301 0.069720969
0.69461036 0.066644922 0.069722667
0.69462126 0.067245536 0.069724366
0.69534403 0.067716591 0.07043235
0.69535494 0.06831561 0.070434049
0.69607759 0.06878189 0.071142018
0.69608843 0.069379315 0.071143709
0.69609928 0.069976747 0.0711454
0.69682187 0.070436649 0.071853377
0.69683266 0.071032487 0.071855061
0.6968435 0.071628325 0.071856745
0.69756591 0.072081856 0.072564684
0.6975767 0.072676107 0.07256636
0.69758755 0.073270343 0.072568044
0.69830984 0.073717497 0.073275983
0.69832063 0.074310154 0.07327766
0.69833142 0.074902803 0.073279336
0.69905359 0.075343587 0.073987238
0.69906431 0.075934649 0.073988907
0.69907504 0.076525703 0.073990576
0.69979715 0.076960109 0.074698485
0.69980788 0.077549577 0.074700147
0.69981855 0.078139044 0.074701816
0.65302444 -0.0056720269 0.028702533
0.65303701 -0.0049805995 0.028704487
0.65376371 -0.0042355126 0.029414482
0.65377623 -0.0035456792 0.029416434
0.65378881 -0.0028558422 0.029418385
0.65451539 -0.0021171249 0.030128384
0.6545279 -0.001428884 0.03013033
0.65525442 -0.00069494871 0.030840294
0.65526688 -8.3018558e-06 0.030842235
0.65599334 0.00072085607 0.031552207
0.6560058 0.0014059125 0.031554144
0.65673214 0.0021302884 0.032264084
0.65674454 0.0028137506 0.032266013
0.65747082 0.0035333477 0.032975938
0.65819705 0.0042497618 0.033685874
0.65892315 0.0049629877 0.03439578
0.65893549 0.0056416695 0.034397699
0.65966159 0.0063501149 0.035107613
0.66038758 0.0070553757 0.035817496
0.66111356 0.0077574495 0.036527392
0.66183943 0.0084563382 0.037237257
0.66256523 0.009152039 0.037947111
0.66329104 0.0098445537 0.03865698
0.66401672 0.010533882 0.039366819
0.66474241 0.011220025 0.040076669
0.66546798 0.011902981 0.040786486
0.66548008 0.012567325 0.040788367
0.66620559 0.013245501 0.041498195
0.66693103 0.013920492 0.04220799
0.66694307 0.014581649 0.04220986
0.6676684 0.015251859 0.042919647
0.66839373 0.015918884 0.043629441
0.66983229 0.016588591 0.045047134
0.67055744 0.017247647 0.045756888
0.67128259 0.017903522 0.046466652
0.67200762 0.018556207 0.047176387
0.67273265 0.019205706 0.047886133
0.67345756 0.01985202 0.048595849
0.67418242 0.020495148 0.049305558
0.67490727 0.021135088 0.050015278
0.67491895 0.021778721 0.050017096
0.67564368 0.022413883 0.050726783
0.67565531 0.023055922 0.050728597
0.67637998 0.023686305 0.051438291
0.6763916 0.024326751 0.051440101
0.67711616 0.024952354 0.052149758
0.67712778 0.025591208 0.052151565
0.67785227 0.026212029 0.052861232
0.67786384 0.02684929 0.052863035
0.67858821 0.027465334 0.053572666
0.67859977 0.028101001 0.053574461
0.67861128 0.028736668 0.053576261
0.67933559 0.029346339 0.054285873
0.6793471 0.029980414 0.054287665
0.68007129 0.030585304 0.054997288
0.6800828 0.031217786 0.054999076
0.68009424 0.031850267 0.055000864
0.68081832 0.032448784 0.055710446
0.68082976 0.033079673 0.055712227
0.68155378 0.033673413 0.056421816
0.68156523 0.034302708 0.056423597
0.68157661 0.034932002 0.056425378
0.68230051 0.035519369 0.057134926
0.68231189 0.036147069 0.0571367
0.68232328 0.036774769 0.057138477
0.68304706 0.037355766 0.057848029
0.68305844 0.037981872 0.057849798
0.68306977 0.038607981 0.057851572
0.68379343 0.039182603 0.058561083
0.68380475 0.039807118 0.058562849
0.68452829 0.040376961 0.059272349
0.68453962 0.040999882 0.059274111
0.68455094 0.041622803 0.059275873
0.68527436 0.042186271 0.059985377
0.68528563 0.042807601 0.059987135
0.68600899 0.043366291 0.060696602
0.68602026 0.043986026 0.060698353
0.68603152 0.044605765 0.060700107
0.68675476 0.045158081 0.061409578
0.68676597 0.045776222 0.061411329
0.68748909 0.046323761 0.062120765
0.6875003 0.046940312 0.062122509
0.6875115 0.047556859 0.062124252
0.68823457 0.048098024 0.062833689
0.68824571 0.04871298 0.062835433
0.68825686 0.049327936 0.062837169
0.6889798 0.049862731 0.063546576
0.68899095 0.050476093 0.063548304
0.68900204 0.051089458 0.06355004
0.68901318 0.05170282 0.063551776
0.68973601 0.052229647 0.064261176
0.6897471 0.052841417 0.064262904
0.68975818 0.053453185 0.064264633
0.68976933 0.054064956 0.064266361
0.69049191 0.054583818 0.064975724
0.690503 0.055193994 0.064977445
0.69122553 0.055708077 0.065686792
0.69123662 0.056316659 0.065688513
0.69124764 0.056925245 0.065690234
0.69125867 0.05753383 0.065691955
0.69198108 0.058039945 0.066401295
0.6919921 0.058646932 0.066403009
0.69200313 0.059253924 0.06640473
0.69201416 0.059860911 0.066406444
0.69273639 0.060359064 0.067115739
0.69274741 0.060964461 0.067117453
0.69275838 0.061569862 0.067119166
0.69348055 0.062061634 0.067828469
0.69349152 0.06266544 0.067830175
0.69350249 0.063269243 0.067831881
0.69422448 0.063754648 0.068541139
0.69423544 0.064356863 0.068542846
0.69424635 0.064959072 0.068544552
0.69496828 0.065438099 0.06925381
0.69497919 0.06603872 0.069255508
0.6949901 0.066639341 0.069257207
0.69500101 0.067239955 0.069258906
0.69572276 0.067711025 0.069968127
0.69573361 0.068310045 0.069969825
0.69574451 0.068909071 0.069971517
0.69646615 0.069373764 0.070680723
0.696477 0.069971196 0.070682406
0.69648784 0.070568636 0.070684098
0.69720936 0.071026951 0.071393304
0.69722021 0.071622789 0.071394987
0.69723099 0.072218627 0.071396671
0.69795239 0.072670586 0.07210584
0.69796318 0.073264822 0.072107524
0.69797397 0.073859073 0.0721092
0.6986953 0.07430464 0.072818369
0.69870609 0.074897297 0.072820045
0.69871682 0.075489946 0.072821721
0.69943798 0.075929157 0.073530853
0.6994487 0.076520212 0.073532529
0.69945943 0.077111267 0.073534198
0.65418732 -0.0049317554 0.028877929
0.65419984 -0.0042419219 0.028879881
0.65421236 -0.0035520887 0.028881831
0.65422487 -0.0028622518 0.028883781
0.65423745 -0.0021724184 0.028885733
0.65496302 -0.0014352787 0.02959696
0.65497553 -0.00074703951 0.029598907
0.65498799 -5.8798505e-05 0.029600853
0.6557135 0.00067196699 0.030312043
0.65572596 0.0013586157 0.030313985
0.65645134 0.0020846019 0.031025182
0.65717661 0.0028074004 0.031736352
0.65718907 0.0034908608 0.031738285
0.65791428 0.0042088823 0.032449439
0.65863943 0.0049237171 0.033160601
0.65865183 0.005603991 0.033162527
0.65937692 0.0063140434 0.033873659
0.66010195 0.0070209149 0.034584802
0.66082692 0.0077245948 0.035295915
0.66155183 0.0084250914 0.036007039
0.66227669 0.0091224015 0.036718134
0.66300148 0.0098165227 0.037429221
0.66372621 0.01050746 0.038140323
0.66445088 0.01119521 0.038851392
0.6651755 0.011879775 0.039562467
0.6651876 0.012545711 0.039564352
0.66591215 0.013225495 0.040275399
0.66592419 0.01388984 0.040277276
0.66664869 0.014564845 0.04098833
0.6680854 0.015245731 0.0424085
0.66809738 0.015905295 0.042410366
0.66953397 0.016576624 0.043830533
0.67025816 0.017237291 0.044541549
0.67098224 0.017894771 0.045252528
0.67170638 0.018549066 0.045963522
0.67243034 0.019200172 0.04667449
0.67315435 0.019848093 0.047385465
0.67387819 0.020492829 0.048096415
0.67460203 0.021134378 0.048807349
0.67532587 0.02177274 0.049518298
0.67533755 0.022416374 0.04952012
0.67606121 0.023049958 0.050231036
0.67678487 0.023680354 0.050941963
0.6767965 0.0243208 0.050943773
0.67680812 0.024961246 0.050945584
0.67753166 0.025585271 0.05165647
0.67754328 0.026224125 0.051658276
0.6782667 0.026843369 0.052369174
0.67827827 0.027480628 0.052370977
0.67900163 0.028095094 0.053081837
0.67901319 0.028730761 0.053083636
0.6790247 0.029366428 0.053085431
0.67974794 0.029974522 0.053796276
0.67975944 0.030608596 0.053798068
0.68048263 0.031211909 0.054508917
0.68049413 0.031844389 0.054510705
0.68121713 0.032442924 0.055221524
0.68122864 0.033073813 0.055223309
0.68124008 0.033704698 0.055225093
0.68196303 0.034296859 0.055935912
0.68197447 0.034926154 0.055937693
0.68198591 0.035555448 0.055939469
0.68270874 0.036141235 0.056650251
0.68272012 0.036768939 0.056652028
0.68273151 0.03739664 0.056653801
0.68345428 0.037976056 0.057364583
0.6834656 0.038602162 0.057366353
0.68418825 0.039176799 0.058077101
0.68419957 0.039801314 0.058078866
0.6842109 0.04042583 0.058080632
0.68493342 0.040994097 0.058791365
0.68494475 0.041617014 0.058793128
0.68566716 0.042180501 0.059503864
0.68567848 0.042801831 0.059505623
0.68568975 0.043423157 0.059507381
0.68641204 0.043980271 0.060218077
0.6864233 0.044600006 0.060219832
0.68714553 0.045152336 0.060930535
0.68715674 0.045770478 0.060932282
0.687168 0.046388622 0.060934033
0.68789011 0.046934582 0.061644699
0.68790126 0.047551133 0.061646443
0.68862331 0.048092309 0.06235712
0.68863451 0.048707265 0.06235886
0.68864566 0.049322225 0.062360596
0.68865681 0.049937177 0.062362336
0.68937868 0.050470397 0.063072965
0.68938982 0.051083758 0.063074701
0.68940097 0.05169712 0.063076437
0.68941212 0.052310485 0.063078173
0.69013387 0.052835733 0.063788801
0.69014496 0.0534475 0.06379053
0.6901561 0.054059271 0.063792259
0.69087768 0.054578148 0.06450285
0.69088876 0.055188324 0.064504579
0.69089985 0.055798501 0.0645063
0.69162136 0.056311004 0.065216877
0.69163239 0.056919593 0.065218598
0.69164342 0.057528175 0.065220319
0.6916545 0.058136757 0.06522204
0.69237584 0.058641292 0.065932609
0.69238687 0.059248284 0.06593433
0.69239789 0.059855271 0.065936044
0.69311917 0.060353439 0.066646576
0.69313014 0.060958836 0.06664829
0.69314116 0.061564237 0.066650003
0.69315213 0.06216963 0.066651709
0.69387323 0.06265983 0.067362241
0.69388419 0.063263632 0.067363948
0.69389516 0.063867435 0.067365654
0.69461614 0.064351268 0.068076149
0.69462711 0.064953476 0.068077847
0.69463801 0.065555684 0.068079554
0.69535887 0.06603314 0.068790048
0.69536978 0.066633761 0.068791747
0.69538069 0.067234375 0.068793446
0.69610143 0.06770546 0.069503903
0.69611233 0.068304479 0.069505595
0.69612318 0.068903506 0.069507293
0.6968438 0.069368213 0.070217729
0.69685465 0.069965646 0.070219412
0.69686556 0.070563085 0.070221104
0.69758606 0.071021415 0.070931546
0.69759685 0.071617253 0.07093323
0.6976077 0.072213091 0.070934914
0.69832808 0.072665066 0.071645319
0.69833887 0.073259301 0.071646996
0.69834965 0.073853552 0.07164868
0.69836044 0.074447796 0.071650356
0.69908071 0.074891791 0.072360761
0.69909149 0.07548444 0.072362438
0.69910228 0.076077096 0.072364114
0.69982237 0.076514721 0.073074467
0.69983315 0.077105775 0.073076144
0.69984388 0.077696837 0.073077813
0.65463597 -0.0042483313 0.028345281
0.65464848 -0.0035584981 0.028347231
0.654661 -0.0028686612 0.028349182
0.65467352 -0.0021788278 0.028351134
0.65468609 -0.0014889927 0.028353084
0.65541065 -0.00075343414 0.029065542
0.6554231 -6.519314e-05 0.029067488
0.65614754 0.00066558714 0.029779915
0.65616006 0.0013522359 0.029781856
0.65688443 0.002078237 0.030494288
0.65689689 0.0027632897 0.030496225
0.65762115 0.0034845106 0.031208623
0.65763354 0.0041679731 0.031210555
0.65835774 0.0048844148 0.031922936
0.65908188 0.0055976701 0.032635335
0.65980595 0.0063077379 0.0333477
0.65981829 0.0069864211 0.033349618
0.66054231 0.0076917112 0.034061994
0.66126621 0.0083938139 0.034774337
0.66199011 0.0090927323 0.035486694
0.66271389 0.0097884629 0.036199018
0.66343766 0.010481006 0.036911335
0.66416138 0.011170366 0.037623663
0.66417354 0.011839489 0.037625555
0.66489714 0.012524067 0.038337849
0.66562068 0.01320546 0.039050154
0.66634423 0.013883667 0.039762434
0.66635627 0.01454801 0.039764311
0.66707969 0.015221437 0.040476594
0.66780305 0.015891677 0.041188847
0.66852635 0.016558731 0.041901089
0.66996086 0.017226903 0.043323718
0.67068398 0.017885992 0.04403596
0.6714071 0.018541893 0.044748172
0.67213011 0.019194609 0.045460399
0.67285311 0.019844139 0.046172593
0.67357606 0.020490482 0.046884801
0.67429888 0.021133639 0.047596976
0.67502171 0.02177361 0.048309144
0.67503339 0.022418836 0.048310969
0.67575616 0.023054026 0.049023144
0.6764788 0.023686031 0.049735289
0.67649043 0.024328072 0.049737107
0.67721301 0.024955297 0.05044926
0.6772247 0.025595743 0.05045107
0.67794716 0.026218189 0.051163189
0.67795873 0.026857043 0.051164996
0.67868114 0.027474709 0.051877119
0.67869276 0.028111968 0.051878922
0.67941505 0.028724855 0.052591015
0.67942661 0.029360523 0.05259281
0.67943811 0.02999619 0.05259461
0.68016034 0.030602705 0.05330668
0.68017185 0.031236779 0.053308476
0.68089396 0.031838514 0.054020558
0.68090546 0.032470994 0.054022346
0.68162745 0.033067949 0.05473439
0.68163896 0.033698834 0.054736175
0.6816504 0.034329724 0.054737959
0.68237233 0.034920305 0.055450007
0.68238372 0.0355496 0.055451788
0.68310553 0.036135405 0.056163803
0.68311697 0.036763106 0.056165576
0.68312836 0.03739081 0.056167353
0.68385005 0.037970237 0.056879371
0.68386143 0.038596347 0.056881141
0.68387282 0.039222453 0.05688291
0.68459439 0.039795514 0.057594888
0.68460572 0.040420029 0.057596654
0.68532723 0.040988307 0.05830862
0.68533856 0.041611228 0.058310382
0.68534988 0.042234153 0.058312144
0.68607128 0.042796057 0.05902411
0.68608254 0.043417383 0.059025869
0.68680382 0.043974511 0.059737802
0.68681508 0.044594247 0.059739556
0.68682635 0.045213982 0.059741307
0.68754756 0.045764737 0.060453244
0.68755877 0.046382878 0.060454991
0.68827987 0.046928853 0.061166894
0.68829107 0.047545403 0.061168637
0.68830228 0.04816195 0.061170381
0.68902326 0.048701551 0.061882287
0.6890344 0.049316511 0.061884023
0.68904561 0.049931467 0.061885763
0.68976647 0.050464697 0.062597632
0.68977761 0.051078059 0.062599368
0.68978876 0.05169142 0.062601097
0.6897999 0.052304786 0.062602833
0.69052058 0.052830048 0.063314699
0.69053173 0.053441819 0.063316427
0.69054282 0.054053586 0.063318156
0.69126344 0.054572478 0.064029984
0.69127452 0.055182654 0.064031713
0.69128561 0.055792831 0.064033434
0.69200611 0.056305349 0.06474524
0.69201714 0.056913938 0.064746961
0.69202816 0.05752252 0.064748682
0.69203925 0.058131102 0.064750403
0.69275957 0.058635652 0.065462209
0.6927706 0.059242643 0.06546393
0.69278163 0.059849631 0.065465644
0.69279265 0.060456622 0.065467365
0.69351286 0.060953211 0.066179119
0.69352388 0.061558612 0.066180833
0.69353485 0.062164005 0.066182546
0.69425493 0.06265422 0.066894315
0.6942659 0.063258022 0.066896021
0.69427687 0.063861825 0.066897728
0.69499683 0.064345673 0.067609452
0.6950078 0.064947881 0.067611158
0.69501871 0.065550089 0.067612857
0.69573861 0.066027559 0.068324588
0.69574952 0.06662818 0.068326287
0.69576043 0.067228794 0.068327986
0.69577134 0.067829415 0.068329684
0.696491 0.068298914 0.069041371
0.69650191 0.06889794 0.069043063
0.69651276 0.069496967 0.069044754
0.69723237 0.069960095 0.069756426
0.69724321 0.070557535 0.069758117
0.69725406 0.071154959 0.069759808
0.69797355 0.071611717 0.070471473
0.6979844 0.072207555 0.070473157
0.69799519 0.0728034 0.070474848
0.69871455 0.073253781 0.071186475
0.69872534 0.073848024 0.071188159
0.69873613 0.074442275 0.071189836
0.69874692 0.075036518 0.071191519
0.69946617 0.075478934 0.071903147
0.69947696 0.07607159 0.071904823
0.69948769 0.076664239 0.0719065
0.65507203 -0.0042547411 0.027810682
0.65508461 -0.0035649077 0.027812632
0.65509713 -0.0028750706 0.027814582
0.65510964 -0.0021852374 0.027816534
0.65512216 -0.0014954022 0.027818484
0.65513468 -0.00080556882 0.027820434
0.65585822 -7.1587776e-05 0.028534124
0.65587074 0.00061665324 0.02853607
0.65659416 0.001345856 0.029249724
0.65660661 0.0020325028 0.029251667
0.65732998 0.0027569246 0.029965328
0.65734237 0.0034419792 0.029967265
0.65806562 0.0041616224 0.030680891
0.6587888 0.0048780795 0.031394511
0.65951192 0.0055913497 0.032108143
0.65952432 0.0062716235 0.032110065
0.66024733 0.0069801155 0.032823663
0.66097033 0.0076854201 0.033537269
0.66098261 0.0083625093 0.033539183
0.66170555 0.0090630343 0.034252759
0.66242838 0.0097603742 0.034966346
0.66315114 0.010454526 0.035679899
0.66387385 0.011145491 0.036393445
0.66459656 0.011833273 0.037107006
0.66460872 0.012502396 0.037108898
0.66533124 0.013185395 0.037822422
0.66605383 0.01386521 0.03853596
0.66677624 0.014541837 0.039249465
0.66678834 0.015206181 0.039251342
0.66823304 0.016546691 0.040678341
0.66966552 0.017216485 0.04210344
0.67038769 0.017877182 0.0428169
0.6725539 0.019840153 0.044957273
0.67327583 0.020488104 0.045670696
0.67399776 0.02113287 0.046384133
0.67471957 0.021774448 0.047097541
0.67473131 0.022421267 0.047099371
0.67545301 0.023058066 0.047812764
0.6761747 0.023691678 0.048526168
0.67618644 0.024335312 0.04852799
0.67690802 0.024964144 0.04924136
0.6769197 0.025606185 0.049243174
0.67764121 0.026230238 0.049956556
0.67765284 0.026870685 0.049958367
0.67837423 0.02748996 0.050671708
0.67909563 0.028106047 0.051385064
0.67910719 0.028743308 0.051386867
0.67911875 0.029380567 0.05138867
0.67984003 0.029990284 0.052101985
0.67985153 0.030625951 0.052103784
0.68057269 0.031230887 0.052817088
0.68058419 0.03186496 0.052818879
0.68130529 0.032465115 0.053532191
0.68131679 0.033097599 0.053533979
0.68203777 0.033692975 0.054247256
0.68204921 0.034323864 0.054249041
0.68277013 0.03491446 0.054962322
0.68278158 0.035543755 0.054964103
0.68279302 0.036173049 0.054965883
0.68351376 0.036757275 0.055679128
0.6835252 0.037384976 0.055680905
0.68353659 0.038012676 0.055682678
0.68425727 0.038590528 0.056395926
0.68426865 0.039216638 0.056397699
0.68498921 0.03978971 0.057110909
0.68500054 0.040414225 0.057112675
0.68572104 0.040982518 0.057825875
0.68573236 0.041605439 0.057827637
0.68574369 0.042228363 0.057829399
0.68646407 0.042790283 0.058542602
0.68647534 0.043411613 0.058544356
0.68648666 0.044032939 0.058546115
0.68720686 0.044588491 0.059259281
0.68721813 0.045208227 0.059261031
0.68722939 0.045827959 0.059262786
0.68794954 0.046377134 0.059975952
0.6879608 0.046995278 0.059977699
0.68868083 0.047539674 0.060690831
0.68869203 0.048156224 0.060692575
0.68941206 0.04869584 0.061405715
0.6894232 0.049310796 0.061407451
0.68943435 0.049925752 0.06140919
0.68944556 0.050540708 0.06141093
0.69016534 0.051072359 0.062124029
0.69017649 0.051685721 0.062125765
0.69018763 0.052299086 0.062127497
0.69090736 0.052824363 0.062840596
0.69091851 0.053436134 0.062842324
0.69092959 0.054047901 0.062844053
0.69094074 0.054659672 0.062845789
0.69166028 0.055176985 0.063558839
0.69167137 0.055787161 0.063560568
0.69168246 0.056397337 0.063562289
0.69240189 0.056908283 0.064275332
0.69241291 0.057516865 0.064277053
0.692424 0.058125451 0.064278774
0.69243503 0.05873403 0.064280495
0.69315439 0.059237003 0.064993531
0.69316536 0.059843991 0.064995244
0.69317639 0.060450982 0.064996958
0.69389558 0.060947586 0.065709956
0.69390661 0.061552987 0.06571167
0.69391757 0.06215838 0.065713383
0.6939286 0.06276378 0.065715097
0.69464767 0.063252412 0.066428088
0.69465864 0.063856214 0.066429801
0.6946696 0.064460017 0.066431507
0.6953885 0.064942285 0.067144461
0.69539946 0.065544493 0.067146167
0.69541037 0.066146709 0.067147866
0.6961292 0.0666226 0.067860827
0.69614011 0.067223214 0.067862526
0.69615102 0.067823835 0.067864224
0.69616193 0.068424448 0.067865923
0.69688058 0.068892375 0.068578839
0.69689149 0.069491401 0.068580531
0.69690239 0.070090428 0.068582229
0.69762093 0.070551984 0.069295123
0.69763178 0.071149409 0.069296815
0.69764262 0.071746841 0.069298506
0.6983611 0.072202019 0.070011407
0.69837189 0.072797865 0.070013091
0.69838274 0.073393695 0.070014775
0.69910103 0.073842503 0.070727631
0.69911182 0.074436747 0.070729315
0.69912261 0.075030997 0.070730999
0.6991334 0.075625241 0.070732675
0.69985163 0.076066077 0.07144554
0.69986236 0.076658726 0.071447209
0.69987315 0.077251382 0.071448885
0.65554577 -0.0021916467 0.027281931
0.65555829 -0.0015018117 0.027283881
0.65557081 -0.0008119783 0.027285833
0.65629333 -7.7982448e-05 0.028000757
0.65630585 0.00061025855 0.028002704
0.65631831 0.0012985014 0.02800465
0.65704072 0.002026123 0.028719535
0.65705317 0.0027127699 0.028721476
0.65777546 0.0034356141 0.029436368
0.65849769 0.0041552722 0.030151231
0.65921986 0.0048717442 0.030866085
0.65923226 0.005553612 0.030868012
0.65995437 0.0062653031 0.031582873
0.66067642 0.0069738096 0.032297704
0.66068876 0.0076524913 0.032299623
0.66141069 0.0083562182 0.033014461
0.66213256 0.0090567581 0.03372927
0.66214484 0.0097322548 0.033731181
0.66357619 0.01044828 0.03515888
0.6635884 0.011120589 0.035160784
0.6643101 0.011809977 0.035875559
0.66432226 0.012480693 0.035877455
0.66504389 0.013165302 0.036592241
0.6657654 0.013846723 0.037306994
0.6657775 0.014514253 0.037308883
0.66649902 0.015190897 0.038023643
0.66722041 0.015864352 0.038738377
0.66794175 0.016534623 0.039453119
0.66866302 0.017201705 0.040167835
0.6744312 0.02242367 0.045885302
0.67444301 0.023072081 0.045887135
0.67516375 0.023708895 0.046601765
0.67588437 0.024342524 0.047316384
0.67660499 0.024972964 0.048031013
0.67661673 0.025616597 0.048032835
0.67733723 0.02624226 0.048747431
0.67734891 0.026884299 0.048749246
0.67806935 0.02750518 0.04946385
0.67878973 0.028122878 0.050178424
0.6788013 0.02876173 0.05018023
0.67952162 0.029374646 0.050894812
0.67953318 0.030011907 0.050896615
0.68025339 0.030620044 0.051611163
0.68026495 0.031255711 0.051612958
0.68098509 0.03185907 0.052327491
0.6809966 0.032493144 0.052329287
0.68171662 0.03309172 0.053043827
0.68172812 0.0337242 0.053045616
0.68244809 0.034318 0.053760123
0.68245953 0.034948889 0.053761907
0.68317944 0.035537906 0.054476421
0.68319082 0.036167201 0.054478198
0.68391061 0.036751442 0.055192679
0.68392199 0.037379146 0.055194452
0.68393344 0.038006846 0.055196229
0.6846531 0.038584709 0.055910714
0.68466449 0.039210819 0.055912483
0.68467581 0.039836928 0.055914253
0.68539536 0.040408421 0.056628697
0.68540674 0.041032936 0.056630462
0.68612617 0.041599654 0.057344891
0.6861375 0.042222574 0.057346653
0.68685687 0.042784512 0.058061093
0.68686813 0.043405838 0.058062848
0.68687946 0.044027168 0.058064606
0.68759871 0.044582732 0.058779005
0.68760997 0.045202468 0.058780756
0.68762118 0.045822203 0.05878251
0.68834037 0.046371393 0.059496909
0.68835157 0.046989534 0.05949866
0.68907064 0.047533944 0.060213026
0.68908185 0.048150495 0.060214769
0.68909305 0.048767041 0.060216513
0.689812 0.049305081 0.060930882
0.68982315 0.049920037 0.060932618
0.6898343 0.050534993 0.060934357
0.69055313 0.051066659 0.061648693
0.69056427 0.051680025 0.061650425
0.69057542 0.052293386 0.061652161
0.69058657 0.052906752 0.061653893
0.69130522 0.053430449 0.062368222
0.69131637 0.054042216 0.06236995
0.69132745 0.054653987 0.062371682
0.69204605 0.055171315 0.063085973
0.69205713 0.055781491 0.063087694
0.69206816 0.056391668 0.063089423
0.69278663 0.056902628 0.063803695
0.69279766 0.05751121 0.063805416
0.69280875 0.058119796 0.063807137
0.69281977 0.058728375 0.063808858
0.69353813 0.059231363 0.064523131
0.69354916 0.059838355 0.064524844
0.69356018 0.060445342 0.064526565
0.69357115 0.061052334 0.064528279
0.69428933 0.061547361 0.065242507
0.69430035 0.062152758 0.06524422
0.69431132 0.062758155 0.065245926
0.69432229 0.063363552 0.06524764
0.69504035 0.063850604 0.065961868
0.69505131 0.064454406 0.065963574
0.69506228 0.065058216 0.06596528
0.69578016 0.065538898 0.06667947
0.69579113 0.066141114 0.066681169
0.69580203 0.066743322 0.066682875
0.69651985 0.067217633 0.067397065
0.69653076 0.067818254 0.067398764
0.69654167 0.068418868 0.067400463
0.69725931 0.068886809 0.068114616
0.69727021 0.069485836 0.068116307
0.69728106 0.070084862 0.068117999
0.69729197 0.070683889 0.068119697
0.69800949 0.071143858 0.068833821
0.69802034 0.07174129 0.068835512
0.69803119 0.072338723 0.068837203
0.69874859 0.072792329 0.069551334
0.69875944 0.073388159 0.069553018
0.69877023 0.073984005 0.069554701
0.69878107 0.074579835 0.069556385
0.6994983 0.075025477 0.070270471
0.69950908 0.075619712 0.070272155
0.69951987 0.076213963 0.070273839
0.65600693 -0.00081838778 0.026751233
0.65601945 -0.00012855447 0.026753183
0.65674096 0.00060386391 0.027469339
0.65675342 0.0012921068 0.027471285
0.65747482 0.0020197432 0.028187405
0.65748727 0.0027063901 0.028189348
0.65820855 0.0034292492 0.028905472
0.65822101 0.0041143056 0.028907409
0.65894222 0.0048323842 0.029623503
0.65966332 0.0055472767 0.030339587
0.65967572 0.006229145 0.030341515
0.66039681 0.0069392598 0.031057606
0.66111779 0.0076461853 0.031773668
0.66113013 0.0083248671 0.031775586
0.66185105 0.0090270173 0.032491654
0.66257191 0.0097259786 0.033207696
0.66329271 0.010421753 0.033923741
0.66330492 0.011095655 0.033925649
0.66402566 0.011786652 0.034641664
0.66474628 0.012474461 0.035357673
0.66475844 0.013145178 0.035359569
0.66547906 0.013828208 0.036075581
0.66549122 0.01449733 0.036077473
0.66621166 0.015175581 0.036793455
0.66622376 0.01584311 0.036795344
0.66694421 0.016516583 0.03751133
0.66766453 0.017186867 0.038227286
0.66838479 0.017853966 0.038943257
0.66910499 0.018517878 0.039659198
0.66911703 0.019179035 0.039661065
0.66983718 0.019838167 0.040376995
0.6712653 0.020490497 0.041806981
0.67198533 0.021141663 0.042522904
0.67270523 0.021789644 0.0432388
0.67342514 0.02243444 0.043954708
0.67343694 0.023086037 0.043956548
0.67486471 0.02371447 0.045386471
0.67487645 0.024362881 0.045388304
0.67559612 0.024996523 0.046104159
0.67631572 0.02562698 0.046820004
0.67703527 0.02625425 0.047535859
0.67704701 0.026897883 0.047537677
0.67776644 0.027520373 0.048253503
0.67848587 0.028139677 0.048969336
0.67849749 0.028780123 0.048971146
0.6792168 0.029394647 0.049686946
0.67993611 0.030005986 0.050402757
0.67994767 0.030643245 0.05040456
0.6806668 0.031249804 0.051120337
0.68067837 0.031885471 0.051122136
0.68139744 0.032487251 0.051837899
0.68211651 0.033085845 0.052553672
0.68212801 0.033718325 0.05255546
0.6828469 0.03431214 0.053271204
0.68285841 0.034943026 0.053272989
0.68357724 0.035532061 0.053988736
0.68358868 0.036161356 0.053990517
0.68360013 0.03679065 0.053992298
0.68431884 0.037373312 0.054708004
0.68433022 0.038001012 0.054709781
0.68434167 0.038628712 0.054711554
0.68506026 0.039205 0.055427268
0.68507165 0.039831109 0.055429038
0.68579018 0.040402621 0.056144718
0.68580151 0.041027136 0.056146484
0.68651998 0.041593865 0.056862146
0.68653131 0.042216789 0.056863908
0.68654263 0.04283971 0.05686567
0.68726093 0.043400064 0.057581339
0.68727225 0.044021394 0.057583094
0.68728352 0.044642724 0.057584852
0.68800175 0.045196708 0.05830048
0.68801302 0.045816444 0.058302235
0.68802422 0.046436179 0.058303986
0.6887424 0.04698379 0.059019614
0.6887536 0.047601931 0.059021365
0.6894716 0.048144765 0.05973696
0.68948281 0.048761316 0.059738703
0.68949401 0.049377866 0.059740447
0.69021189 0.049914323 0.060456049
0.6902231 0.050529279 0.060457788
0.69023424 0.051144235 0.060459528
0.69095206 0.051674325 0.061175086
0.69096321 0.052287687 0.061176822
0.6909743 0.052901052 0.061178554
0.69098544 0.053514414 0.06118029
0.69170314 0.054036532 0.061895851
0.69171423 0.054648302 0.06189758
0.69172531 0.055260073 0.061899312
0.69244283 0.055775821 0.062614828
0.69245392 0.056385998 0.062616557
0.69246501 0.056996178 0.062618285
0.69318241 0.057505555 0.063333787
0.6931935 0.058114141 0.063335508
0.69320452 0.05872272 0.063337229
0.69321561 0.059331305 0.06333895
0.69393289 0.059832714 0.064054444
0.69394392 0.060439702 0.064056166
0.69395494 0.061046693 0.064057879
0.69396591 0.061653685 0.0640596
0.69468307 0.062147133 0.064775057
0.69469404 0.06275253 0.064776763
0.69470507 0.063357927 0.064778477
0.69542205 0.063844994 0.065493941
0.69543302 0.064448804 0.065495647
0.69544399 0.065052606 0.065497354
0.69616085 0.065533303 0.066212773
0.69617182 0.066135518 0.06621448
0.69618273 0.066737726 0.066216178
0.69689953 0.067212053 0.066931605
0.69691044 0.067812674 0.066933304
0.69692135 0.068413287 0.066935003
0.69693226 0.069013901 0.066936702
0.69764888 0.06948027 0.067652084
0.69765979 0.070079297 0.067653775
0.69767064 0.070678324 0.067655474
0.69768155 0.071277343 0.067657165
0.69839799 0.07173574 0.068372518
0.69840884 0.072333172 0.068374209
0.69841969 0.072930604 0.0683759
0.69913608 0.073382623 0.06909126
0.69914693 0.073978469 0.069092944
0.69915771 0.074574299 0.069094628
0.69916856 0.075170144 0.069096319
0.69988477 0.075614192 0.069811635
0.69989556 0.076208442 0.069813319
0.69990635 0.076802686 0.069814995
0.69991714 0.077396929 0.069816679
0.65646809 0.00055486936 0.026220534
0.65718853 0.0012857121 0.026937921
0.65720105 0.0019739512 0.026939867
0.65792137 0.0027000101 0.027657215
0.65793383 0.0033866588 0.027659157
0.65865409 0.0041079405 0.028376514
0.6593743 0.004826034 0.029093843
0.65938669 0.0055094943 0.029095775
0.66010678 0.0062228097 0.029813087
0.66082686 0.0069329394 0.030530415
0.6608392 0.0076132133 0.030532338
0.66155916 0.0083185611 0.031249627
0.66227907 0.0090207262 0.031966932
0.66229141 0.0096978145 0.031968847
0.66301119 0.010395197 0.032686114
0.66302347 0.011070692 0.032688025
0.6637432 0.011763298 0.0334053
0.66375548 0.0124372 0.033407208
0.6637677 0.013111101 0.033409111
0.6644873 0.013797333 0.034126349
0.66449952 0.014469642 0.034128252
0.66595066 0.016498482 0.035564601
0.66596282 0.017167605 0.035566494
0.66668218 0.017839499 0.03628369
0.66669428 0.018507028 0.036285579
0.66741359 0.019174142 0.037002783
0.66813278 0.019838069 0.037719958
0.669559 0.020495206 0.039152429
0.67027807 0.021151168 0.03986958
0.67099708 0.021803943 0.040586744
0.67171603 0.022453532 0.041303877
0.67243493 0.023099935 0.042021021
0.67315376 0.023743151 0.04273814
0.67457944 0.024370018 0.044170525
0.67529815 0.025005268 0.04488764
0.67601681 0.025637332 0.045604724
0.67673534 0.026266212 0.046321798
0.67674708 0.026911438 0.04632362
0.67746556 0.027535535 0.047040705
0.67818397 0.028156446 0.047757756
0.67819566 0.028798487 0.047759574
0.67891401 0.029414618 0.048476633
0.67963231 0.030027566 0.049193662
0.68035054 0.030637326 0.049910702
0.68036211 0.031274583 0.049912505
0.68108022 0.031879567 0.050629515
0.68109179 0.032515232 0.050631311
0.68180984 0.033115435 0.051348303
0.68252784 0.033712447 0.052065309
0.68253934 0.03434493 0.052067097
0.68325722 0.034937166 0.05278407
0.68326867 0.035568051 0.052785855
0.68398654 0.036155507 0.053502832
0.68399793 0.036784802 0.053504612
0.68471569 0.037367478 0.054221556
0.68472707 0.037995178 0.054223333
0.68473846 0.038622882 0.054225106
0.6854561 0.039199185 0.054942053
0.68546748 0.039825294 0.054943826
0.68547887 0.0404514 0.054945596
0.68619633 0.041021332 0.055662502
0.68620771 0.041645847 0.055664267
0.68692511 0.042211 0.056381162
0.68693644 0.042833921 0.056382924
0.68765378 0.043394294 0.057099827
0.68766505 0.04401562 0.057101585
0.68767631 0.04463695 0.05710334
0.68839353 0.045190953 0.057820205
0.6884048 0.045810685 0.057821959
0.68841606 0.04643042 0.05782371
0.68913317 0.046978049 0.058540575
0.68914437 0.04759619 0.058542322
0.68915564 0.048214331 0.058544073
0.68987256 0.048755586 0.059260901
0.68988377 0.049372137 0.059262644
0.69060069 0.049908608 0.059979476
0.69061184 0.050523568 0.059981216
0.69062304 0.05113852 0.059982955
0.69063419 0.051753476 0.059984695
0.69135094 0.052281991 0.060701482
0.69136208 0.052895352 0.060703218
0.69137323 0.053508718 0.060704954
0.69208986 0.054030851 0.061421748
0.692101 0.054642618 0.061423481
0.69211209 0.055254389 0.061425209
0.6928286 0.055770155 0.062141962
0.69283968 0.056380328 0.062143687
0.69285077 0.056990508 0.062145412
0.69356716 0.057499904 0.06286215
0.69357824 0.058108486 0.062863871
0.69358927 0.058717065 0.062865593
0.69360036 0.05932565 0.062867314
0.69361138 0.059934232 0.062869035
0.69432765 0.060434062 0.063585766
0.69433868 0.061041053 0.063587479
0.69434971 0.061648045 0.0635892
0.69436073 0.062255036 0.063590914
0.69507676 0.062746905 0.064307608
0.69508779 0.063352302 0.064309314
0.69509876 0.063957699 0.064311028
0.69581473 0.064443193 0.065027721
0.6958257 0.065046996 0.065029427
0.69583666 0.065650798 0.065031134
0.69655252 0.066129923 0.065747783
0.69656348 0.066732131 0.065749489
0.69657439 0.067334339 0.065751188
0.69729018 0.067807093 0.066467844
0.69730109 0.068407707 0.066469543
0.697312 0.069008321 0.066471241
0.69732291 0.069608942 0.06647294
0.69803846 0.070073731 0.067189552
0.69804937 0.070672758 0.067191243
0.69806021 0.071271777 0.067192934
0.69807112 0.071870796 0.067194633
0.69878656 0.072327621 0.067911223
0.6987974 0.072925054 0.067912914
0.69880825 0.073522486 0.067914598
0.6988191 0.074119918 0.067916289
0.69953442 0.074568763 0.068632878
0.69954526 0.075164601 0.068634562
0.69955605 0.075760439 0.068636246
0.6995669 0.076356277 0.06863793
0.69957769 0.076952115 0.068639614
0.65908718 0.0041015754 0.027845619
0.65980637 0.0048196837 0.028564181
0.65981877 0.0055031441 0.028566115
0.6605379 0.0062164739 0.029284662
0.6605503 0.0068983422 0.029286589
0.66126931 0.0076068928 0.030005146
0.66198826 0.0083122551 0.03072367
0.6620006 0.0089909388 0.030725589
0.66271943 0.0096915234 0.031444121
0.66273177 0.010368612 0.031446036
0.66274405 0.0110457 0.031447951
0.66346282 0.011739913 0.032166447
0.66347504 0.012415408 0.032168359
0.66348732 0.013090904 0.03217027
0.66349959 0.0137664 0.032172181
0.66425496 0.016474353 0.032896388
0.66426718 0.017148256 0.032898296
0.6649856 0.017824944 0.03361674
0.66570395 0.018498443 0.034335174
0.66642231 0.019168759 0.035053622
0.66714054 0.019835886 0.035772037
0.66785878 0.020499827 0.036490466
0.66928297 0.021155402 0.037925407
0.67000103 0.021811379 0.038643792
0.67071903 0.022464169 0.03936217
0.67143697 0.023113772 0.040080559
0.6728608 0.023748634 0.041515436
0.67357856 0.024390273 0.042233784
0.67429632 0.025028724 0.042952139
0.67571986 0.025647657 0.044386972
0.67573166 0.026296068 0.044388808
0.67644924 0.02692496 0.045107115
0.6771667 0.027550668 0.045825414
0.67788416 0.028173188 0.046543729
0.67860156 0.028792521 0.047262013
0.67861325 0.029434562 0.047263827
0.67933053 0.030049115 0.047982119
0.68004775 0.030660482 0.048700377
0.68076497 0.031268664 0.049418651
0.68077654 0.031905923 0.04942045
0.68149364 0.032509327 0.050138686
0.68221068 0.033109542 0.050856914
0.68222219 0.033743616 0.05085871
0.68293917 0.034339052 0.051576946
0.6836561 0.034931302 0.052295152
0.68366754 0.035562191 0.052296937
0.68438435 0.036149658 0.05301515
0.68439579 0.036778957 0.053016931
0.68511254 0.037361648 0.053735107
0.68512392 0.037989348 0.05373688
0.6851353 0.038617048 0.053738657
0.68514669 0.039244749 0.053740431
0.68586332 0.039819475 0.054458611
0.6858747 0.040445581 0.05446038
0.68659115 0.041015528 0.055178523
0.68660253 0.041640043 0.055180289
0.68731892 0.042205211 0.055898417
0.68733025 0.042828135 0.055900179
0.68734151 0.043451056 0.055901941
0.68805784 0.044009849 0.056620076
0.68806911 0.044631179 0.056621831
0.68808043 0.045252506 0.056623589
0.68879658 0.045804929 0.05734168
0.68880785 0.046424665 0.057343435
0.68881911 0.0470444 0.057345185
0.6895352 0.047590446 0.058063284
0.68954641 0.048208587 0.058065031
0.68955761 0.048826728 0.058066778
0.69027358 0.049366407 0.058784835
0.69028479 0.049982958 0.058786578
0.69100064 0.050517853 0.059504643
0.69101179 0.051132806 0.059506383
0.69102299 0.051747765 0.059508123
0.69173872 0.052276291 0.060226146
0.69174987 0.052889656 0.060227882
0.69176102 0.053503018 0.060229614
0.69177216 0.054116379 0.06023135
0.69248778 0.054636937 0.060949374
0.69249886 0.055248704 0.060951106
0.69250995 0.055860475 0.060952835
0.69322544 0.056374662 0.061670821
0.69323653 0.056984838 0.061672546
0.69324762 0.057595015 0.061674275
0.69396299 0.058102831 0.062392239
0.69397402 0.05871141 0.06239396
0.6939851 0.059319995 0.062395681
0.69399613 0.059928577 0.062397402
0.69400716 0.060537163 0.062399123
0.69472241 0.061035413 0.063117087
0.69473344 0.061642405 0.063118801
0.69474447 0.062249396 0.063120514
0.69475549 0.062856391 0.063122235
0.69547051 0.063346677 0.063840151
0.69548148 0.063952073 0.063841864
0.69549251 0.06455747 0.063843578
0.69620746 0.065041386 0.064561494
0.69621843 0.065645188 0.0645632
0.6962294 0.066248991 0.064564914
0.69694418 0.066726536 0.065282792
0.69695514 0.067328744 0.065284491
0.69696605 0.067930959 0.065286197
0.69768077 0.068402126 0.066004083
0.69769168 0.06900274 0.066005781
0.69770259 0.069603361 0.06600748
0.69771349 0.070203982 0.066009179
0.69842803 0.070667192 0.06672702
0.69843894 0.071266212 0.066728711
0.69844979 0.071865231 0.06673041
0.6984607 0.072464257 0.066732101
0.69847161 0.073063284 0.066733792
0.69918597 0.073516935 0.067451611
0.69919682 0.074114367 0.067453295
0.69920766 0.074711792 0.067454986
0.69921851 0.075309232 0.067456678
0.69993275 0.075754903 0.068174489
0.6999436 0.076350741 0.068176173
0.69995439 0.076946579 0.068177857
0.69996524 0.077542417 0.068179548
0.69997603 0.078138262 0.068181232
0.66242963 0.0089846328 0.030199632
0.66244197 0.0096633146 0.030201551
0.66315979 0.010362321 0.030921316
0.66317213 0.011039409 0.030923231
0.6631844 0.0117165 0.030925145
0.66319668 0.012393588 0.03092706
0.6625036 0.013056725 0.030211147
0.66251594 0.013735408 0.030213067
0.66323358 0.014424854 0.030932805
0.66325819 0.015779031 0.030936634
0.66327047 0.016456122 0.030938549
0.66398799 0.017137602 0.03165824
0.66400027 0.017813098 0.031660151
0.66471767 0.0184898 0.032379851
0.66543508 0.019163314 0.033099521
0.66685748 0.019831665 0.034536961
0.6675747 0.020497214 0.035256609
0.66829187 0.021159578 0.035976272
0.66900897 0.021818755 0.036695901
0.67043102 0.022466393 0.038133286
0.671148 0.023117606 0.038852893
0.67186487 0.023765629 0.039572511
0.67258173 0.024410469 0.040292103
0.67400342 0.025037397 0.041729424
0.67472011 0.025674269 0.042449012
0.67543674 0.026307955 0.043168571
0.67615336 0.026938455 0.04388814
0.67686987 0.02756577 0.04460768
0.67758632 0.028189898 0.045327213
0.67830276 0.02881084 0.046046756
0.67901909 0.029428596 0.046766266
0.67903078 0.030070635 0.04676808
0.67974705 0.030683611 0.047487602
0.68046325 0.0312934 0.048207093
0.6811794 0.031900004 0.048926596
0.68189549 0.032503419 0.049646065
0.68190706 0.033139087 0.049647864
0.68262309 0.033737727 0.050367322
0.68333906 0.034333177 0.051086795
0.6833505 0.034965657 0.051088583
0.68406636 0.035556328 0.051808018
0.68478221 0.036143813 0.052527465
0.68479365 0.036773108 0.052529242
0.68480504 0.037402403 0.052531023
0.68552077 0.037983514 0.053250432
0.68553215 0.038611218 0.053252209
0.68554354 0.039238919 0.053253982
0.68625915 0.03981366 0.053973395
0.68627048 0.040439766 0.053975165
0.68628186 0.041065875 0.053976934
0.68699735 0.041634243 0.05469631
0.68700868 0.042258758 0.054698076
0.68772405 0.042822346 0.055417433
0.68773532 0.043445267 0.055419195
0.68774664 0.044068187 0.055420958
0.68846196 0.044625405 0.056140322
0.68847322 0.045246731 0.056142077
0.68848449 0.045868061 0.056143835
0.68919963 0.046418905 0.056863159
0.68921089 0.047038641 0.05686491
0.68922216 0.047658376 0.056866664
0.68993717 0.048202846 0.057585992
0.68994844 0.048820987 0.057587739
0.69066334 0.049360681 0.058307029
0.69067454 0.049977228 0.058308773
