# .PCD v0.7 - Point Cloud Data file format
VERSION 0.7
FIELDS x y z
SIZE 4 4 4
TYPE F F F
COUNT 1 1 1
WIDTH 1407
HEIGHT 1
VIEWPOINT 0 0 0 1 0 0 0
POINTS 1407
DATA ascii
0.57370424 0.22510883 0.13169615
0.57461375 0.22532378 0.13216884
0.57462627 0.22601362 0.1321708
0.57553571 0.22622375 0.13264349
0.57554823 0.22691199 0.13264543
0.57645756 0.22711737 0.13311809
0.57736689 0.22731955 0.13359077
0.57737935 0.22800459 0.13359271
0.57739174 0.22868966 0.13359465
0.57830095 0.22888547 0.13406728
0.57831335 0.22956893 0.1340692
0.57832575 0.23025239 0.13407114
0.57833815 0.23093587 0.13407308
0.5783506 0.23161931 0.13407502
0.578363 0.23230277 0.13407694
0.5783754 0.23298624 0.13407888
0.5783878 0.23366971 0.13408081
0.57750374 0.23485516 0.13361208
0.5775162 0.2355402 0.13361402
0.57752866 0.23622526 0.13361596
0.57754105 0.23691031 0.13361789
0.57755351 0.23759535 0.13361983
0.57756597 0.23828043 0.13362177
0.57757843 0.23896548 0.1336237
0.57759082 0.23965053 0.13362564
0.57760328 0.24033557 0.13362758
0.57761574 0.24102065 0.13362952
0.57673192 0.24222362 0.13316081
0.57674444 0.24291027 0.13316275
0.57316983 0.2214192 0.13067657
0.5731824 0.22211221 0.13067853
0.57319498 0.22280523 0.13068049
0.57320756 0.22349824 0.13068245
0.57411623 0.22371957 0.1311564
0.57412881 0.224411 0.13115837
0.57414132 0.22510241 0.13116032
0.57504988 0.22531737 0.13163425
0.57506239 0.22600719 0.1316362
0.57597083 0.22621736 0.13211012
0.57598335 0.2269056 0.13211207
0.57689166 0.22711098 0.13258596
0.57690412 0.22779764 0.13258791
0.57781243 0.22799823 0.13306181
0.57782483 0.22868329 0.13306375
0.57873303 0.22887912 0.13353762
0.57874542 0.22956258 0.13353954
0.57875782 0.23024604 0.13354148
0.57877028 0.23092952 0.13354342
0.57878268 0.23161297 0.13354535
0.57879508 0.23229642 0.13354728
0.57880747 0.23297989 0.13354921
0.57792437 0.23416373 0.13307925
0.57793683 0.23484878 0.13308118
0.57794929 0.23553383 0.13308312
0.57796174 0.2362189 0.13308506
0.57797414 0.23690395 0.13308699
0.5779866 0.23758899 0.13308893
0.57799906 0.23827407 0.13309087
0.57711613 0.23947065 0.13262092
0.57712865 0.24015729 0.13262285
0.57714111 0.24084395 0.1326248
0.57715356 0.2415306 0.13262674
0.57716602 0.24221724 0.13262868
0.57717854 0.24290389 0.13263063
0.57362056 0.22210577 0.13014147
0.57363313 0.22279879 0.13014342
0.57364571 0.2234918 0.13014539
0.57455337 0.22371314 0.13062057
0.57456589 0.22440457 0.13062254
0.57457846 0.22509599 0.13062449
0.57548594 0.22531097 0.13109964
0.57549852 0.22600079 0.13110159
0.57551104 0.22669064 0.13110355
0.57641846 0.22689921 0.1315787
0.57732576 0.2271046 0.13205384
0.57733822 0.22779125 0.13205577
0.57824552 0.22799186 0.13253091
0.57825792 0.22867693 0.13253285
0.57827038 0.22936198 0.13253479
0.5791775 0.22955623 0.1330099
0.5791899 0.23023969 0.13301182
0.57920235 0.23092316 0.13301376
0.57921475 0.23160662 0.13301569
0.57922715 0.23229007 0.13301761
0.57923955 0.23297355 0.13301955
0.57835746 0.23415737 0.13254835
0.57836992 0.23484242 0.13255028
0.57838237 0.23552746 0.13255222
0.57839483 0.23621254 0.13255416
0.57840723 0.23689759 0.1325561
0.57841969 0.23758262 0.13255803
0.57753778 0.23877764 0.13208684
0.57755023 0.23946427 0.1320888
0.57756275 0.24015091 0.13209073
0.57757521 0.24083757 0.13209267
0.57758766 0.24152422 0.13209462
0.57670593 0.24272874 0.13162348
0.57671845 0.24341699 0.13162541
0.57405865 0.22209933 0.12960438
0.57407123 0.22279236 0.12960635
0.57408386 0.22348537 0.1296083
0.57499045 0.22370671 0.13008474
0.57500303 0.22439815 0.13008669
0.5750156 0.22508956 0.13008864
0.57502812 0.22578101 0.13009061
0.57593459 0.22599438 0.130567
0.57594717 0.22668421 0.13056894
0.57685351 0.22689281 0.13104534
0.57775986 0.22709823 0.1315217
0.57777232 0.22778487 0.13152365
0.57778478 0.22847153 0.13152559
0.57869101 0.22867057 0.13200195
0.57870346 0.22935562 0.13200389
0.57960957 0.22954988 0.13248023
0.57962203 0.23023334 0.13248216
0.57963443 0.23091681 0.13248409
0.57964683 0.23160025 0.13248603
0.57965922 0.23228373 0.13248795
0.57967168 0.2329672 0.13248989
0.57879055 0.23415101 0.13201745
0.578803 0.23483606 0.13201939
0.57881546 0.23552109 0.13202132
0.57882792 0.23620617 0.13202326
0.57884037 0.23689122 0.1320252
0.57795942 0.2380846 0.13155277
0.57797188 0.23877126 0.13155472
0.57798433 0.23945789 0.13155666
0.57799685 0.24014454 0.1315586
0.57711607 0.24134587 0.13108622
0.57712853 0.24203412 0.13108815
0.57624787 0.24324024 0.13061576
0.57536721 0.24444953 0.13014339
0.57450938 0.22278592 0.12906928
0.57541502 0.22300886 0.12954696
0.57542759 0.22370028 0.12954891
0.57544017 0.22439171 0.12955086
0.57545269 0.22508314 0.12955283
0.57546526 0.22577459 0.12955478
0.57637072 0.22598797 0.13003239
0.57638323 0.22667781 0.13003434
0.57728863 0.22688642 0.13051197
0.57730114 0.22757466 0.13051392
0.57820642 0.22777849 0.13099152
0.57821888 0.22846514 0.13099346
0.57912409 0.2286642 0.13147105
0.57913655 0.22934926 0.13147299
0.57914901 0.23003429 0.13147493
0.5800541 0.23022699 0.13195249
0.5800665 0.23091047 0.13195443
0.5800789 0.23159391 0.13195637
0.5800913 0.23227738 0.13195829
0.57921124 0.23345958 0.13148461
0.57922369 0.23414464 0.13148655
0.57923609 0.23482969 0.13148849
0.57924855 0.23551473 0.13149042
0.57836854 0.23670493 0.13101676
0.57838106 0.23739156 0.1310187
0.57839352 0.23807821 0.13102065
0.57840598 0.23876488 0.13102259
0.57752615 0.239963 0.13054895
0.57753867 0.24065123 0.13055089
0.5766589 0.24185415 0.13007726
0.5757792 0.24306026 0.12960365
0.57579178 0.24375169 0.12960561
0.57491219 0.24496257 0.129132
0.57403266 0.24617663 0.12865841
0.57585216 0.22300243 0.12901111
0.57586473 0.22369386 0.12901308
0.57587725 0.22438529 0.12901503
0.57588983 0.22507672 0.12901698
0.5759024 0.22576816 0.12901893
0.57680684 0.22598156 0.1294978
0.57681936 0.2266714 0.12949975
0.57683188 0.22736122 0.1295017
0.57773626 0.22756827 0.12998055
0.57774878 0.22825651 0.1299825
0.57865298 0.22845876 0.13046132
0.57866549 0.22914541 0.13046327
0.57708251 0.24115792 0.12954071
0.57620376 0.24236241 0.12906587
0.57532513 0.24357009 0.12859102
0.57444656 0.24478096 0.12811618
0.57632697 0.22507028 0.12848115
0.57633948 0.22576174 0.1284831
0.57724297 0.22597516 0.1289632
0.57725549 0.22666499 0.12896515
0.577268 0.22735481 0.12896709
0.57817137 0.22756188 0.12944719
0.57818383 0.22825012 0.12944913
0.57908708 0.22845238 0.1299292
0.57575065 0.24287063 0.12805198
0.57487309 0.24407989 0.1275759
0.57769161 0.22665858 0.12843055
0.57770413 0.2273484 0.1284325
0.57771665 0.22803825 0.12843445
0.57861894 0.22824372 0.12891577
0.57863146 0.22893195 0.12891771
0.57953364 0.22913265 0.129399
0.57441038 0.24389344 0.12655637
0.57267004 0.24702089 0.12560375
0.57179362 0.24824128 0.12512647
0.5781402 0.22734199 0.12789789
0.57815278 0.22803184 0.12789984
0.57816529 0.22872166 0.12790179
0.57817781 0.2294115 0.12790374
0.57907909 0.22961381 0.12838629
0.5730741 0.2449162 0.1250558
0.57221133 0.2468328 0.12457925
0.57222408 0.24753378 0.12458123
0.57134867 0.24875575 0.12410273
0.57176733 0.24734408 0.12355428
0.57178009 0.24804665 0.12355627
0.57179284 0.24874923 0.12355826
0.57219875 0.24663496 0.12300782
0.5722115 0.24733755 0.1230098
0.57222426 0.24804012 0.12301179
0.57223701 0.2487427 0.12301378
0.57175773 0.24714461 0.12197912
0.57177055 0.24784878 0.12198111
0.5717833 0.24855295 0.1219831
0.57179612 0.24925712 0.12198509
0.57220292 0.24713807 0.12143341
0.57221574 0.24784224 0.1214354
0.57222849 0.24854641 0.12143739
0.57312536 0.24872963 0.12192483
0.57264811 0.24713153 0.1208877
0.57266086 0.2478357 0.12088969
0.57267368 0.24853987 0.12089168
0.57268643 0.24924403 0.12089367
0.5730933 0.24712498 0.12034199
0.57310605 0.24782915 0.12034398
0.57311887 0.24853332 0.12034597
0.57313162 0.24923749 0.12034795
0.57353842 0.24711844 0.11979627
0.57355124 0.24782261 0.11979826
0.57356405 0.24852678 0.11980025
0.57357681 0.24923095 0.11980224
0.57398361 0.2471119 0.11925056
0.57487655 0.24729837 0.11974294
0.57400918 0.24852024 0.11925454
0.574022 0.24922441 0.11925653
0.5744288 0.24710535 0.11870485
0.57444161 0.24780951 0.11870684
0.57445437 0.2485137 0.11870883
0.57446718 0.24921787 0.11871082
0.57488674 0.24780297 0.11816113
0.57489955 0.24850714 0.11816312
0.57491237 0.24921131 0.11816511
0.57531917 0.24709226 0.11761342
0.57533193 0.24779643 0.11761542
0.57534474 0.2485006 0.11761741
0.5753575 0.24920477 0.1176194
0.5757643 0.24708572 0.11706771
0.57577711 0.24778989 0.11706971
0.57491386 0.24901327 0.11657639
0.57492667 0.24971904 0.11657839
0.57620949 0.24707918 0.116522
0.5762223 0.24778335 0.11652399
0.57536006 0.24900672 0.11602944
0.57537287 0.24971248 0.11603144
0.57665467 0.24707264 0.11597629
0.57666749 0.24777681 0.11597828
0.57580626 0.24900016 0.11548249
0.57581908 0.24970593 0.11548449
0.57709986 0.2470661 0.11543058
0.57711262 0.24777026 0.11543257
0.57712543 0.24847443 0.11543456
0.57626528 0.24969937 0.11493754
0.57753223 0.24635537 0.11488287
0.57754505 0.24705955 0.11488486
0.5775578 0.24776372 0.11488685
0.57757062 0.24846789 0.11488885
0.57671142 0.24969281 0.1143906
0.57797742 0.24634883 0.11433716
0.57799023 0.24705301 0.11433915
0.57800299 0.24775718 0.11434115
0.5780158 0.24846135 0.11434314
0.57715762 0.24968624 0.11384365
0.5792672 0.24442278 0.11429022
0.57927996 0.24512535 0.1142922
0.57842261 0.24634229 0.11379144
0.57930547 0.24653052 0.11429618
0.57844818 0.24775064 0.11379543
0.57846099 0.24845481 0.11379742
0.57847375 0.24915898 0.11379941
0.58058047 0.24390511 0.11424971
0.57972407 0.24511883 0.11374772
0.57973689 0.2458214 0.11374971
0.57974964 0.24652399 0.1137517
0.5797624 0.24722657 0.11375368
0.57977515 0.24792914 0.11375567
0.57978791 0.24863172 0.11375766
0.58019382 0.24651746 0.11320722
0.58020657 0.24722004 0.11320921
0.58021933 0.24792261 0.11321119
0.58023208 0.24862519 0.11321318
0.58063799 0.24651094 0.11266275
0.58065075 0.24721351 0.11266473
0.58153045 0.24739701 0.11317314
0.58067626 0.24861866 0.11266871
0.58190995 0.24388558 0.11261998
0.58194816 0.24598853 0.11262593
0.58196086 0.24668951 0.11262792
0.58197361 0.24739049 0.1126299
0.58112043 0.24861214 0.11212423
0.58235312 0.24387906 0.11207674
0.58236587 0.24458005 0.11207872
0.58237857 0.24528103 0.11208071
0.58239132 0.24598202 0.11208269
0.58240402 0.246683 0.11208467
0.58241677 0.24738398 0.11208665
0.58242953 0.24808496 0.11208864
0.58278352 0.24317156 0.11153151
0.58193219 0.24438362 0.11102335
0.58280903 0.24457353 0.11153547
0.58282173 0.24527451 0.11153746
0.58197045 0.24649136 0.11102931
0.58284718 0.24667649 0.11154143
0.58285993 0.24737747 0.11154341
0.58200878 0.24859908 0.11103527
0.58237636 0.24437709 0.11047888
0.58325219 0.24456702 0.11099223
0.58240187 0.24578224 0.11048285
0.58241463 0.24648483 0.11048484
0.58242738 0.24718741 0.11048682
0.58244014 0.24788998 0.11048881
0.58245289 0.24859256 0.1104908
0.58282053 0.24437055 0.1099344
0.58283329 0.24507314 0.10993639
0.58284605 0.24577571 0.10993837
0.5828588 0.2464783 0.10994036
0.58287156 0.24718088 0.10994235
0.58288431 0.24788345 0.10994433
0.58289707 0.24858603 0.10994632
0.584113 0.24315202 0.10990179
0.58326471 0.24436402 0.10938992
0.58327746 0.2450666 0.10939191
0.58329022 0.24576917 0.10939389
0.58330297 0.24647178 0.10939588
0.58331573 0.24717435 0.10939787
0.58246756 0.24839592 0.10888601
0.58248037 0.24910009 0.10888801
0.58454347 0.24244453 0.10935656
0.58369613 0.24365492 0.10884346
0.58370888 0.2443575 0.10884545
0.58286154 0.24557269 0.10833234
0.58287436 0.24627686 0.10833433
0.58288717 0.24698104 0.10833632
0.58289993 0.24768521 0.10833831
0.58205283 0.24890836 0.10782524
0.58206564 0.24961412 0.10782724
0.58412749 0.24294581 0.10829699
0.58328116 0.24415782 0.10778264
0.58329397 0.24486198 0.10778463
0.58244771 0.24607874 0.10727032
0.58246052 0.24678451 0.1072723
0.58247334 0.24749027 0.1072743
0.58248615 0.24819604 0.1072763
0.58164006 0.24942076 0.10676198
0.58165294 0.25012812 0.10676398
0.58371353 0.2434471 0.10723494
0.58286828 0.24466066 0.10671937
0.58288109 0.24536642 0.10672137
0.58289391 0.24607219 0.10672337
0.58290672 0.24677795 0.10672536
0.58206153 0.24799949 0.1062098
0.5820744 0.24870685 0.1062118
0.58122933 0.24993315 0.10569628
0.5812422 0.25064209 0.10569828
0.58245736 0.24516349 0.10565362
0.58247018 0.24587083 0.10565562
0.58163893 0.24779969 0.10514084
0.58165181 0.24850866 0.10514285
0.58166468 0.24921761 0.10514485
0.58082068 0.25044549 0.10462809
0.58169043 0.2506355 0.10514886
0.58204848 0.24566627 0.10458541
0.58207422 0.24708417 0.10458943
0.58123112 0.24830726 0.10407142
0.58124405 0.2490178 0.10407342
0.58125699 0.24972834 0.10407543
0.58126986 0.2504389 0.10407744
0.58128279 0.25114942 0.10407945
0.58166742 0.24759011 0.10351875
0.58082539 0.24881478 0.1029995
0.58083832 0.24952693 0.10300151
0.58085126 0.25023907 0.10300352
0.58086419 0.2509512 0.10300554
0.58087713 0.25166333 0.10300756
0.58040863 0.24860854 0.10192312
0.58042163 0.24932227 0.10192513
0.58043456 0.250036 0.10192715
0.58044755 0.25074974 0.10192917
0.58046049 0.25146347 0.10193119
0.58132732 0.25165671 0.10245567
0.58000684 0.24911442 0.10084626
0.58001983 0.24982975 0.10084828
0.58088577 0.25002939 0.10137403
0.58089876 0.25074309 0.10137605
0.5809117 0.25145683 0.10137807
0.58092469 0.25217056 0.10138009
0.58045912 0.24910778 0.1002919
0.58047211 0.24982311 0.10029393
0.58048511 0.25053844 0.10029595
0.58049804 0.25125375 0.10029797
0.58136296 0.25145021 0.10082494
0.5813759 0.25216392 0.10082696
0.58004731 0.24889669 0.099209331
0.58006036 0.2496136 0.099211358
0.58092433 0.24981646 0.099739574
0.58093733 0.25053179 0.0997416
0.58095032 0.25124711 0.09974362
0.58181417 0.25144356 0.10027183
0.5818271 0.2521573 0.10027385
0.58048755 0.24817312 0.098651715
0.58050054 0.24889003 0.098653741
0.5805136 0.24960694 0.098655768
0.58137655 0.24980982 0.099185221
0.58138955 0.25052515 0.09918724
0.58140254 0.25124046 0.099189267
0.58226538 0.25143695 0.099718705
0.58227837 0.25215065 0.099720724
0.58095378 0.24888337 0.098098151
0.58096683 0.24960028 0.098100178
0.58182877 0.24980317 0.09863086
0.58184177 0.2505185 0.09863288
0.58185476 0.25123382 0.098634906
0.58186775 0.25194913 0.098636925
0.58272958 0.25214404 0.099167608
0.58142006 0.24959362 0.097544596
0.58228099 0.24979652 0.098076507
0.58229399 0.25051185 0.098078534
0.58230698 0.25122717 0.098080553
0.58231997 0.25194249 0.09808258
0.58318079 0.25213739 0.098614492
0.58273321 0.24978986 0.097522154
0.58274621 0.25050521 0.097524174
0.5827592 0.25122052 0.0975262
0.5827722 0.25193584 0.097528219
0.58278519 0.25265118 0.097530246
0.58233953 0.25029722 0.096435443
0.58235258 0.25101414 0.096437469
0.58321142 0.25121388 0.096971847
0.58322442 0.25192919 0.096973866
0.58323741 0.25264454 0.096975893
0.58279276 0.25029054 0.095879845
0.58365065 0.25049192 0.096415468
0.58281881 0.25172439 0.095883906
0.58367664 0.25192255 0.096419513
0.58368963 0.25263789 0.096421532
0.58324599 0.2502839 0.095324263
0.58325905 0.25100082 0.09532629
0.58327204 0.25171772 0.095328316
0.58328509 0.25243464 0.095330343
0.58329809 0.25315157 0.095332369
0.58369923 0.25027722 0.094768673
0.58371228 0.25099415 0.0947707
0.58372527 0.25171107 0.094772726
0.58373833 0.25242797 0.094774753
0.58375132 0.25314489 0.094776779
0.58332366 0.25150302 0.093677804
0.58417851 0.25170439 0.094217137
0.58419156 0.25242132 0.094219163
0.58420455 0.25313824 0.09422119
0.58377784 0.25149634 0.093120977
0.5837909 0.25221485 0.093123011
0.58380395 0.25293335 0.093125045
0.58465779 0.25313157 0.0936656
0.58423209 0.25148967 0.092564158
0.58424515 0.25220817 0.092566185
0.5842582 0.25292668 0.092568219
0.58511102 0.25312492 0.093110017
0.58553821 0.25168443 0.092550367
0.58555126 0.25240132 0.092552401
0.58556426 0.25311825 0.092554428
0.58599144 0.25167775 0.091994777
0.5860045 0.25239468 0.091996804
0.58601749 0.2531116 0.091998838
0.58644468 0.25167111 0.091439188
0.58645773 0.252388 0.091441214
0.58730745 0.2525847 0.091986701
0.56081498 0.025471978 0.076043658
0.56082875 0.026230318 0.076045804
0.56084257 0.026988657 0.076047949
0.56085634 0.027746998 0.076050095
0.56172866 0.029242113 0.076600477
0.40394565 0.090333804 -0.025905833
0.40312165 0.091499247 -0.026448695
0.40314087 0.092557095 -0.026445704
0.40231696 0.09372732 -0.026988551
0.40233621 0.094786771 -0.026985556
0.40235546 0.095846213 -0.026982559
0.40321773 0.096788503 -0.026433736
0.58774668 0.25186273 0.091430321
0.58775967 0.25257805 0.09143234
0.56043667 0.024718583 0.074906446
0.56045049 0.025478514 0.074908599
0.56130821 0.026223272 0.075458117
0.56132197 0.026981611 0.075460255
0.56133574 0.027739951 0.075462401
0.56219333 0.028478336 0.076011881
0.56220704 0.029235084 0.076014027
0.56306452 0.029968688 0.076563492
0.56307822 0.030723842 0.076565623
0.40459424 0.089267731 -0.026727384
0.40377122 0.090431564 -0.027271487
0.40379041 0.091489419 -0.027268495
0.40296751 0.092658028 -0.027812583
0.40298674 0.093717471 -0.027809586
0.40300599 0.094776921 -0.027806591
0.40302524 0.095836364 -0.027803594
0.4038865 0.096778676 -0.027253537
0.4055897 0.097599074 -0.026156431
0.58821189 0.2525714 0.090877987
0.56090331 0.023951588 0.074315377
0.56091714 0.024711521 0.074317522
0.56093091 0.025471454 0.074319676
0.56178761 0.026216226 0.074870422
0.56180137 0.026974566 0.074872568
0.56181514 0.027732905 0.074874714
0.56267172 0.028471306 0.075425431
0.56268549 0.029228052 0.075427569
0.56354195 0.029961672 0.075978272
0.56355566 0.030716825 0.07598041
0.56441206 0.031445667 0.076531112
0.56442577 0.032199226 0.076533243
0.56443942 0.032952785 0.076535374
0.40694448 0.089045979 -0.026449265
0.40528119 0.09031418 -0.027542967
0.40530038 0.091370434 -0.027539982
0.40531954 0.092426695 -0.027536994
0.40533873 0.093482949 -0.027534006
0.40535793 0.094539218 -0.02753102
0.40621814 0.095479943 -0.026979731
0.40707839 0.096417479 -0.02642842
0.40793851 0.097351842 -0.025877148
0.56138372 0.023944527 0.073726453
0.56139755 0.02470446 0.073728599
0.56141132 0.025464393 0.073730752
0.56226707 0.026209179 0.074282736
0.56228083 0.02696752 0.074284881
0.5631364 0.027707528 0.074836835
0.56315011 0.028464274 0.074838974
0.56316388 0.029221021 0.074841112
0.56317765 0.029977767 0.074843258
0.56403309 0.030709809 0.075395189
0.56488848 0.031438664 0.075947128
0.56490213 0.032192226 0.075949259
0.56491584 0.032945786 0.07595139
0.56492954 0.033699345 0.075953521
0.56494319 0.034452904 0.075955652
0.40936694 0.093023822 -0.026154362
0.56183654 0.022417601 0.07313323
0.56185037 0.023177534 0.073135383
0.56186414 0.023937467 0.073137529
0.56187797 0.024697399 0.073139675
0.56189179 0.025457332 0.073141828
0.56274647 0.026202135 0.073695049
0.56276023 0.026960474 0.073697187
0.562774 0.027718812 0.073699333
0.56362855 0.028457243 0.074252516
0.56364226 0.029213989 0.074254662
0.56365603 0.029970735 0.0742568
0.56451046 0.030702792 0.074809968
0.56536484 0.031431664 0.075363137
0.56537855 0.032185223 0.075365268
0.56539226 0.032938782 0.075367399
0.56540591 0.033692345 0.075369529
0.56626016 0.034413248 0.075922668
0.56543332 0.035199463 0.075373791
0.56544697 0.035953023 0.075375922
0.56546068 0.036706585 0.075378053
0.56547439 0.037460145 0.075380184
0.56231701 0.02241054 0.072544307
0.56233078 0.023170473 0.072546452
0.56234461 0.023930406 0.072548606
0.56235838 0.024690339 0.072550751
0.5632121 0.025436748 0.073105209
0.56322587 0.026195088 0.073107354
0.56323963 0.026953427 0.0731095
0.5632534 0.027711768 0.073111646
0.56410694 0.028450212 0.073666066
0.56412071 0.029206958 0.073668204
0.56413448 0.029963704 0.073670343
0.5649879 0.030695776 0.074224748
0.56584126 0.03142466 0.074779153
0.56585497 0.032178223 0.074781284
0.56586862 0.032931782 0.074783415
0.56588233 0.033685341 0.074785545
0.56589603 0.034438901 0.074787676
0.56590968 0.035192464 0.074789807
0.56592339 0.035946023 0.074791938
0.5659371 0.036699582 0.074794069
0.56595075 0.037453141 0.0747962
0.56512505 0.03824731 0.074246101
0.56513876 0.039002463 0.074248239
0.56279743 0.02240348 0.071955375
0.5628112 0.023163412 0.071957529
0.56282502 0.023923345 0.071959674
0.56283885 0.024683278 0.071961828
0.56285262 0.025443211 0.071963973
0.56370533 0.026188042 0.072519667
0.56371909 0.026946381 0.072521806
0.56373286 0.027704721 0.072523952
0.56458539 0.02844318 0.073079608
0.5645991 0.029199926 0.073081747
0.56545156 0.029933607 0.073637389
0.56546527 0.030688761 0.07363952
0.56631768 0.03141766 0.074195169
0.56633133 0.03217122 0.0741973
0.56634504 0.032924779 0.074199431
0.56719726 0.03364731 0.074755035
0.56637239 0.034431901 0.074203692
0.56722462 0.035151243 0.07475929
0.56639981 0.035939019 0.074207954
0.56641346 0.036692582 0.074210085
0.56642717 0.037446141 0.074212216
0.56644082 0.0381997 0.074214347
0.56561613 0.038995445 0.073663011
0.5656299 0.039750598 0.07366515
0.56242603 0.021642013 0.070809521
0.56327784 0.022396419 0.071366452
0.56329167 0.023156352 0.071368605
0.56330544 0.023916284 0.071370751
0.56331927 0.024676217 0.071372904
0.56417096 0.025422657 0.071929827
0.56418473 0.026180996 0.071931973
0.56419849 0.026939336 0.071934119
0.56421226 0.027697675 0.071936265
0.56506377 0.028436149 0.072493151
0.56507754 0.029192897 0.072495289
0.565929 0.029926591 0.073052168
0.5659427 0.030681744 0.073054306
0.56679404 0.031410657 0.073611178
0.56680775 0.03216422 0.073613308
0.56765902 0.032888357 0.074170157
0.56683511 0.033671338 0.07361757
0.56684881 0.034424897 0.073619701
0.56769997 0.035144255 0.074176542
0.56771362 0.035896223 0.074178666
0.56688988 0.036685579 0.073626094
0.56690353 0.037439138 0.073628224
0.56691724 0.038192701 0.073630355
0.56693095 0.03894626 0.073632486
0.5669446 0.039699819 0.073634617
0.56695831 0.040453378 0.073636748
0.56613469 0.041253891 0.073084198
0.56290746 0.021634938 0.07021936
0.56375825 0.022389358 0.070777528
0.56377208 0.023149291 0.070779681
0.56378585 0.023909224 0.070781827
0.56379968 0.024669157 0.07078398
0.56381351 0.025429089 0.070786126
0.56466413 0.026173951 0.071344286
0.56467789 0.02693229 0.071346432
0.56469166 0.027690629 0.07134857
0.56554222 0.028429119 0.071906701
0.56555593 0.029185865 0.071908839
0.56640637 0.029919574 0.072466947
0.56642008 0.030674728 0.072469085
0.56727046 0.031403657 0.073027194
0.56728417 0.032157216 0.073029324
0.56729782 0.032910779 0.073031455
0.56814808 0.033633336 0.073589534
0.56816173 0.034385301 0.073591664
0.56733888 0.035171457 0.073037848
0.56818902 0.035889234 0.073595911
0.56736624 0.036678579 0.07304211
0.56737995 0.037432138 0.07304424
0.56739366 0.038185697 0.073046371
0.56740731 0.038939256 0.073048502
0.56658471 0.039736569 0.072494708
0.56659842 0.040491719 0.072496846
0.56661212 0.041246872 0.072498977
0.56662583 0.042002026 0.072501116
0.56663954 0.04275718 0.072503254
0.56581712 0.043564044 0.071949497
0.56338888 0.021627862 0.069629207
0.56340271 0.022389388 0.06963136
0.56341654 0.023150913 0.069633514
0.56426632 0.023902163 0.070192903
0.56428009 0.024662096 0.070195049
0.56429392 0.025422027 0.070197202
0.56514359 0.026166905 0.070756592
0.56515735 0.026925243 0.070758738
0.56517112 0.027683584 0.070760883
0.56602061 0.028422087 0.071320243
0.56603438 0.029178834 0.071322381
0.5668838 0.029912557 0.071881726
0.56773317 0.030643094 0.072441079
0.56774688 0.031396654 0.07244321
0.56776053 0.032150216 0.07244534
0.56860977 0.032874383 0.073004656
0.56862348 0.033626348 0.073006779
0.56863713 0.034378316 0.07300891
0.56865078 0.035130281 0.073011033
0.56782895 0.035918016 0.072455995
0.56784266 0.036671575 0.072458126
0.56785637 0.037425134 0.072460257
0.56787002 0.038178697 0.072462387
0.56788373 0.038932256 0.072464518
0.56706208 0.03972955 0.071909487
0.56707579 0.040484704 0.071911626
0.5670895 0.041239858 0.071913756
0.56710327 0.041995011 0.071915895
0.56711698 0.042750165 0.071918033
0.5662955 0.043557014 0.071363039
0.56630927 0.044313762 0.071365185
0.56548792 0.045125391 0.070810206
0.58934975 0.25407851 0.084775738
0.56385648 0.02085926 0.069036894
0.56387031 0.021620786 0.069039047
0.56388414 0.022382313 0.0690412
0.56389797 0.023143839 0.069043353
0.56391186 0.023905365 0.069045506
0.56476051 0.024655035 0.069606125
0.56477433 0.025414968 0.069608279
0.56478816 0.026174901 0.069610424
0.56563675 0.026918197 0.070171051
0.56565052 0.027676538 0.070173196
0.56649905 0.028415056 0.070733786
0.56651276 0.029171802 0.070735924
0.56736118 0.029905541 0.071296506
0.56820959 0.030636093 0.071857095
0.56822324 0.031389654 0.071859226
0.56907153 0.032115426 0.072419778
0.56908518 0.032867394 0.072421908
0.56909883 0.033619363 0.072424032
0.56911248 0.034371328 0.072426163
0.56912619 0.035123296 0.072428286
0.56913984 0.035875261 0.072430409
0.56831908 0.036664575 0.071874142
0.56833273 0.037418135 0.071876273
0.56834644 0.038171694 0.071878403
0.56836015 0.038925253 0.071880534
0.5683738 0.039678816 0.071882665
0.56755322 0.040477686 0.071326405
0.56756693 0.041232839 0.071328536
0.56674641 0.042036492 0.070772305
0.56676018 0.042793237 0.070774443
0.56677395 0.043549985 0.070776589
0.56678766 0.044306729 0.070778728
0.56596732 0.045118347 0.070222519
0.56598109 0.045876686 0.070224665
0.56516081 0.046693083 0.069668449
0.58896625 0.25387016 0.083658606
0.58897936 0.25459185 0.083660647
0.56433791 0.020852186 0.068446733
0.56435174 0.021613711 0.068448886
0.56436563 0.022375237 0.068451039
0.56437945 0.023136763 0.068453193
0.56439328 0.023898289 0.068455346
0.56524098 0.024647973 0.069017202
0.56525475 0.025407907 0.069019355
0.56526858 0.02616784 0.069021501
0.56611615 0.026911153 0.069583356
0.56696367 0.027651278 0.07014519
0.56697744 0.028408024 0.070147336
0.5678249 0.029143373 0.070709154
0.5686723 0.029875532 0.071270972
0.56868595 0.030629093 0.071273103
0.56953329 0.031356473 0.071834899
0.56954694 0.032108441 0.07183703
0.56956059 0.032860409 0.071839154
0.56957424 0.033612374 0.071841285
0.56958789 0.034364343 0.071843408
0.56960154 0.035116307 0.071845531
0.56961519 0.035868276 0.071847662
0.56962889 0.036620241 0.071849786
0.56880915 0.037411131 0.071292289
0.56882286 0.038164694 0.071294419
0.56883651 0.038918253 0.07129655
0.56885022 0.039671812 0.071298681
0.5680306 0.040470671 0.070741184
0.56721109 0.041272715 0.070183717
0.56805807 0.041980978 0.070745453
0.56723857 0.042786207 0.070187993
0.56725234 0.043542951 0.070190132
0.56643295 0.04435296 0.069632687
0.56644672 0.045111299 0.069634825
0.56562746 0.04592609 0.06907738
0.56564122 0.046686023 0.069079526
0.56482208 0.047505587 0.068522103
0.56483591 0.048267115 0.068524256
0.58857155 0.25293535 0.082536936
0.58940941 0.25314176 0.083097272
0.58942252 0.25386345 0.083099313
0.58943558 0.25458515 0.083101355
0.56397247 0.020085851 0.067293435
0.5648194 0.02084511 0.067856573
0.56483322 0.021606635 0.067858726
0.56484705 0.022368161 0.067860879
0.56486088 0.023129687 0.067863032
0.56570756 0.023880981 0.068426132
0.56572139 0.024640914 0.068428278
0.56573516 0.025400845 0.068430431
0.56658185 0.026145766 0.068993524
0.56659561 0.026904106 0.068995669
0.56744212 0.027644247 0.06955874
0.56745583 0.028400993 0.069560878
0.56830227 0.029136356 0.070123933
0.56914866 0.02986853 0.070686989
0.56916237 0.030622091 0.070689119
0.57000864 0.031349488 0.071252152
0.57002228 0.032101452 0.071254276
0.57003599 0.032853421 0.071256407
0.57004964 0.033605389 0.07125853
0.57006329 0.034357354 0.071260661
0.57007694 0.035109323 0.071262784
0.57009059 0.035861287 0.071264908
0.57010424 0.036613256 0.071267039
0.56928557 0.037404131 0.070708297
0.56929922 0.03815769 0.070710428
0.56931293 0.038911249 0.070712559
0.56849432 0.039708503 0.070153825
0.56850803 0.040463656 0.070155963
0.56768954 0.041265681 0.069597259
0.56770325 0.042022429 0.069599397
0.56771702 0.042779174 0.069601536
0.56773078 0.043535922 0.069603674
0.56691241 0.044345915 0.069044992
0.56692618 0.045104254 0.069047138
0.56610787 0.045919031 0.068488456
0.56528968 0.046736985 0.067929797
0.5653035 0.047498513 0.06793195
0.56448531 0.048321255 0.067373283
0.5644992 0.049084373 0.067375444
0.58819193 0.25271901 0.081414841
0.58902878 0.25292864 0.081976406
0.58904195 0.25365195 0.081978455
0.58987874 0.25385675 0.08254002
0.58989185 0.25457844 0.082542062
0.56528699 0.020076508 0.067264259
0.56530082 0.020838033 0.067266412
0.56531465 0.021599559 0.067268565
0.56532848 0.022361087 0.067270719
0.56534231 0.023122612 0.067272872
0.56535614 0.023884138 0.067275032
0.56620181 0.024633853 0.067839354
0.56621563 0.025393786 0.067841507
0.56706125 0.026138721 0.068405837
0.56707501 0.02689706 0.068407983
0.56792051 0.027637215 0.068972282
0.568766 0.028374186 0.069536574
0.56961137 0.029107969 0.070100874
0.56962508 0.029861528 0.070103005
0.57047039 0.030590532 0.070667274
0.57048404 0.031342499 0.070669398
0.57049769 0.032094467 0.070671529
0.57134295 0.032817099 0.071235798
0.57135653 0.033567473 0.071237914
0.5705387 0.034350369 0.070677906
0.57055235 0.035102334 0.07068003
0.570566 0.035854302 0.070682161
0.56974828 0.036643568 0.070122182
0.56976193 0.037397131 0.070124313
0.56977564 0.03815069 0.070126444
0.56895798 0.038946331 0.069566473
0.56897169 0.039701484 0.069568604
0.56815422 0.040501904 0.069008663
0.56816792 0.041258652 0.069010802
0.56818169 0.0420154 0.06901294
0.56736428 0.04282219 0.068453014
0.56737804 0.043580528 0.06845516
0.56739181 0.044338867 0.068457305
0.56657451 0.045152035 0.067897379
0.56575727 0.045968387 0.067337483
0.5657711 0.046729911 0.067339636
0.56495392 0.047551043 0.066779733
0.56496775 0.048314165 0.066781893
0.56498164 0.049077284 0.066784047
0.56416458 0.049904786 0.06622418
0.58780104 0.25177297 0.080288202
0.58863699 0.2519874 0.080851033
0.58865017 0.25271228 0.080853082
0.58866334 0.25343716 0.080855131
0.58949918 0.25364521 0.081417926
0.59033501 0.25385007 0.081980728
0.59034812 0.25457174 0.081982769
0.56492352 0.01930855 0.066108488
0.56576842 0.020069433 0.066674098
0.56578225 0.020830959 0.066676252
0.56579608 0.021592485 0.066678405
0.56580991 0.02235401 0.066680558
0.56582373 0.023115536 0.066682711
0.56583756 0.023877062 0.066684864
0.56668222 0.024626791 0.067250431
0.56669605 0.025386725 0.067252576
0.56754065 0.026131675 0.067818142
0.56838518 0.026873438 0.068383686
0.56839895 0.027630186 0.068385825
0.56924337 0.028367169 0.068951353
0.57008779 0.029100968 0.069516882
0.57093215 0.029831579 0.070082396
0.5709458 0.030583546 0.07008452
0.57179004 0.031309377 0.070650034
0.57180369 0.032059751 0.07065215
0.57181728 0.032810125 0.070654273
0.57183093 0.0335605 0.070656396
0.57101405 0.03434338 0.070095152
0.57102776 0.035095349 0.070097283
0.57104141 0.035847314 0.070099406
0.57022464 0.036636569 0.069538191
0.57023835 0.037390128 0.069540322
0.57025206 0.038143687 0.069542453
0.56943542 0.038939316 0.068981253
0.56944913 0.039694469 0.068983383
0.5686326 0.040494874 0.068422206
0.56864637 0.041251618 0.068424344
0.56782991 0.042056806 0.067863181
0.56784368 0.042815145 0.067865327
0.56785744 0.043573484 0.067867465
0.5670411 0.044385042 0.067306302
0.56705493 0.045144975 0.067308456
0.5662387 0.045961309 0.066747323
0.56625253 0.046722837 0.066749476
0.56543636 0.047543954 0.066188335
0.56545019 0.048307076 0.066190496
0.56463414 0.049132969 0.065629385
0.56464803 0.049897678 0.065631546
0.58742529 0.25154862 0.079161145
0.58743852 0.25227669 0.079163201
0.58827353 0.2524927 0.079727255
0.58910847 0.25270554 0.080291316
0.58912164 0.25343043 0.080293365
0.58995646 0.25363851 0.080857396
0.58996958 0.25436178 0.080859438
0.5908044 0.25456503 0.081423476
0.56540596 0.019301461 0.065517098
0.56624985 0.020062357 0.066083938
0.56626368 0.020823883 0.066086091
0.5662775 0.021585409 0.066088244
0.56629133 0.022346934 0.066090398
0.56630516 0.02310846 0.066092551
0.56631899 0.023869986 0.066094711
0.56716269 0.02461973 0.066661507
0.56800634 0.02536629 0.06722831
0.56802011 0.026124628 0.067230456
0.56886363 0.026866408 0.067797229
0.5697071 0.027604999 0.068363994
0.5705505 0.028340405 0.068930767
0.57056421 0.029093966 0.068932898
0.5714075 0.029824592 0.069499642
0.57142115 0.030576559 0.069501773
0.57226443 0.031302407 0.070068516
0.57227808 0.032052781 0.070070639
0.57229167 0.032803155 0.070072755
0.57230532 0.03355353 0.070074879
0.57148945 0.034336396 0.069512405
0.5715031 0.03508836 0.069514528
0.57151675 0.035840329 0.069516651
0.57070106 0.036629569 0.068954207
0.57071477 0.037383128 0.068956338
0.56989908 0.038177144 0.068393894
0.56991279 0.038932297 0.068396032
0.56909728 0.039731096 0.06783361
0.56911099 0.040487841 0.067835748
0.56829554 0.041291419 0.067273349
0.56830931 0.042049758 0.067275494
0.56832314 0.042808097 0.067277633
0.56750774 0.043618049 0.066715233
0.56752157 0.044377983 0.066717379
0.5667063 0.045192711 0.066155009
0.56672013 0.045954235 0.066157162
0.56590492 0.046773743 0.065594785
0.5659188 0.047536861 0.065596946
0.56510371 0.048361152 0.065034598
0.5651176 0.049125865 0.065036759
0.56430262 0.049954932 0.064474411
0.58705151 0.25132102 0.078031592
0.58706474 0.2520507 0.078033656
0.58789879 0.25226992 0.078598969
0.58791202 0.25299799 0.078601025
0.58874595 0.25321242 0.079166308
0.58957988 0.25342369 0.079731606
0.58959305 0.25414857 0.079733655
0.59042686 0.25435504 0.080298916
0.59043998 0.25507835 0.080300957
0.5658884 0.01929437 0.0649257
0.56590223 0.02005749 0.064927861
0.5667451 0.020816807 0.065495938
0.56675893 0.021578332 0.065498091
0.56677276 0.02233986 0.065500244
0.56678659 0.023101386 0.065502398
0.56762928 0.023852738 0.06607043
0.56764311 0.024612671 0.066072583
0.56848574 0.025359243 0.066640623
0.56849951 0.026117582 0.066642769
0.56934202 0.026859377 0.067210779
0.57018447 0.027597984 0.067778774
0.57102692 0.028333405 0.068346784
0.57186925 0.029065639 0.068914764
0.5718829 0.029817605 0.068916894
0.57272518 0.03054506 0.069484882
0.57273883 0.031295434 0.069486998
0.57275242 0.032045808 0.069489121
0.57276607 0.032796182 0.069491245
0.57277972 0.033546556 0.069493368
0.57196486 0.034329407 0.06892965
0.57197851 0.035081375 0.068931781
0.57116377 0.035869006 0.068368092
0.57117748 0.036622565 0.068370223
0.57119113 0.037376124 0.068372354
0.57037652 0.038170129 0.067808673
0.56956196 0.038967319 0.067245014
0.56957567 0.039724067 0.067247152
0.56958944 0.040480811 0.067249298
0.568775 0.041284375 0.066685654
0.56878877 0.042042714 0.0666878
0.56797439 0.042851057 0.066124156
0.56798816 0.043610986 0.066126309
0.5671739 0.044424109 0.065562695
0.56718773 0.045185633 0.065564848
0.56637353 0.046003535 0.065001234
0.56555939 0.046824623 0.064437643
0.56557328 0.047589332 0.064439803
0.56558716 0.048354048 0.064441964
0.56477314 0.049181506 0.06387838
0.56478703 0.049947813 0.063880548
0.58669299 0.25182149 0.076901652
0.58752602 0.25204393 0.077468187
0.58753932 0.25277358 0.07747025
0.58837229 0.25299123 0.0780368
0.58920527 0.25320569 0.078603312
0.58921844 0.25393218 0.078605369
0.59005135 0.25414184 0.079171889
0.59088415 0.25434834 0.079738386
0.59089726 0.25507161 0.079740427
0.56635696 0.018524162 0.06433215
0.56637084 0.019287281 0.064334311
0.56638467 0.020050399 0.064336464
0.56722653 0.020809732 0.064905778
0.56724036 0.021571258 0.064907931
0.56725419 0.022332784 0.064910084
0.56726801 0.023094309 0.064912237
0.56810975 0.023845676 0.065481506
0.56812352 0.024605609 0.06548366
0.56896514 0.025352197 0.066052936
0.56980669 0.026095599 0.066622183
0.5698204 0.026852345 0.066624321
0.5706619 0.027590968 0.067193553
0.57150328 0.028326403 0.0677628
0.57234466 0.029058652 0.068332016
0.57235831 0.029810619 0.06833414
0.57319957 0.030538088 0.068903364
0.57321322 0.031288464 0.06890548
0.57322681 0.032038838 0.068907604
0.57324046 0.032789212 0.068909727
0.57325411 0.033539586 0.06891185
0.57244027 0.034322422 0.068346903
0.57245392 0.035074387 0.068349026
0.57164019 0.035862003 0.067784108
0.57165384 0.036615565 0.067786239
0.57084018 0.037407961 0.067221314
0.57085389 0.038163114 0.067223452
0.57004035 0.038960285 0.066658556
0.57005411 0.039717034 0.066660702
0.56924063 0.040518988 0.066095822
0.5692544 0.041277327 0.066097967
0.56844097 0.042084061 0.065533087
0.5684548 0.042843994 0.065535232
0.5676415 0.043655507 0.064970382
0.56765532 0.044417031 0.064972535
0.56684208 0.045233328 0.064407676
0.56685597 0.045996446 0.064409837
0.56604284 0.046817515 0.063845016
0.56522977 0.047641777 0.06328018
0.56524366 0.048408084 0.063282348
0.56525761 0.049174387 0.063284516
0.56444466 0.050005015 0.062719718
0.58632314 0.25158906 0.075767167
0.58715528 0.25181469 0.076334953
0.58716851 0.25254595 0.076337017
0.5880006 0.25276679 0.076904789
0.58883262 0.25298446 0.077472568
0.58884585 0.25371251 0.077474624
0.58967775 0.25392541 0.078042373
0.59050959 0.2541351 0.07861013
0.59052277 0.25485998 0.078612179
0.59135455 0.2550649 0.079179905
0.5668394 0.018517071 0.06374076
0.56685328 0.01928019 0.063742913
0.56686711 0.020043308 0.063745074
0.56770796 0.020802656 0.064315617
0.56772178 0.021564182 0.06431777
0.56773567 0.022325708 0.064319924
0.56857634 0.023078684 0.064890437
0.56859016 0.023838617 0.064892583
0.56943077 0.024586812 0.065463096
0.5694446 0.02534515 0.065465242
0.57028508 0.026088567 0.066035725
0.57112557 0.026828798 0.066606201
0.57196599 0.027565841 0.067176677
0.5719797 0.028319402 0.067178808
0.57282001 0.029051665 0.067749262
0.57283372 0.029803632 0.067751385
0.57367396 0.030531116 0.068321846
0.57368761 0.03128149 0.06832397
0.5737012 0.032031864 0.068326086
0.57371485 0.032782238 0.068328209
0.57290196 0.033563469 0.067762025
0.57291561 0.034315433 0.067764148
0.57292932 0.035067402 0.067766272
0.57211655 0.035855003 0.067200124
0.5713039 0.036645789 0.066633962
0.57131761 0.037400942 0.0666361
0.57050502 0.038196512 0.066069961
0.57051879 0.038953256 0.066072106
0.56970626 0.039753601 0.065505989
0.56972003 0.04051194 0.065508135
0.56890762 0.041317068 0.06494201
0.56892145 0.042077001 0.064944163
0.5681091 0.042886905 0.064378068
0.56812292 0.043648433 0.064380221
0.56731069 0.044463117 0.063814133
0.56649852 0.045280989 0.063248061
0.56651241 0.046045698 0.063250221
0.56570029 0.04686835 0.062684156
0.56571418 0.047634654 0.062686324
0.56490219 0.048462085 0.062120281
0.56491613 0.049229983 0.062122453
0.56493008 0.049997881 0.062124625
0.56411821 0.050831683 0.061558597
0.58594185 0.25061896 0.074628107
0.5859552 0.25135344 0.074630186
0.58678645 0.25158224 0.075199232
0.58679974 0.2523151 0.075201303
0.58763081 0.25253916 0.075770319
0.5876441 0.25327042 0.075772382
0.58847511 0.25348967 0.076341383
0.58930612 0.25370574 0.076910391
0.590137 0.25391868 0.077479377
0.59015018 0.25464514 0.077481434
0.59098101 0.25485325 0.07805042
0.59181178 0.25505817 0.078619376
0.56648195 0.017744245 0.062577583
0.56732184 0.01850998 0.063149363
0.56733572 0.019273099 0.063151523
0.56734955 0.020036219 0.063153677
0.56818944 0.02079558 0.063725457
0.56820327 0.021557106 0.06372761
0.5682171 0.022318633 0.063729763
0.56905675 0.023071622 0.064301513
0.56907058 0.023831556 0.064303659
0.56991023 0.024579765 0.064875409
0.57074976 0.02532479 0.065447129
0.57076353 0.026081536 0.065449268
0.571603 0.026821781 0.06602098
0.57244241 0.027558839 0.066592693
0.57328176 0.028292712 0.067164384
0.57329541 0.029044678 0.067166515
0.57330906 0.029796645 0.067168638
0.57414836 0.030524144 0.067740329
0.57416195 0.03127452 0.067742452
0.5741756 0.032024894 0.067744575
0.57336372 0.032804515 0.067177147
0.57337737 0.03355648 0.06717927
0.57339102 0.034308448 0.067181401
0.57257926 0.03509444 0.066614002
0.57259297 0.035847999 0.066616133
0.57178128 0.036638774 0.066048741
0.5709697 0.037432734 0.065481372
0.57098341 0.038189478 0.06548351
0.57017189 0.038988218 0.064916156
0.57018572 0.039746556 0.064918302
0.56937426 0.040550075 0.06435094
0.56938803 0.041310009 0.064353086
0.56857669 0.042118303 0.063785754
0.56776541 0.042929787 0.063218422
0.56777924 0.043692909 0.063220575
0.56696808 0.044509169 0.062653273
0.56698197 0.045273885 0.062655434
0.56617081 0.046094928 0.062088124
0.56618476 0.046861231 0.062090293
0.56537372 0.04768705 0.061523013
0.56538767 0.048454951 0.061525181
0.56457675 0.04928555 0.060957916
0.56459069 0.050055042 0.060960092
0.5646047 0.050824534 0.060962267
0.58557594 0.25037852 0.07348866
0.58558929 0.25111455 0.073490739
0.58641952 0.25134662 0.074061014
0.58643287 0.25208104 0.074063092
0.58726305 0.25230828 0.074633367
0.58727634 0.25304115 0.074635439
0.58810639 0.25326362 0.075205684
0.58893645 0.25348291 0.075775914
0.58894968 0.25421256 0.075777978
0.58977962 0.25442708 0.076348223
0.59060949 0.25463837 0.076918438
0.59143931 0.25484651 0.077488653
0.59226906 0.25505146 0.078058846
0.5669654 0.017737139 0.061984956
0.56780428 0.018502891 0.062557966
0.56781816 0.019266009 0.062560126
0.56783199 0.020029128 0.062562287
0.56784588 0.020792248 0.06256444
0.5686847 0.021550031 0.063137449
0.56869853 0.022311557 0.063139603
0.56953722 0.023064561 0.063712589
0.56955099 0.023824494 0.063714735
0.57038963 0.024572719 0.064287715
0.57122821 0.025317758 0.064860679
0.57206666 0.026059611 0.065433621
0.57208037 0.026814764 0.06543576
0.57291883 0.027551837 0.066008709
0.57375717 0.028285725 0.066581637
0.57377082 0.029037692 0.06658376
0.57378447 0.029789658 0.066585883
0.57462275 0.030517172 0.067158811
0.57463634 0.031267546 0.067160934
0.57382542 0.032045562 0.066592269
0.57383913 0.032797527 0.066594392
0.57385278 0.033549495 0.066596523
0.57304198 0.034333877 0.066027887
0.57305568 0.03508744 0.066030018
0.572245 0.035876602 0.065461382
0.57225871 0.036631756 0.065463521
0.57144809 0.037425701 0.064894915
0.57063758 0.038222831 0.064326316
0.57065135 0.038981169 0.064328462
0.56984085 0.039783083 0.063759863
0.56985468 0.040543012 0.063762017
0.56904429 0.041349702 0.06319344
0.56823397 0.04215958 0.062624864
0.56824785 0.042922698 0.062627025
0.56743765 0.043737352 0.062058482
0.56745154 0.044502065 0.062060643
0.56664139 0.045321502 0.061492093
0.56665528 0.046087805 0.061494261
0.56584525 0.046912018 0.060925741
0.5658592 0.047679916 0.060927913
0.56504923 0.048508912 0.060359407
0.56506318 0.049278401 0.060361583
0.56425333 0.050112177 0.059793074
0.56426734 0.05088326 0.059795253
0.56428134 0.051654346 0.059797436
0.58522528 0.25087249 0.072348803
0.58605462 0.25110772 0.072920337
0.58606797 0.25184378 0.072922423
0.58689719 0.25207421 0.07349392
0.58691055 0.25280866 0.073495999
0.58773965 0.25303432 0.074067503
0.587753 0.25376716 0.074069574
0.58858198 0.25398806 0.074641049
0.58941096 0.25420579 0.075212516
0.59023988 0.25442031 0.07578399
0.59106874 0.25463164 0.076355435
0.59189755 0.25483978 0.076926894
0.59191072 0.25556466 0.076928943
0.56662476 0.01772739 0.060820214
0.56746274 0.018494748 0.061394487
0.56747663 0.019259458 0.061396651
0.56749052 0.020024171 0.061398812
0.56832832 0.020785157 0.06197305
0.56834221 0.021548275 0.061975211
0.56917995 0.022304481 0.06254945
0.57001764 0.023057502 0.063123666
0.57003146 0.023817433 0.063125812
0.57086903 0.024565674 0.063700028
0.57170659 0.025310727 0.064274222
0.5725441 0.026052596 0.064848401
0.57338154 0.026791276 0.065422595
0.57339519 0.027544836 0.065424725
0.57423252 0.028278738 0.065998882
0.57424623 0.029030705 0.066001013
0.57425988 0.029782671 0.066003136
0.57427353 0.030534638 0.066005267
0.57428718 0.031286605 0.066007391
0.57430083 0.032038573 0.066009514
0.57431448 0.032790542 0.066011645
0.57350469 0.033573318 0.065441772
0.5735184 0.034326877 0.065443903
0.57270867 0.035114434 0.064874031
0.57272238 0.035869587 0.064876162
0.57191277 0.036661923 0.064306319
0.57110322 0.037457444 0.063736483
0.57111698 0.038215786 0.063738629
0.57030749 0.039016087 0.063168794
0.57032132 0.03977602 0.06317094
0.56951189 0.0405811 0.062601134
0.56870258 0.041389368 0.062031318
0.56871641 0.04215249 0.062033474
0.56790721 0.042965535 0.061463688
0.5679211 0.043730248 0.061465852
0.56711191 0.044548076 0.060896061
0.5671258 0.045314379 0.060898229
0.56631672 0.046136986 0.060328472
0.56550777 0.046962775 0.059758723
0.56552172 0.047732268 0.059760902
0.56471276 0.048562843 0.059191149
0.56472677 0.049333926 0.059193328
0.56474078 0.050105013 0.059195507
0.563932 0.050941955 0.058625787
0.56394601 0.051714633 0.058627974
0.58567822 0.25012803 0.071775079
0.58569163 0.25086564 0.071777165
0.58570504 0.25160328 0.071779251
0.58653331 0.25183693 0.072352014
0.58654666 0.25257295 0.072354101
0.58737487 0.25280184 0.072926827
0.58820295 0.25302753 0.073499568
0.5882163 0.25376037 0.073501639
0.58904427 0.25398126 0.07407435
0.58905756 0.25471252 0.074076414
0.58988553 0.25492868 0.074649118
0.59071338 0.25514159 0.075221814
0.59154123 0.25535136 0.075794496
0.59236902 0.25555792 0.076367185
0.5662722 0.01694971 0.059650853
0.56710923 0.017720269 0.060226351
0.56712312 0.018486574 0.060228519
0.56713706 0.01925288 0.060230684
0.56797397 0.020017065 0.060806185
0.56798786 0.020781778 0.060808346
0.56882465 0.021541186 0.061383814
0.56966138 0.022297407 0.061959289
0.56967521 0.023058932 0.061961442
0.57051188 0.023810374 0.062536888
0.57134849 0.024558628 0.063112333
0.57218504 0.025303697 0.063687764
0.57302147 0.026045579 0.06426318
0.5738579 0.026784275 0.064838603
0.57387161 0.027537834 0.064840734
0.57470793 0.028271751 0.065416127
0.57472157 0.029023718 0.065418258
0.57473528 0.029775685 0.065420382
0.57474893 0.030527651 0.065422513
0.57476258 0.03127962 0.065424636
0.57477623 0.032031588 0.065426759
0.5739674 0.032812756 0.06485565
0.57398111 0.033566315 0.064857781
0.57317239 0.034352265 0.064286672
0.5731861 0.035107419 0.064288802
0.57237744 0.035898145 0.063717723
0.57239121 0.036654893 0.063719861
0.57158262 0.037450399 0.063148789
0.57077414 0.038249094 0.062577717
0.57078791 0.039009027 0.062579863
0.56997949 0.039812502 0.06200882
0.56917113 0.040619161 0.061437763
0.56918502 0.041382279 0.06143992
0.56837672 0.042193718 0.060868897
0.56839061 0.042958431 0.060871061
0.56758243 0.04377465 0.06030003
0.56677431 0.044594053 0.059729028
0.56678826 0.045361955 0.0597312
0.5668022 0.046129849 0.059733372
0.5659942 0.046955626 0.059162389
0.56518626 0.047784593 0.058591399
0.56520027 0.04855568 0.058593579
0.56439239 0.049389422 0.058022615
0.56440645 0.050162099 0.058024801
0.56359863 0.051000621 0.057453837
0.5636127 0.051774893 0.057456028
0.58533061 0.25062034 0.070631534
0.58615798 0.25085878 0.071205527
0.58617139 0.25159642 0.071207613
0.58618474 0.25233406 0.071209699
0.58701199 0.25256613 0.071783692
0.58702534 0.25330216 0.07178577
0.58785248 0.25352946 0.072359733
0.58867961 0.25375357 0.072933704
0.5886929 0.25448641 0.072935775
0.58951986 0.25470573 0.073509715
0.59034681 0.25492191 0.074083641
0.59117371 0.25513482 0.074657582
0.59200048 0.2553446 0.075231493
0.59282726 0.25555119 0.075805418
0.56675768 0.016942576 0.059055757
0.56677163 0.017710473 0.059057925
0.56678557 0.018478373 0.059060097
0.56679952 0.019246271 0.059062269
0.56763542 0.020012066 0.059638988
0.56764936 0.020778371 0.059641156
0.5684852 0.021539384 0.06021788
0.56932092 0.022297215 0.060794577
0.57015663 0.023051856 0.061371282
0.57099229 0.023803312 0.06194796
0.57182789 0.024551582 0.062524647
0.57266343 0.025296666 0.063101307
0.5734989 0.026038563 0.063677959
0.57433432 0.026777273 0.064254619
0.57434803 0.027530834 0.06425675
0.57436168 0.028284393 0.064258881
0.57519698 0.029016731 0.064835504
0.57521063 0.029768698 0.064837635
0.57522428 0.030520665 0.064839758
0.57441646 0.031298634 0.064267404
0.57443011 0.032052193 0.064269535
0.57444382 0.032805756 0.064271666
0.57363605 0.033590097 0.063699313
0.57364976 0.034345247 0.063701451
0.57284212 0.035134368 0.063129127
0.57285583 0.035891116 0.063131265
0.57204831 0.036685012 0.062558956
0.57124072 0.037482101 0.06198664
0.57125455 0.038242035 0.06198879
0.57044715 0.0390439 0.061416507
0.56963974 0.03984895 0.060844209
0.56965357 0.040612068 0.06084637
0.56884629 0.041421901 0.060274106
0.56886017 0.042186614 0.060276266
0.56805295 0.043001227 0.059704002
0.56724584 0.043819021 0.05913176
0.56725979 0.044586919 0.059133932
0.56645274 0.045409497 0.058561701
