# .PCD v0.7 - Point Cloud Data file format
VERSION 0.7
FIELDS x y z
SIZE 4 4 4
TYPE F F F
COUNT 1 1 1
WIDTH 1381
HEIGHT 1
VIEWPOINT 0 0 0 1 0 0 0
POINTS 1381
DATA ascii
0.57342863 0.01702439 0.068283647
0.57426935 0.017777365 0.068854161
0.57428294 0.018526144 0.068856277
0.57429653 0.019274926 0.068858393
0.57431012 0.020023705 0.068860509
0.57432371 0.020772487 0.068862632
0.57351041 0.021526631 0.06829638
0.57352406 0.022277005 0.068298504
0.57271075 0.02303593 0.067732252
0.5727244 0.023787897 0.067734376
0.57191128 0.0245516 0.067168154
0.57192492 0.025305161 0.067170285
0.57111186 0.026073644 0.066604063
0.57029885 0.026845314 0.066037863
0.57031262 0.02760206 0.066040002
0.56949967 0.028378509 0.065473817
0.56951344 0.029136848 0.065475963
0.56952721 0.029895188 0.065478109
0.56871438 0.03067801 0.064911924
0.56872821 0.031437945 0.064914078
0.56791544 0.032225545 0.064347923
0.56792927 0.032987069 0.064350076
0.5679431 0.033748597 0.064352229
0.56713051 0.034542568 0.063786075
0.56714433 0.03530569 0.063788235
0.56715822 0.036068808 0.063790396
0.56717205 0.036831927 0.063792549
0.58430606 0.25162384 0.073494174
0.58513737 0.25185746 0.074063227
0.58596855 0.25208786 0.074632265
0.58598191 0.25282231 0.074634336
0.58681303 0.25304794 0.075203374
0.58682638 0.25378078 0.075205445
0.58765739 0.25400165 0.075774454
0.5884884 0.25421935 0.076343447
0.58931935 0.25443384 0.076912448
0.59015018 0.25464514 0.077481434
0.59098101 0.25485325 0.07805042
0.59181178 0.25505817 0.078619376
0.56624579 0.0047441386 0.062540822
0.56708622 0.0055369567 0.063112676
0.56710011 0.0063000764 0.063114837
0.56711394 0.0070631942 0.06311699
0.56712782 0.0078263143 0.063119151
0.56796813 0.0086111687 0.063691005
0.56798196 0.0093726935 0.063693158
0.56882215 0.010152766 0.064264975
0.56883591 0.0109127 0.064267129
0.56967604 0.011687994 0.064838953
0.57051611 0.012460101 0.065410748
0.57052982 0.013216848 0.065412894
0.57136983 0.013984176 0.065984674
0.57220972 0.014748318 0.066556469
0.57304955 0.015509274 0.067128234
0.57388937 0.016267043 0.067700014
0.57390302 0.017017419 0.067702129
0.57474273 0.017770408 0.06827388
0.57475632 0.018519187 0.068275996
0.57476991 0.019267967 0.068278112
0.5747835 0.020016748 0.068280227
0.57397115 0.020769285 0.067712739
0.5739848 0.021519659 0.067714863
0.57317251 0.022276975 0.067147374
0.57318616 0.023028944 0.067149498
0.57237399 0.023791039 0.066582039
0.57238764 0.024544599 0.06658417
0.57157552 0.025311474 0.066016711
0.57158929 0.026066627 0.066018842
0.57077724 0.026838282 0.065451413
0.5699653 0.027613124 0.064883985
0.56997907 0.028371463 0.06488613
0.56999284 0.029129803 0.064888276
0.56918103 0.029911017 0.064320847
0.56919479 0.03067095 0.064323001
0.56838304 0.031456944 0.063755609
0.56839687 0.032218467 0.063757762
0.56841075 0.032979995 0.063759916
0.56759906 0.033772361 0.063192524
0.56761295 0.034535479 0.063194685
0.56762677 0.035298597 0.063196838
0.56681526 0.036097337 0.062629484
0.56682914 0.036862049 0.062631644
0.56684303 0.037626762 0.062633805
0.584759 0.25087935 0.072920449
0.58477235 0.25161698 0.072922535
0.58560264 0.25185061 0.073492825
0.58561605 0.25258663 0.073494904
0.58644623 0.25281549 0.074065171
0.58645958 0.25354993 0.074067242
0.58728969 0.25377399 0.07463751
0.58811969 0.25399485 0.075207748
0.58894968 0.25421256 0.075777978
0.58977962 0.25442708 0.076348223
0.59060949 0.25463837 0.076918438
0.59143931 0.25484651 0.077488653
0.59226906 0.25505146 0.078058846
0.56671536 0.0039723217 0.061946031
0.56672925 0.0047370335 0.061948191
0.56674314 0.0055017457 0.061950356
0.56758255 0.0062929862 0.06252344
0.56759638 0.007056104 0.0625256
0.56761026 0.0078192241 0.062527753
0.56844956 0.0086040925 0.063100845
0.56846339 0.0093656182 0.063102998
0.56930256 0.010145705 0.063676052
0.56931639 0.010905638 0.063678205
0.5701555 0.011680949 0.064251259
0.5709945 0.01245307 0.064824298
0.57183349 0.013222006 0.065397315
0.57267243 0.013987757 0.065970354
0.57268614 0.014741316 0.065972485
0.57352495 0.015502287 0.066545486
0.57436377 0.016260071 0.067118496
0.57437742 0.017010445 0.067120612
0.57439101 0.017760819 0.067122735
0.5752297 0.01851223 0.067695715
0.57441831 0.019261567 0.067126982
0.5744319 0.020011939 0.067129105
0.57444555 0.020762313 0.067131229
0.57363421 0.021518022 0.066562496
0.57364792 0.022269988 0.06656462
0.5728367 0.023030477 0.065995924
0.57285035 0.023784038 0.065998055
0.57203925 0.024549305 0.065429352
0.57205296 0.025304459 0.065431483
0.57124192 0.026074504 0.064862818
0.57043093 0.026847739 0.064294152
0.5704447 0.027606077 0.064296298
0.57045853 0.028364418 0.064298443
0.56964761 0.029144023 0.063729778
0.56966144 0.029903956 0.063731924
0.56885064 0.030688342 0.063163295
0.56886452 0.031449866 0.063165449
0.56887835 0.032211393 0.063167602
0.56806767 0.033002149 0.062598974
0.5680815 0.033765271 0.062601127
0.56727093 0.034560807 0.062032532
0.56728482 0.03532552 0.062034693
0.56729871 0.036090232 0.062036857
0.5673126 0.036854941 0.062039018
0.56732649 0.037619654 0.062041182
0.58521193 0.25013489 0.072346725
0.58522528 0.25087249 0.072348803
0.5852387 0.25161013 0.072350889
0.58606797 0.25184378 0.072922423
0.58608133 0.25257978 0.072924502
0.58691055 0.25280866 0.073495999
0.58692384 0.25354311 0.073498078
0.587753 0.25376716 0.074069574
0.58858198 0.25398806 0.074641049
0.58941096 0.25420579 0.075212516
0.59023988 0.25442031 0.07578399
0.59106874 0.25463164 0.076355435
0.59189755 0.25483978 0.076926894
0.59272629 0.25504473 0.077498324
0.56637418 0.0039338931 0.060781211
0.5672127 0.0047299284 0.061355561
0.56722659 0.0054946402 0.061357725
0.56724048 0.0062593524 0.061359886
0.56725436 0.0070240647 0.06136205
0.5680927 0.0078121335 0.061936364
0.56810653 0.0085752532 0.061938524
0.56894481 0.009358543 0.062512837
0.56978297 0.010138645 0.063087128
0.5697968 0.010898578 0.063089281
0.5706349 0.011673902 0.063663572
0.57147294 0.012446039 0.06423784
0.57231092 0.01321499 0.064812094
0.57314885 0.013980756 0.065386362
0.57398671 0.014743333 0.065960608
0.57400036 0.015495301 0.065962732
0.57483816 0.016253099 0.066536978
0.57485181 0.017003473 0.066539101
0.5748654 0.017753847 0.066541217
0.57487905 0.018504221 0.066543341
0.5748927 0.019254595 0.066545464
0.57490629 0.020004967 0.066547588
0.57409596 0.020759068 0.065977618
0.57410961 0.021511035 0.065979749
0.57329941 0.022269916 0.065409809
0.57331312 0.023023475 0.06541194
0.57250291 0.023787135 0.064841993
0.57251662 0.024542289 0.064844131
0.57170659 0.025310727 0.064274222
0.57172036 0.026067475 0.06427636
0.57091039 0.026840692 0.063706465
0.57092416 0.027599031 0.063708611
0.57011425 0.02837703 0.063138708
0.57012808 0.029136963 0.063140854
0.56931829 0.02991974 0.062570982
0.56933212 0.030681266 0.062573135
0.56852239 0.031468824 0.062003262
0.56853622 0.032231942 0.062005423
0.56855011 0.03299506 0.06200758
0.5677405 0.03378899 0.061437737
0.56775439 0.034553703 0.061439902
0.56776828 0.035318416 0.061442062
0.56778216 0.036083125 0.061444227
0.56697273 0.036885023 0.060874391
0.56698662 0.037651327 0.060876559
0.58486331 0.25062722 0.071204409
0.58569163 0.25086564 0.071777165
0.58570504 0.25160328 0.071779251
0.58571845 0.25234091 0.071781337
0.58654666 0.25257295 0.072354101
0.58656007 0.25330898 0.072356179
0.58738816 0.25353628 0.072928905
0.5882163 0.25376037 0.073501639
0.58904427 0.25398126 0.07407435
0.58987224 0.254199 0.074647054
0.59070021 0.25441355 0.075219758
0.59152806 0.2546249 0.075792439
0.59235585 0.25483304 0.076365128
0.59318358 0.25503802 0.076937795
0.56602114 0.0031275395 0.059611764
0.56685865 0.0039267731 0.060187344
0.5668726 0.0046930793 0.060189512
0.56771004 0.0054875351 0.060765095
0.56772393 0.0062522474 0.060767259
0.56773782 0.0070169591 0.06076942
0.56775171 0.0077816714 0.060771585
0.56858897 0.008568163 0.061347127
0.56942624 0.0093514668 0.061922677
0.57026339 0.010131584 0.062498204
0.57027721 0.010891517 0.06250035
0.5711143 0.011666857 0.063075878
0.57195133 0.012439008 0.063651383
0.5727883 0.013207974 0.064226873
0.57362527 0.013973754 0.064802378
0.57446212 0.014736346 0.065377854
0.57447577 0.015488314 0.065379977
0.57531255 0.016246127 0.06595546
0.57532614 0.016996501 0.065957583
0.57533979 0.017746875 0.065959707
0.57535344 0.018497249 0.065961823
0.57536703 0.019247621 0.065963946
0.57455772 0.020000115 0.06539274
0.57457137 0.020752082 0.065394863
0.57376212 0.021509353 0.064823687
0.57377583 0.022262914 0.064825818
0.57296664 0.023024965 0.064254634
0.57298034 0.023780119 0.064256772
0.57217127 0.024546949 0.063685618
0.57218504 0.025303697 0.063687764
0.57137603 0.026075307 0.063116625
0.57138979 0.026833646 0.063118771
0.5705809 0.027610036 0.062547632
0.57059467 0.028369969 0.062549777
0.56978589 0.029151138 0.061978668
0.56979972 0.029912664 0.061980825
0.56899095 0.030698612 0.061409708
0.56900483 0.031461731 0.061411865
0.56901866 0.032224853 0.061414026
0.56821007 0.033017173 0.060842946
0.56822395 0.033781886 0.060845111
0.56741542 0.034578986 0.060274027
0.56742936 0.035345294 0.060276192
0.56744325 0.036111597 0.06027836
0.5674572 0.036877904 0.060280528
0.56747109 0.037644207 0.060282692
0.58531719 0.24988112 0.07062944
0.58533061 0.25062034 0.070631534
0.58615798 0.25085878 0.071205527
0.58617139 0.25159642 0.071207613
0.58618474 0.25233406 0.071209699
0.58701199 0.25256613 0.071783692
0.58702534 0.25330216 0.07178577
0.58785248 0.25352946 0.072359733
0.58867961 0.25375357 0.072933704
0.58950663 0.25397447 0.073507644
0.59033358 0.25419223 0.074081577
0.59116048 0.25440678 0.074655525
0.59198731 0.25461814 0.075229444
0.59281409 0.25482631 0.075803369
0.59364086 0.25503129 0.076377265
0.56646478 0.00081670738 0.059010152
0.56647873 0.0015846059 0.059012324
0.56649268 0.0023525043 0.059014495
0.56650662 0.0031204047 0.059016667
0.56652057 0.0038883013 0.059018839
0.56735706 0.0046859593 0.059595648
0.56737095 0.0054522636 0.059597816
0.5673849 0.0062185698 0.059599984
0.56822127 0.0070098541 0.06017679
0.56823516 0.0077745663 0.060178954
0.56907141 0.0085610719 0.06075573
0.56990767 0.0093443915 0.06133252
0.56992149 0.010105917 0.061334673
0.57075763 0.010884456 0.061911426
0.57159376 0.01165981 0.062488191
0.57242978 0.012431976 0.063064925
0.57326573 0.013200957 0.063641652
0.57410163 0.013966752 0.064218394
0.57493746 0.014729359 0.064795107
0.57495111 0.015481328 0.06479723
0.57496482 0.016233293 0.064799353
0.57580054 0.016989529 0.065376066
0.57581419 0.017739903 0.065378189
0.57500577 0.018489195 0.064805739
0.57501942 0.019241162 0.064807862
0.57503307 0.019993128 0.064809985
0.57422483 0.020748792 0.064237572
0.57423854 0.021502353 0.064239703
0.5734303 0.022262797 0.063667282
0.57344401 0.023017948 0.063669413
0.57263595 0.023783173 0.06309703
0.57264966 0.02453992 0.063099168
0.57184166 0.02530992 0.062526792
0.57185543 0.026068261 0.062528938
0.57104748 0.026843043 0.061956555
0.57106131 0.027602976 0.061958704
0.57025349 0.028382538 0.061386358
0.57026732 0.029144064 0.061388511
0.56945956 0.029928405 0.060816158
0.56947339 0.030691523 0.060818315
0.56866574 0.031480644 0.060245991
0.56867963 0.032245357 0.060248155
0.56869352 0.033010069 0.060250316
0.56788594 0.03380556 0.059677996
0.56789988 0.034571867 0.059680164
0.56791377 0.035338171 0.059682332
0.56792772 0.036104478 0.059684496
0.56794161 0.036870781 0.059686664
0.56713426 0.037675831 0.059114385
0.58577108 0.24913503 0.070054479
0.5865975 0.24937668 0.070629716
0.58579797 0.25061348 0.070058659
0.58662426 0.25085193 0.070633888
0.58663768 0.25158957 0.070635974
0.58665109 0.2523272 0.070638061
0.58747733 0.25255927 0.071213283
0.58749068 0.2532953 0.071215369
0.5883168 0.25352263 0.071790561
0.58914292 0.25374675 0.072365768
0.58996892 0.25396767 0.072940946
0.59079486 0.25418544 0.073516116
0.59162074 0.25440001 0.074091293
0.59244657 0.2546114 0.07466644
0.59327239 0.25481957 0.075241603
0.59409809 0.25502458 0.075816736
0.56612855 0.00077183516 0.057839163
0.56614256 0.0015413259 0.057841338
0.56697816 0.0023453697 0.058419399
0.5669921 0.0031132698 0.058421571
0.56700605 0.0038811665 0.058423743
0.56702 0.004649065 0.058425914
0.56703395 0.0054169632 0.058428083
0.56786937 0.0062114499 0.059006121
0.56788325 0.0069777542 0.059008289
0.56871861 0.0077674608 0.059586328
0.56955385 0.0085539818 0.06016434
0.56956774 0.0093171019 0.060166497
0.57040292 0.010098842 0.060744513
0.57123804 0.010877396 0.061322503
0.57207316 0.011652765 0.0619005
0.57290816 0.012424946 0.062478472
0.5737431 0.013193941 0.063056432
0.57457805 0.013959751 0.063634403
0.57541287 0.014722372 0.064212352
0.57542652 0.015474341 0.064214475
0.57544017 0.016226307 0.064216606
0.57545388 0.016978273 0.06421873
0.57546753 0.017730242 0.064220861
0.57548118 0.018482208 0.064222984
0.57549483 0.019234175 0.064225107
0.57468754 0.019988231 0.06365145
0.57470125 0.020741791 0.063653581
0.57389402 0.021500627 0.063079923
0.57390773 0.02225578 0.063082062
0.57310063 0.023019394 0.062508434
0.57311434 0.023776142 0.062510572
0.57230735 0.024544535 0.061936956
0.57232112 0.025302876 0.061939102
0.57151413 0.02607605 0.061365481
0.57152796 0.026835982 0.061367631
0.57072109 0.027613936 0.060794044
0.57073492 0.028375462 0.060796198
0.56992811 0.029158195 0.060222607
0.569942 0.029921314 0.060224764
0.56913531 0.030708825 0.059651203
0.5691492 0.031473536 0.059653364
0.56916308 0.032238249 0.059655529
0.56835651 0.033032134 0.059081968
0.5683704 0.033798441 0.059084132
0.56756395 0.034597106 0.058510602
0.5675779 0.035365004 0.058512773
0.56759185 0.036132902 0.058514945
0.56760579 0.0369008 0.058517117
0.56679946 0.037707429 0.057943612
0.58623844 0.24912816 0.069481604
0.58625185 0.24986738 0.06948369
0.58626533 0.2506066 0.069485784
0.58709061 0.25084507 0.07006225
0.58710402 0.25158271 0.070064336
0.58711743 0.25232035 0.070066422
0.58794266 0.25255245 0.070642881
0.58795601 0.25328848 0.07064496
0.58878112 0.25351581 0.071221396
0.58960617 0.25373995 0.071797833
0.59043121 0.25396088 0.072374247
0.59125614 0.25417867 0.072950654
0.59208101 0.25439325 0.07352706
0.59290588 0.25460464 0.074103445
0.59291905 0.2553311 0.074105501
0.5937438 0.25553772 0.074681893
0.56495965 -8.3501371e-05 0.056086369
0.56579435 0.00072693004 0.056665685
0.56662899 0.0015341763 0.057245005
0.566643 0.0023036671 0.05724718
0.56747752 0.0031061352 0.057826474
0.56749147 0.0038740318 0.057828646
0.56750542 0.0046419301 0.057830818
0.56751937 0.0054098289 0.05783299
0.56753331 0.0061777271 0.057835162
0.56836772 0.0069706342 0.058414426
0.56920207 0.0077603557 0.058993697
0.56921595 0.0085250698 0.058995862
0.57005018 0.0093100118 0.059575103
0.57088441 0.010091766 0.060154356
0.57171851 0.010870335 0.060733579
0.57255256 0.011645718 0.061312813
0.57338661 0.012417914 0.061892018
0.57422054 0.013186925 0.062471215
0.57505447 0.013952749 0.063050419
0.57588828 0.014715386 0.063629597
0.57590193 0.015467354 0.063631728
0.57591558 0.01621932 0.063633852
0.57592922 0.016971286 0.063635975
0.57594287 0.017723255 0.063638106
0.57595658 0.018475221 0.063640229
0.57515025 0.019227669 0.063065335
0.57516396 0.01998123 0.063067466
0.57435769 0.020738456 0.062492568
0.5743714 0.02149361 0.062494703
0.57356524 0.022255618 0.061919838
0.57357901 0.023012364 0.061921977
0.57277298 0.02377915 0.061347123
0.57278675 0.024537491 0.061349269
0.57198077 0.025309056 0.060774408
0.57199454 0.026068989 0.060776558
0.57118869 0.026845334 0.060201731
0.57120252 0.02760686 0.060203888
0.57039672 0.028387986 0.059629053
0.57041055 0.029151104 0.059631214
0.56960487 0.029937008 0.059056412
0.56961876 0.030701721 0.059058577
0.56881309 0.031492405 0.058483772
0.56882703 0.032258712 0.058485936
0.56884092 0.033025015 0.058488104
0.56803542 0.033822071 0.057913337
0.56804937 0.034589969 0.057915509
0.56806332 0.03535787 0.057917681
0.56807727 0.036125768 0.057919852
0.56727195 0.036930788 0.057345103
0.5672859 0.037700281 0.057347279
0.58669233 0.24838208 0.068906642
0.5867058 0.24912129 0.068908729
0.58671921 0.24986051 0.068910822
0.58673263 0.25059974 0.068912908
0.58755696 0.25083822 0.069490604
0.58757037 0.25157586 0.06949269
0.58758372 0.25231349 0.069494776
0.58840793 0.2525456 0.07007248
0.58842134 0.25328162 0.070074558
0.58924544 0.25350899 0.070652224
0.59006947 0.25373313 0.071229897
0.59089351 0.25395408 0.071807541
0.5909068 0.25468534 0.071809612
0.59173065 0.25490156 0.072387248
0.59255457 0.25511456 0.072964892
0.59337831 0.25532436 0.073542506
0.5942021 0.25553098 0.074120127
0.56544816 -9.0680551e-05 0.055487566
0.56628186 0.00071976561 0.056068115
0.56711549 0.0015270268 0.056648675
0.56712943 0.0022965176 0.056650851
0.567963 0.0030990003 0.057231378
0.56797695 0.003866897 0.05723355
0.5679909 0.0046347952 0.057235721
0.56800485 0.005402694 0.057237893
0.56801879 0.0061705923 0.057240061
0.56885219 0.0069635143 0.057820562
0.56886607 0.0077298204 0.05782273
0.56969941 0.0085179647 0.058403231
0.57053262 0.0093029207 0.05898371
0.57136583 0.010084691 0.059564196
0.57219893 0.010863274 0.060144655
0.57303202 0.011638673 0.060725119
0.573865 0.012410883 0.06130556
0.57469791 0.013179909 0.061885994
0.57553083 0.013945747 0.062466435
0.57636368 0.014708399 0.06304685
0.57637733 0.015460367 0.063048974
0.57639098 0.016212333 0.063051105
0.57640463 0.0169643 0.063053228
0.57641828 0.017716268 0.063055359
0.57561296 0.018467108 0.06247922
0.57562667 0.019220667 0.062481351
0.57482135 0.019976288 0.061905213
0.57483512 0.02073144 0.061907347
0.57402992 0.02149184 0.061331242
0.57404369 0.022248587 0.061333381
0.57323861 0.023013765 0.060757287
0.57325238 0.023772104 0.060759433
0.57244736 0.024542063 0.060183339
0.57246119 0.025301995 0.060185485
0.57165629 0.026076732 0.059609421
0.57167011 0.026838258 0.059611574
0.57086527 0.027617777 0.059035502
0.57087916 0.028380895 0.059037659
0.57007444 0.029165192 0.058461621
0.57008833 0.029929902 0.058463782
0.56928366 0.030718978 0.05788774
0.56929755 0.031485286 0.057889909
0.56849301 0.032279141 0.057313897
0.56850696 0.033047039 0.057316069
0.5685209 0.033814937 0.05731824
0.56771648 0.034615163 0.056742243
0.56773043 0.035384655 0.056744419
0.56774443 0.036154147 0.056746598
0.56694007 0.036960747 0.056170601
0.56695408 0.037731834 0.056172781
0.58634967 0.24886955 0.067756884
0.58636314 0.24961036 0.067758985
0.58718652 0.24985364 0.068337947
0.58719999 0.25059289 0.068340033
0.5872134 0.25133207 0.068342127
0.58803666 0.251569 0.068921052
0.58805007 0.25230664 0.068923138
0.58887327 0.25253877 0.069502071
0.58888662 0.2532748 0.069504149
0.58970976 0.25350216 0.070083052
0.59053278 0.25372633 0.070661962
0.5913558 0.25394729 0.071240842
0.59136909 0.25467855 0.071242914
0.59219199 0.25489479 0.071821779
0.59301484 0.25510779 0.072400659
0.59383762 0.2553176 0.07297951
0.59385079 0.25604409 0.072981559
0.56593663 -9.7859724e-05 0.054888766
0.5667693 0.00071260129 0.055470549
0.56760198 0.0015198772 0.056052342
0.56761593 0.0022893678 0.056054518
0.56762993 0.0030588605 0.056056693
0.56764388 0.0038283514 0.056058869
0.56765789 0.0045978441 0.056061044
0.56849033 0.0053955591 0.056642793
0.56850427 0.0061634574 0.056644965
0.56851822 0.0069313562 0.056647137
0.56935054 0.0077227005 0.057228867
0.57018286 0.0085108597 0.057810605
0.57101506 0.0092958305 0.058392316
0.57184726 0.010077615 0.058974035
0.57267934 0.010856213 0.059555732
0.57351142 0.011631627 0.060137432
0.57434338 0.012403852 0.06071911
0.57517534 0.013172892 0.061300773
0.57600725 0.013938746 0.061882451
0.57683903 0.014701412 0.062464096
0.57685274 0.015453381 0.062466223
0.57686639 0.016205346 0.06246835
0.57606196 0.016952986 0.061890975
0.57607567 0.017706547 0.061893106
0.57608938 0.018460106 0.061895236
0.57528508 0.019214118 0.061317857
0.57529879 0.019969271 0.061319992
0.5744946 0.020728063 0.06074265
0.57450837 0.021484809 0.060744788
0.57370424 0.02224838 0.060167454
0.57371801 0.023006719 0.0601696
0.572914 0.023775069 0.059592266
0.57292783 0.024535002 0.059594415
0.57212389 0.025308132 0.059017107
0.57213771 0.026069658 0.05901926
0.57133389 0.026847567 0.058441952
0.57134771 0.027610686 0.058444109
0.570544 0.028393375 0.05786683
0.57055789 0.029158086 0.057868995
0.56975418 0.029945554 0.057291713
0.56976813 0.030711859 0.057293877
0.56896454 0.031504106 0.056716625
0.56897849 0.032272004 0.056718796
0.56899244 0.033039905 0.056720968
0.56818897 0.033838522 0.056143735
0.56820297 0.034608014 0.05614591
0.56739956 0.035411414 0.055568673
0.56741357 0.0361825 0.055570856
0.56742758 0.036953583 0.055573035
0.56662428 0.037763357 0.054995831
0.56663835 0.038536035 0.054998018
0.58600903 0.249357 0.066604689
0.58683145 0.24960348 0.067184873
0.58684492 0.25034431 0.067186967
0.58766729 0.250586 0.067767166
0.58768076 0.25132522 0.067769252
0.588503 0.25156215 0.068349414
0.58851641 0.25229979 0.0683515
0.5893386 0.25253192 0.068931669
0.58935195 0.25326797 0.068933748
0.59017408 0.25349534 0.069513887
0.59018737 0.25422978 0.069515958
0.59100944 0.25445235 0.070096098
0.59183139 0.25467175 0.070676215
0.59265327 0.254888 0.071256317
0.59266651 0.25561765 0.071258381
0.59348834 0.25582907 0.071838483
0.5943101 0.25603732 0.072418563
0.5639438 -0.0017781298 0.052543018
0.56642509 -0.0001050389 0.054289963
0.56725681 0.00070543692 0.054872982
0.56808841 0.0015127276 0.055456012
0.56810242 0.0022822183 0.055458188
0.56811637 0.003051711 0.055460364
0.56813037 0.0038212019 0.055462539
0.56814432 0.0045906943 0.055464715
0.56815833 0.0053601852 0.05546689
0.56898969 0.006156323 0.056049868
0.56900364 0.0069242213 0.05605204
0.56983501 0.0077155801 0.056635004
0.57066631 0.0085037546 0.057217974
0.5714975 0.0092887403 0.057800923
0.57232869 0.010070539 0.058383878
0.57315975 0.010849153 0.058966804
0.57399082 0.01162458 0.059549741
0.57482183 0.012396821 0.060132653
0.57565272 0.013165875 0.060715552
0.57648361 0.013931745 0.061298463
0.57649732 0.014685304 0.061300594
0.57651103 0.015438864 0.061302725
0.57652467 0.016192423 0.061304856
0.57653838 0.016945984 0.061306987
0.57655209 0.017699545 0.061309118
0.57574874 0.018451948 0.060730502
0.57576245 0.019207101 0.060732637
0.57495928 0.019964285 0.060154054
0.57497305 0.020721031 0.060156193
0.57416993 0.021482993 0.059577622
0.5741837 0.022241333 0.059579764
0.57338065 0.023008076 0.059001189
0.57339442 0.023768008 0.059003338
0.57259148 0.02453953 0.058424793
0.57260531 0.025301056 0.058426946
0.57180244 0.026077358 0.057848398
0.57181633 0.026840476 0.057850558
0.57101351 0.027621556 0.057272039
0.5710274 0.028386269 0.0572742
0.5702247 0.02917213 0.056695677
0.57023865 0.029938435 0.056697845
0.56943607 0.030729074 0.056119356
0.56945002 0.031496972 0.056121528
0.5686475 0.032292392 0.055543054
0.56866145 0.033061884 0.055545229
0.56867546 0.033831373 0.055547405
0.567873 0.034633167 0.054968927
0.56788701 0.03540425 0.05497111
0.56790102 0.036175337 0.054973289
0.56709874 0.036983497 0.054394845
0.56629652 0.037794851 0.053816397
0.56631058 0.038569123 0.053818587
0.56550843 0.039385248 0.053240169
0.56470633 0.040204566 0.052661743
0.58565688 0.24910042 0.065447912
0.58647835 0.2493501 0.06602934
0.58649188 0.25009251 0.066031441
0.58650535 0.25083491 0.066033542
0.58732671 0.25107825 0.066614956
0.58734018 0.25181904 0.066617049
0.58816147 0.25205758 0.06719847
0.5889827 0.25229293 0.067779861
0.58899611 0.25303057 0.067781948
0.58981729 0.25326112 0.068363346
0.58983064 0.25399715 0.068365425
0.59065169 0.25422296 0.068946794
0.59147274 0.25444555 0.069528162
0.59229368 0.25466496 0.070109509
0.59230697 0.25539625 0.07011158
0.59312779 0.25561088 0.070692912
0.5939486 0.2558223 0.071274251
0.59396183 0.25655037 0.071276315
0.56608284 -0.00092589838 0.053106882
0.5669136 -0.00011221808 0.053691164
0.56774426 0.00069827249 0.054275416
0.56775826 0.0014693574 0.054277595
0.56858885 0.0022750688 0.054861855
0.56860286 0.0030445615 0.05486403
0.56861681 0.0038140521 0.054866206
0.56863081 0.004583545 0.054868381
0.56864476 0.0053530354 0.054870557
0.56947517 0.0061491881 0.055454768
0.56948912 0.0069170864 0.05545694
0.57031947 0.0077084606 0.05604114
0.57114977 0.0084966486 0.056625348
0.57197994 0.0092816502 0.057209529
0.5736264 0.010082158 0.058375731
0.57445651 0.010859193 0.058959909
0.57528651 0.011633044 0.059544057
0.57530022 0.01238979 0.059546199
0.57613015 0.01315886 0.060130332
0.57696003 0.013924743 0.06071448
0.57697374 0.014678302 0.06071661
0.57698739 0.015431862 0.060718741
0.57700109 0.016185421 0.060720872
0.5770148 0.016938984 0.060723003
0.57621247 0.017689778 0.060143147
0.57622617 0.018444931 0.060145281
0.57542396 0.019200508 0.059565458
0.57543766 0.019957254 0.059567597
0.57545143 0.020714 0.059569739
0.57464933 0.021475948 0.058989931
0.57384723 0.022241082 0.058410116
0.57386106 0.023001015 0.058412265
0.57305908 0.023770928 0.057832483
0.57307291 0.024532454 0.057834636
0.57227105 0.025307147 0.057254847
0.57228488 0.026070267 0.057257004
0.57148308 0.026849739 0.056677248
0.57149696 0.027614452 0.056679413
0.57069528 0.028398704 0.05609965
0.57070917 0.029165009 0.056101818
0.56990755 0.02995404 0.055522088
0.56992149 0.030721938 0.05552426
0.56911999 0.031515747 0.054944545
0.56913394 0.03228524 0.054946721
0.56914794 0.033054732 0.054948896
0.5683465 0.033854917 0.054369178
0.56836051 0.034626 0.054371361
0.56755918 0.035430964 0.053791676
0.56675786 0.036239114 0.05321198
0.56677192 0.037013385 0.05321417
0.56678599 0.037787657 0.053216361
0.56598485 0.038602177 0.052636702
0.56599897 0.03937804 0.052638896
0.56519789 0.040197343 0.052059233
0.56439686 0.041019831 0.0514796
0.56359589 0.041845504 0.050899975
0.58529311 0.24809502 0.06428653
0.5853067 0.2488406 0.064288639
0.58612722 0.2490935 0.064871334
0.58614075 0.24983749 0.064873435
0.58615428 0.25058147 0.064875543
0.58697468 0.25082803 0.065458201
0.58698821 0.25157043 0.065460302
0.58780855 0.25181216 0.066042945
0.58862883 0.2520507 0.066625595
0.58864224 0.25278994 0.066627689
0.58946246 0.25302371 0.067210309
0.58947587 0.25376132 0.067212395
0.59029597 0.25399032 0.067795023
0.59111601 0.25421613 0.068377621
0.59193605 0.25443876 0.068960227
0.59194934 0.25517157 0.068962298
0.59276927 0.25538945 0.069544874
0.59358907 0.25560409 0.07012745
0.59360236 0.25633374 0.070129506
0.5944221 0.25654361 0.070712082
0.56824577 0.0014621931 0.053680029
0.56907535 0.0022679192 0.054265518
0.56908929 0.0030374117 0.054267693
0.5691033 0.0038069026 0.054269873
0.56911725 0.0045763953 0.054272048
0.56994671 0.005374155 0.0548575
0.56996065 0.0061420533 0.054859672
0.57078999 0.0069350339 0.055445109
0.57161933 0.0077248299 0.056030553
0.57244855 0.0085114399 0.056615975
0.57327771 0.0092948629 0.057201404
0.57410681 0.010075098 0.057786807
0.57493591 0.010852148 0.058372218
0.57576489 0.011626013 0.058957599
0.57659382 0.01239669 0.059542976
0.57660758 0.013151843 0.059545111
0.57743645 0.013917741 0.060130488
0.5774501 0.014671301 0.060132619
0.57746381 0.015424862 0.06013475
0.57666242 0.016172456 0.059553653
0.57667613 0.016927609 0.059555788
0.57668984 0.017682761 0.059557922
0.57588863 0.01843673 0.058976863
0.57590234 0.019193476 0.058979001
0.57591611 0.019950222 0.058981139
0.57511497 0.020710563 0.058400095
0.57512873 0.021468902 0.05840224
0.57432771 0.022234021 0.057821188
0.57352668 0.023002326 0.057240166
0.57354051 0.023763852 0.057242319
0.5727396 0.024536939 0.056661293
0.57275349 0.025300058 0.05666345
0.57195264 0.026077922 0.056082454
0.57196653 0.026842633 0.056084618
0.5711658 0.027625278 0.055503618
0.57117975 0.028391583 0.055505786
0.57037908 0.029179007 0.054924816
0.57039303 0.029946905 0.054926988
0.56959248 0.030739108 0.054346032
0.56960648 0.031508598 0.054348208
0.56880599 0.032305583 0.053767249
0.56882 0.033076666 0.053769428
0.56801957 0.033878431 0.053188503
0.56803364 0.034651108 0.053190686
0.56723332 0.035457648 0.052609753
0.56724739 0.03623192 0.052611943
0.5664472 0.03704324 0.05203104
0.56646127 0.037819102 0.052033234
0.56566113 0.038635205 0.051452331
0.56486106 0.03945449 0.050871454
0.56487525 0.040233541 0.050873656
0.56407523 0.041057609 0.05029279
0.5849449 0.24783041 0.063124791
0.58576453 0.24808809 0.063708715
0.58577806 0.24883367 0.063710824
0.58579159 0.24957928 0.063712932
0.58580512 0.25032488 0.063715041
0.58662462 0.25057456 0.064298958
0.58663815 0.2513186 0.064301066
0.58745754 0.25156352 0.064884953
0.58747101 0.25230592 0.064887054
0.58829033 0.2525461 0.065470926
0.5891096 0.25278306 0.066054806
0.58912301 0.25352228 0.0660569
0.58994216 0.25375447 0.06664075
0.58995557 0.25449213 0.066642836
0.59077466 0.25471953 0.067226693
0.59159368 0.25494376 0.067810528
0.59241265 0.25516477 0.068394363
0.59323156 0.25538266 0.068978176
0.59324485 0.25611392 0.068980239
0.59406364 0.25632697 0.069564037
0.59407687 0.25705662 0.069566101
0.56789058 -0.00012657644 0.052493557
0.56871921 0.00068394374 0.053080279
0.56873322 0.0014550287 0.053082462
0.56874722 0.0022261117 0.053084642
0.56957579 0.0030302622 0.053671364
0.56958979 0.003799753 0.053673539
0.56960374 0.0045692455 0.053675715
0.57043219 0.0053670201 0.054262403
0.57044613 0.0061349184 0.054264575
0.57127446 0.006927914 0.054851245
0.57210273 0.0077177249 0.055437926
0.57293099 0.0085043497 0.056024581
0.57375914 0.0092877867 0.056611247
0.57458729 0.010068037 0.057197884
0.57541531 0.010845101 0.057784528
0.57624334 0.011618981 0.058371145
0.57707125 0.012389673 0.058957756
0.57708496 0.013144827 0.05895989
0.57791281 0.01391074 0.059546504
0.57792652 0.014664299 0.059548639
0.57712609 0.015410286 0.058966298
0.57713985 0.016165439 0.058968432
0.57715356 0.016920593 0.058970571
0.57635325 0.017672952 0.058388267
0.57636702 0.018429698 0.058390405
0.57638079 0.019186445 0.058392547
0.5755806 0.019945176 0.057810262
0.57559437 0.020703517 0.057812408
0.57479429 0.021467028 0.057230119
0.57480812 0.022226961 0.057232268
0.57400811 0.022995252 0.056650009
0.57320821 0.02376673 0.056067742
0.57322204 0.024529848 0.056069903
0.57242221 0.025306104 0.055487666
0.57243609 0.026070816 0.055489827
0.57163632 0.026851853 0.05490759
0.57083666 0.027636075 0.054325376
0.57085061 0.028403973 0.054327548
0.57086456 0.029171873 0.054329719
0.57006496 0.029962467 0.053747524
0.57007897 0.030731959 0.053749699
0.56927943 0.031527333 0.053167503
0.56929344 0.03229842 0.053169683
0.56849402 0.033098571 0.052587517
0.56850809 0.033871248 0.052589703
0.56770873 0.034676183 0.05200753
0.5677228 0.035450455 0.05200972
0.56692356 0.036260165 0.05142758
0.56693769 0.037036031 0.051429771
0.56613851 0.037850525 0.050847627
0.56615263 0.038627982 0.050849829
0.56535357 0.039447252 0.050267715
0.56455457 0.04026971 0.049685609
0.56375563 0.041095354 0.049103495
0.56376982 0.041877594 0.049105708
0.562971 0.042708017 0.048523627
0.58540368 0.24707627 0.062543631
0.58541727 0.24782346 0.062545747
0.5854308 0.24857064 0.062547855
0.58624941 0.24882676 0.063133009
0.58626294 0.24957235 0.063135117
0.58627647 0.25031793 0.063137226
0.58629006 0.25106353 0.063139334
0.58710849 0.25131169 0.063724488
0.58712202 0.25205567 0.063726589
0.58794034 0.25229904 0.064311713
0.58795387 0.25304145 0.064313807
0.58877212 0.25328004 0.064898916
0.58959037 0.25351542 0.065484032
0.58960378 0.25425464 0.065486118
0.59042192 0.25448528 0.066071197
0.59123999 0.25471267 0.066656291
0.592058 0.25493693 0.067241356
0.59207135 0.25567135 0.067243434
0.59288925 0.25589082 0.067828499
0.59370714 0.25610712 0.068413541
0.59372044 0.25683835 0.068415612
0.59453821 0.25704986 0.069000639
0.56922072 0.0014478643 0.052484892
0.57004827 0.00225362 0.053072855
0.57006228 0.0030231127 0.05307503
0.57007623 0.0037926035 0.053077206
0.57090366 0.004591987 0.053665131
0.57091761 0.0053598853 0.053667303
0.57174498 0.0061544897 0.054255217
0.57257229 0.0069459076 0.054843135
0.57339954 0.0077341394 0.055431031
0.57422674 0.0085191857 0.056018934
0.57505387 0.009301045 0.056606807
0.575881 0.010079716 0.057194691
0.57589477 0.010838056 0.057196837
0.57672173 0.011611951 0.057784691
0.57754868 0.012382656 0.058372535
0.57756239 0.01313781 0.058374669
0.5775761 0.013892964 0.058376804
0.57758981 0.014648116 0.058378942
0.57760352 0.01540327 0.058381077
0.57761723 0.016158422 0.058383211
0.57681793 0.016909175 0.057799671
0.5768317 0.017665921 0.057801809
0.57684547 0.018422667 0.057803951
0.57604629 0.019179791 0.057220425
0.57606006 0.019938132 0.057222571
0.57526094 0.020700034 0.056639042
0.57527471 0.021459967 0.056641191
0.57447571 0.02222665 0.056057695
0.57448959 0.022988176 0.056059849
0.57369065 0.023759639 0.055476349
0.57289177 0.024534287 0.054892875
0.57290566 0.025299 0.054895036
0.5721069 0.026078427 0.054311559
0.57130814 0.026861042 0.053728107
0.57132208 0.027628941 0.053730279
0.5705235 0.028416334 0.053146839
0.57053745 0.029185826 0.053149015
0.57055146 0.029955318 0.05315119
0.56975293 0.030749084 0.052567754
0.56976694 0.031520169 0.052569937
0.56896847 0.032318715 0.05198653
0.56817013 0.033120446 0.051403113
0.5681842 0.033894718 0.051405303
0.56738591 0.034701228 0.050821919
0.56739998 0.035477094 0.050824113
0.56660175 0.036288384 0.050240725
0.56661588 0.037065845 0.050242923
0.56581777 0.037881915 0.049659565
0.56501973 0.038701169 0.049076218
0.56503391 0.039481815 0.049078427
0.56423593 0.040305849 0.048495073
0.56425017 0.041088086 0.048497286
0.5634523 0.041916903 0.047913965
0.56346655 0.042700734 0.047916181
0.56266874 0.043534327 0.047332857
0.56187099 0.044371109 0.046749558
0.58587605 0.24706933 0.061964583
0.58588964 0.24781652 0.061966695
0.58590317 0.24856369 0.061968811
0.58591676 0.24931088 0.061970923
0.58593035 0.25005808 0.061973035
0.58594394 0.25080526 0.061975148
0.58676142 0.25105661 0.062561527
0.58677495 0.25180221 0.062563635
0.58678848 0.2525478 0.062565744
0.58760589 0.25279275 0.06315212
0.58842319 0.25303453 0.063738465
0.58843666 0.25377697 0.063740566
0.5892539 0.25401396 0.064326897
0.59007108 0.25424775 0.064913243
0.59008455 0.254987 0.064915337
0.59090161 0.25521603 0.065501645
0.59171867 0.25544187 0.066087969
0.59253561 0.25566453 0.066674262
0.59254897 0.25639898 0.066676341
0.59336591 0.25661686 0.067262635
0.59418273 0.25683156 0.067848906
0.59419596 0.25756282 0.067850977
0.56968015 -0.00010146993 0.051882967
0.56969416 0.00066961499 0.051885147
0.57052076 0.0014769797 0.052474346
0.57053477 0.0022464704 0.052476522
0.57054871 0.0030159631 0.052478697
0.57137519 0.0038169536 0.053067863
0.57138914 0.0045848521 0.053070035
0.57140309 0.0053527504 0.053072207
0.57222944 0.0061473697 0.053661354
0.57305574 0.0069388025 0.054250509
0.57388198 0.0077270488 0.054839637
0.57470822 0.0085121104 0.055428773
0.57553428 0.0092939837 0.056017883
0.5763604 0.010072671 0.056607004
0.57718641 0.010848171 0.057196096
0.57720017 0.011604919 0.057198234
0.57802606 0.012375641 0.057787314
0.57803977 0.013130794 0.057789449
0.57805347 0.013885948 0.057791583
0.57806718 0.014641101 0.057793722
0.57808095 0.015396254 0.057795856
0.57728261 0.016145397 0.057211075
0.57729638 0.016902143 0.057213217
0.57731009 0.017658889 0.057215355
0.57651192 0.018414406 0.056630593
0.57652569 0.019172745 0.056632739
0.57653946 0.019931085 0.056634881
0.57574135 0.020692974 0.056050118
0.57494336 0.021458048 0.055465382
0.57495719 0.022219574 0.055467535
0.5741592 0.02298943 0.054882798
0.57417309 0.023752548 0.054884955
0.57337523 0.024527183 0.054300245
0.57257742 0.025305003 0.053715531
0.57177967 0.026086008 0.053130839
0.57179362 0.026853908 0.053133007
0.57099599 0.027639693 0.05254833
0.57100993 0.028409185 0.05255051
0.57021236 0.029199751 0.051965825
0.57022637 0.029970836 0.051968008
0.57024038 0.030741921 0.051970188
0.56944293 0.031538859 0.051385544
0.56864554 0.032338984 0.050800886
0.5686596 0.033113252 0.050803076
0.56786233 0.033918157 0.050218455
0.5678764 0.03469402 0.05022065
0.56707919 0.035503704 0.049636021
0.56628203 0.036316574 0.049051419
0.56629616 0.037095625 0.049053624
0.56549907 0.037913274 0.048469037
0.56470203 0.038734108 0.047884438
0.56471628 0.039516345 0.047886651
0.56473047 0.040298581 0.047888864
0.56393361 0.041125789 0.047304306
0.56313676 0.041956186 0.046719737
0.563151 0.042741608 0.046721958
0.56316525 0.043527029 0.046724178
0.56236857 0.044363797 0.046139643
0.56157184 0.045203749 0.045555104
0.46539494 0.11426257 -0.024678433
0.46541274 0.11524235 -0.024675664
0.46462142 0.11638024 -0.025259379
0.46463925 0.11736162 -0.025256604
0.46465707 0.11834299 -0.025253829
0.46467492 0.11932438 -0.025251053
0.46469274 0.12030575 -0.025248278
0.46551952 0.12112109 -0.024659038
0.58634841 0.24706239 0.061385538
0.586362 0.24780957 0.061387651
0.58637559 0.24855675 0.061389763
0.58638912 0.24930394 0.061391875
0.58640271 0.25005114 0.061393987
0.5864163 0.25079831 0.061396103
0.58642983 0.25154552 0.061398216
0.5872463 0.25179529 0.061985821
0.58725983 0.25254089 0.061987929
0.58727342 0.25328648 0.061990038
0.58808976 0.25352985 0.062577643
0.58890605 0.25377005 0.063165218
0.58891952 0.25451246 0.063167319
0.58973569 0.2547479 0.063754886
0.59055185 0.25498012 0.064342462
0.59056532 0.25571933 0.064344548
0.59138137 0.25594682 0.064932093
0.59219736 0.25617108 0.065519646
0.59301329 0.25639215 0.066107169
0.59382921 0.25661007 0.066694699
0.59384251 0.2573429 0.066696778
0.59465832 0.25755602 0.067284279
0.57099324 0.00070033938 0.051875837
0.57100725 0.0014698302 0.051878013
0.5710212 0.0022393209 0.051880192
0.57103521 0.0030088136 0.051882368
0.57186067 0.0038098188 0.052472766
0.57187462 0.0045777173 0.052474938
0.57269996 0.0053739436 0.053065322
0.57352531 0.0061669853 0.053655718
0.5743506 0.006956839 0.054246087
0.57517582 0.0077435076 0.054836459
0.57518965 0.0085050352 0.054838613
0.57601476 0.0092869233 0.055428959
0.5768398 0.010065624 0.056019314
0.57766479 0.010841141 0.056609642
0.57767856 0.011597889 0.05661178
0.57850349 0.012368624 0.057202093
0.5785172 0.013123778 0.057204228
0.57853091 0.013878931 0.057206366
0.57773352 0.014624872 0.056620341
0.57774729 0.015381619 0.056622483
0.57776105 0.016138365 0.056624621
0.57777476 0.016895112 0.056626759
0.57697755 0.017649021 0.05604076
0.57699132 0.018407362 0.056042902
0.57700509 0.0191657 0.056045048
0.576208 0.01992598 0.055459045
0.57622176 0.020685913 0.055461194
0.57542479 0.021450972 0.054875225
0.57462782 0.02221922 0.054289244
0.57464164 0.022982338 0.054291405
0.57384479 0.023755364 0.053705454
0.57304794 0.024531577 0.053119499
0.5722512 0.025310976 0.052533571
0.57226515 0.026078874 0.052535743
0.57146847 0.026863052 0.051949825
0.57148248 0.027632544 0.051952001
0.57068586 0.028421501 0.05136608
0.57069987 0.029192585 0.051368259
0.56990337 0.029986324 0.050782371
0.56991738 0.030759001 0.050784558
0.56912094 0.031557519 0.050198663
0.56913501 0.032331787 0.050200853
0.56833869 0.033135086 0.049614988
0.56754243 0.033941567 0.049029119
0.56755656 0.034719024 0.049031317
0.56676036 0.035530284 0.048445478
0.56677455 0.036309335 0.04844768
0.56597841 0.037125375 0.047861855
0.56518239 0.037944604 0.04727602
0.56519657 0.03872684 0.047278229
0.56440067 0.039550848 0.046692427
0.56441486 0.040334675 0.046694644
0.56361902 0.041163463 0.046108834
0.56363326 0.041948888 0.046111058
0.56283748 0.042782452 0.045525279
0.56285179 0.043569468 0.045527507
0.56205606 0.044407815 0.044941723
0.56207043 0.045196421 0.044943955
0.56127483 0.046039548 0.044358205
0.46680468 0.11312038 -0.024852809
0.46601436 0.11425346 -0.025437739
0.46603215 0.11523325 -0.025434967
0.46604994 0.11621304 -0.025432197
0.46525967 0.1173525 -0.026017144
0.46527749 0.11833388 -0.026014369
0.46529534 0.11931526 -0.026011594
0.46612114 0.12013219 -0.025421115
0.46613893 0.12111198 -0.025418343
0.58601868 0.24754171 0.060219713
0.58603227 0.24829048 0.060221832
0.58604592 0.24903926 0.060223948
0.58686149 0.24929699 0.060812827
0.58687508 0.2500442 0.060814943
0.58688867 0.25079137 0.060817055
0.5869022 0.25153857 0.060819168
0.58691579 0.25228578 0.06082128
0.58692938 0.25303295 0.060823392
0.58774477 0.25327954 0.061412223
0.5877583 0.25402513 0.061414331
0.58857363 0.25426695 0.062003169
0.58938885 0.25450557 0.062591977
0.58940238 0.25524798 0.062594078
0.59021753 0.25548184 0.063182876
0.59103262 0.25571248 0.063771673
0.59184766 0.25593996 0.064360455
0.59266269 0.25616422 0.064949237
0.59267604 0.25690028 0.064951323
0.59349096 0.25711977 0.065540075
0.59430581 0.25733611 0.066128835
0.59512061 0.25754923 0.066717573
0.57147974 0.0006931898 0.051279508
0.57230431 0.0014989886 0.051871154
0.57231826 0.0022668871 0.051873326
0.5723322 0.0030347875 0.051875498
0.57234615 0.0038026841 0.05187767
0.57317054 0.0046005193 0.052469295
0.57318443 0.0053668236 0.052471459
0.57400876 0.0061598802 0.053063087
0.57483304 0.0069497484 0.053654689
0.57565725 0.0077364319 0.054246303
0.57648134 0.0085199289 0.054837886
0.57730544 0.0093002394 0.055429481
0.57731926 0.010058579 0.055431623
0.57814324 0.010834109 0.056023184
0.57815695 0.011590857 0.056025326
0.57817072 0.012347603 0.056027465
0.57818449 0.013104348 0.056029607
0.57819819 0.013861096 0.056031745
0.57821196 0.014617842 0.056033887
0.57822567 0.015374589 0.056036025
0.57823944 0.016131334 0.056038167
0.57744318 0.016883636 0.055450924
0.57745695 0.017641975 0.05545307
0.57747078 0.018400315 0.055455215
0.57667458 0.019158987 0.054867972
0.57668841 0.01991892 0.054870121
0.57589239 0.020682372 0.054282911
0.57509637 0.021449011 0.053695694
0.57511026 0.022212129 0.053697851
0.57431436 0.022983547 0.053110663
0.57351851 0.023758152 0.052523468
0.57272273 0.024535943 0.051936299
0.57273668 0.025303841 0.05193847
0.57194096 0.026086411 0.051351316
0.57195497 0.026855903 0.051353492
0.5711593 0.027643252 0.050766334
0.57117331 0.028414337 0.050768513
0.57037783 0.029206466 0.050181385
0.56958234 0.030001782 0.049594246
0.56959641 0.030776052 0.049596436
0.56880105 0.031576145 0.049009331
0.56881511 0.032352012 0.049011525
0.56801981 0.033156887 0.048424415
0.56803393 0.033934344 0.048426613
0.56723875 0.034743994 0.047839534
0.56644362 0.035556838 0.047252465
0.56645781 0.03633748 0.047254674
0.56566268 0.037155099 0.046667598
0.56567693 0.037937336 0.046669811
0.56488192 0.038759734 0.046082765
0.56408703 0.039585322 0.045495715
0.56410128 0.040370744 0.045497935
0.56411552 0.041156165 0.045500159
0.56332076 0.041988123 0.044913143
0.56252599 0.04282327 0.044326119
0.56254035 0.04361188 0.044328347
0.56255466 0.044400487 0.044330578
0.56176001 0.045242004 0.043743588
0.56177437 0.046032205 0.043745823
0.46744084 0.1140895 -0.025608111
0.46745864 0.11506768 -0.025605345
0.46666935 0.11620393 -0.026191503
0.46668717 0.11718373 -0.026188731
0.46589795 0.11832476 -0.026774909
0.46672276 0.1191433 -0.02618319
0.46674055 0.12012308 -0.026180418
0.46756524 0.12093686 -0.025588747
0.58649206 0.24753475 0.059639432
0.58730674 0.24779569 0.060229555
0.58651924 0.2490323 0.059643667
0.58653289 0.24978109 0.059645783
0.58654648 0.25052989 0.059647903
0.58736104 0.25078443 0.060238007
0.58737457 0.25153163 0.06024012
0.58738816 0.25227883 0.060242232
0.58740175 0.25302601 0.060244348
0.58821613 0.25327262 0.060834412
0.58822966 0.25401819 0.06083652
0.58904397 0.25426003 0.061426591
0.58905751 0.25500402 0.061428696
0.5898717 0.25524107 0.062018733
0.59068584 0.25547495 0.062608764
0.59069932 0.25621575 0.062610857
0.5915134 0.25644481 0.063200891
0.59232742 0.25667071 0.063790902
0.59314138 0.25689343 0.064380914
0.59395528 0.25711295 0.064970903
0.59396857 0.2578474 0.064972982
0.59478241 0.25806212 0.065562978
0.57277578 0.00072395534 0.051273882
0.57278973 0.0014918539 0.051276054
0.57280368 0.0022597522 0.051278226
0.57281762 0.0030276526 0.051280398
0.57283157 0.0037955493 0.05128257
0.57365495 0.0045933994 0.051875427
0.57447833 0.0053880629 0.052468296
0.57530159 0.0061795404 0.053061139
0.57531548 0.0069426582 0.053063296
0.57613868 0.0077293562 0.053656142
0.57696182 0.0085128685 0.054248959
0.5777849 0.0092931939 0.054841787
0.57779866 0.010051533 0.054843932
0.57862163 0.010827078 0.05543673
0.57863539 0.011583826 0.055438869
0.5786491 0.012340572 0.055441011
0.57866287 0.013097318 0.055443149
0.57867664 0.013854064 0.055445291
0.57869035 0.01461081 0.055447429
0.57870412 0.015367557 0.055449571
0.57790887 0.016118249 0.054861087
0.57792264 0.01687659 0.054863233
0.57793641 0.017634928 0.054865379
0.57714123 0.018391993 0.054276899
0.57715505 0.019151926 0.054279048
0.57635999 0.01991377 0.053690597
0.57637382 0.020675296 0.053692751
0.57557881 0.02144192 0.0531043
0.57478392 0.02221173 0.052515872
0.57479781 0.022976441 0.052518036
0.57400292 0.023751032 0.051929604
0.57320815 0.024528807 0.051341202
0.57241344 0.025309769 0.050752807
0.57242745 0.026079262 0.050754983
0.5716328 0.026865004 0.050166585
0.57083821 0.027653931 0.049578212
0.57085228 0.028426608 0.049580395
0.57005775 0.029220317 0.048992019
0.57007182 0.029994588 0.04899421
0.56927741 0.030793075 0.048405863
0.56929153 0.031568937 0.048408058
0.56849718 0.032372206 0.047819708
0.56770295 0.033178657 0.047231387
0.56771708 0.033957709 0.047233589
0.56692296 0.034768939 0.04664528
0.56612879 0.035583358 0.046056964
0.56614304 0.036365595 0.046059176
0.56534898 0.037184794 0.04547089
0.56536323 0.037968621 0.045473106
0.56456929 0.038792599 0.044884812
0.56458354 0.039578024 0.044887036
0.56378973 0.040406778 0.044298775
0.56380403 0.041193794 0.044301003
0.56301022 0.042027332 0.043712739
0.56221652 0.042864054 0.043124501
0.56223089 0.043654256 0.043126736
0.56224525 0.04444446 0.043128971
0.56225961 0.045234662 0.043131202
0.4705306 0.11653609 -0.024587395
0.4705483 0.1175095 -0.024584642
0.46975997 0.11864574 -0.025172068
0.47058365 0.11945633 -0.024579136
0.47060132 0.12042975 -0.024576383
0.58697903 0.24827658 0.059061266
0.58699262 0.24902534 0.059063382
0.58700627 0.24977413 0.059065502
0.58701986 0.25052291 0.059067618
0.58703345 0.25127169 0.059069738
0.58784693 0.25152469 0.059661072
0.58786052 0.25227189 0.059663184
0.58787411 0.25301906 0.059665296
0.5878877 0.25376624 0.059667412
0.58870101 0.25401127 0.060258709
0.58871454 0.25475687 0.060260817
0.58952785 0.2549971 0.060852118
0.58954138 0.25574112 0.060854219
0.59035456 0.25597659 0.06144549
0.59116763 0.25620887 0.062036749
0.59198076 0.25643796 0.062628016
0.5927937 0.25666386 0.063219257
0.59280711 0.2574015 0.063221343
0.59362006 0.25762263 0.063812591
0.59443289 0.25784057 0.06440381
0.59524572 0.2580553 0.064995043
0.57326126 0.00071682059 0.050678786
0.57327521 0.001484719 0.050680958
0.57328916 0.0022526176 0.05068313
0.5733031 0.0030205178 0.050685301
0.57412553 0.0038199734 0.0512794
0.57413942 0.0045862794 0.051281564
0.57496178 0.0053809579 0.05187567
0.57578403 0.0061724498 0.052469745
0.57579792 0.0069355676 0.052471902
0.5766201 0.0077222809 0.053065982
0.57744223 0.0085058073 0.053660035
0.577456 0.0092657413 0.053662185
0.57827806 0.010044487 0.054256242
0.57829183 0.010802826 0.054258388
0.57911378 0.011576795 0.054852415
0.57912755 0.01233354 0.054854553
0.57914132 0.013090286 0.054856695
0.57915503 0.013847033 0.054858834
0.57836074 0.014594524 0.054269109
0.57837451 0.015352865 0.054271255
0.57838827 0.016111204 0.0542734
0.57759404 0.016865067 0.053683676
0.57760787 0.017625 0.053685825
0.57762164 0.018384933 0.053687975
0.57682759 0.019145168 0.053098287
0.57684141 0.019906694 0.053100441
0.57604742 0.02067171 0.05251075
0.57525349 0.021439912 0.051921081
0.57526737 0.022204624 0.051923245
0.5744735 0.022977607 0.051333573
0.57367969 0.023753775 0.05074393
0.57288599 0.024533128 0.050154299
0.57289994 0.025302621 0.050156474
0.57210624 0.026086753 0.049566835
0.57131267 0.026874073 0.048977226
0.57132673 0.027646752 0.048979409
0.57053322 0.028438851 0.048389796
0.57054728 0.029213123 0.048391983
0.56975383 0.030010002 0.0478024
0.56976795 0.030785864 0.047804594
0.56897455 0.031587522 0.047215007
0.56818134 0.032392368 0.046625443
0.56819546 0.033171419 0.046627648
0.5674023 0.033981044 0.046038099
0.56660914 0.034793854 0.045448542
