# .PCD v0.7 - Point Cloud Data file format
VERSION 0.7
FIELDS x y z
SIZE 4 4 4
TYPE F F F
COUNT 1 1 1
WIDTH 1359
HEIGHT 1
VIEWPOINT 0 0 0 1 0 0 0
POINTS 1359
DATA ascii
0.53519398 -0.0035341214 0.048999082
0.5351879 -0.0026881322 0.048986379
0.53518182 -0.0018421448 0.04897368
0.53517574 -0.00099615636 0.04896098
0.53432441 -0.00018999877 0.048405819
0.53431833 0.00065758388 0.048393093
0.53431219 0.0015051645 0.048380367
0.53430611 0.0023527471 0.048367646
0.53430003 0.003200328 0.04835492
0.53344858 0.0040160441 0.047799584
0.53344244 0.0048652184 0.047786836
0.53343636 0.0057143937 0.047774088
0.53343022 0.0065635685 0.04776134
0.53342414 0.0074127438 0.047748592
0.533418 0.0082619181 0.047735844
0.53256655 0.0090887882 0.047180369
0.53340578 0.0099602686 0.047710348
0.5333997 0.010809444 0.0476976
0.53339356 0.011658618 0.047684852
0.53338748 0.012507793 0.047672104
0.53338134 0.013356968 0.047659356
0.53337526 0.014206143 0.047646608
0.53336912 0.015055318 0.04763386
0.53336304 0.015904494 0.047621112
0.5333569 0.016753668 0.047608364
0.53335083 0.017602842 0.047595616
0.53334469 0.018452017 0.047582868
0.53333861 0.019301193 0.047570121
0.53333247 0.020150367 0.047557373
0.53332639 0.020999543 0.047544625
0.53332025 0.021848718 0.047531877
0.53331417 0.022697892 0.047519129
0.53330803 0.023547066 0.047506381
0.53245634 0.024402615 0.046950474
0.53245026 0.025253382 0.046937704
0.53244412 0.02610415 0.046924934
0.53243798 0.026954917 0.04691216
0.53243184 0.027805688 0.046899389
0.53242576 0.028656455 0.046886615
0.53241962 0.029507224 0.046873845
0.53241348 0.03035799 0.046861075
0.5324074 0.031208759 0.046848301
0.53240126 0.032059528 0.046835531
0.53239512 0.032910295 0.046822757
0.53323472 0.033737168 0.047353406
0.53322864 0.03458634 0.047340658
0.5332225 0.035435516 0.04732791
0.53406215 0.036256015 0.047858685
0.53405607 0.037103593 0.04784596
0.53404999 0.037951175 0.047833238
0.53404391 0.038798757 0.047820512
0.53403777 0.039646339 0.04780779
0.53403169 0.04049392 0.047795065
0.53402561 0.041341502 0.047782339
0.53401947 0.042189084 0.047769617
0.53485924 0.042995244 0.048300575
0.5348531 0.043841235 0.048287876
0.53484702 0.044687223 0.048275176
0.53484094 0.04553321 0.048262477
0.53483486 0.046379197 0.048249774
0.53482878 0.047225188 0.048237074
0.5348227 0.048071176 0.048224375
0.53481662 0.048917167 0.048211675
0.53481054 0.049763151 0.048198976
0.53395849 0.050664902 0.047642376
0.53395241 0.051512484 0.047629654
0.53394628 0.052360069 0.047616929
0.5339402 0.053207647 0.047604203
0.53393412 0.054055229 0.047591481
0.53392804 0.054902811 0.047578756
0.53307587 0.055815715 0.047021959
0.53306973 0.056664888 0.047009211
0.53306365 0.057514064 0.046996463
0.53221148 0.058433339 0.046439603
0.53220534 0.05928411 0.046426829
0.53219926 0.060134877 0.046414059
0.53134704 0.061060522 0.045857102
0.5313409 0.061912883 0.045844305
0.53133482 0.062765248 0.045831509
0.52918112 -0.033965729 0.044437516
0.52917498 -0.033106994 0.044424623
0.53001261 -0.032149471 0.044954561
0.53000647 -0.03129233 0.044941694
0.53084421 -0.03033958 0.045471735
0.5316819 -0.029390024 0.046001792
0.53167576 -0.028536066 0.045988973
0.5325135 -0.027591288 0.046519101
0.53250736 -0.026738927 0.046506304
0.53334516 -0.02579893 0.047036503
0.53333902 -0.024948163 0.047023732
0.53333288 -0.024097394 0.047010962
0.53417075 -0.023163768 0.047541257
0.53416461 -0.022314593 0.047528509
0.53415853 -0.021465415 0.047515761
0.53415239 -0.020616243 0.047503013
0.53414631 -0.019767068 0.047490265
0.53498423 -0.018842995 0.048020735
0.53497815 -0.017995415 0.048008014
0.53497201 -0.017147833 0.047995288
0.53496593 -0.01630025 0.047982566
0.53495985 -0.01545267 0.04796984
0.53495377 -0.014605088 0.047957115
0.53494763 -0.013757506 0.047944393
0.53494155 -0.012909923 0.047931667
0.53493547 -0.012062343 0.047918946
0.53492934 -0.011214762 0.04790622
0.53492326 -0.01036718 0.047893498
0.53491718 -0.0095195966 0.047880773
0.53491104 -0.0086720167 0.047868047
0.53490496 -0.0078244349 0.047855325
0.53489888 -0.0069768513 0.047842599
0.53573692 -0.0060782768 0.048373424
0.53573084 -0.0052322876 0.048360724
0.53572476 -0.0043863002 0.048348024
0.53571868 -0.0035403108 0.048335321
0.5357126 -0.0026943216 0.048322622
0.53570652 -0.001848334 0.048309922
0.53570044 -0.0010023456 0.048297223
0.5356943 -0.00015635722 0.048284523
0.53484398 0.00065138284 0.047728084
0.5348379 0.0014989636 0.047715358
0.53483176 0.0023465462 0.047702637
0.53482568 0.003194127 0.047689911
0.5348196 0.0040417095 0.047677189
0.5339691 0.0048590056 0.047120575
0.53396297 0.0057081813 0.047107827
0.53395689 0.0065573561 0.047095079
0.53395075 0.0074065309 0.047082331
0.53394467 0.0082557052 0.047069583
0.53393853 0.0091048805 0.047056835
0.53393245 0.0099540558 0.047044087
0.53392631 0.010803231 0.047031339
0.53392023 0.011652405 0.047018591
0.53391409 0.012501581 0.047005843
0.53390801 0.013350756 0.046993095
0.53390187 0.01419993 0.046980347
0.53389579 0.015049106 0.0469676
0.53388965 0.01589828 0.046954852
0.53388357 0.016747456 0.046942104
0.53387743 0.01759663 0.046929356
0.53387135 0.018445805 0.046916608
0.53386521 0.019294981 0.04690386
0.53385913 0.020144155 0.046891112
0.53385299 0.02099333 0.046878364
0.53384691 0.021842504 0.046865616
0.53384078 0.02269168 0.046852868
0.5338347 0.023540854 0.04684012
0.53382856 0.024390029 0.046827372
0.53382248 0.025239205 0.046814624
0.53381634 0.026088379 0.046801876
0.5329656 0.026948694 0.046244651
0.53295952 0.027799463 0.046231877
0.53295338 0.02865023 0.046219107
0.53294724 0.029500999 0.046206333
0.53294116 0.030351767 0.046193562
0.53293502 0.031202534 0.046180792
0.53292888 0.032053303 0.046168018
0.53376746 0.032881778 0.046699893
0.53376138 0.033730954 0.046687145
0.53375524 0.03458013 0.046674397
0.53374916 0.035429303 0.046661649
0.53374302 0.036278479 0.046648901
0.53373694 0.037127655 0.046636153
0.53457564 0.037944976 0.047168229
0.53456956 0.038792558 0.047155503
0.53456342 0.03964014 0.047142781
0.53455734 0.040487722 0.047130056
0.53455126 0.041335303 0.04711733
0.53454512 0.042182885 0.047104608
0.53453904 0.043030463 0.047091883
0.53453296 0.043878049 0.047079161
0.53452682 0.04472563 0.047066435
0.53452075 0.045573208 0.047053713
0.53451467 0.046420794 0.047040988
0.53450853 0.047268376 0.047028262
0.53450245 0.048115958 0.04701554
0.53449637 0.048963536 0.047002815
0.53449023 0.049811121 0.046990093
0.53448415 0.050658699 0.046977367
0.53447807 0.051506281 0.046964645
0.53447199 0.052353866 0.04695192
0.53446585 0.053201444 0.046939194
0.53445977 0.05404903 0.046926472
0.53445369 0.054896608 0.046913747
0.53360248 0.055809502 0.046355698
0.5335964 0.056658678 0.04634295
0.53359026 0.05750785 0.046330202
0.5327391 0.058427118 0.045772091
0.53273302 0.059277885 0.04575932
0.53272688 0.060128652 0.045746546
0.53272074 0.060979422 0.045733776
0.53271466 0.061830185 0.045721006
0.53186339 0.062759012 0.045162749
0.53055656 -0.033870023 0.044307787
0.53139329 -0.032912482 0.044839006
0.53138709 -0.032056935 0.044826161
0.53222382 -0.031104181 0.045357421
0.53221768 -0.030250223 0.045344599
0.53305441 -0.029302249 0.045875933
0.53304827 -0.028449884 0.045863137
0.53304213 -0.027597524 0.04585034
0.53387892 -0.02665592 0.046381764
0.53387278 -0.025805155 0.046368994
0.53386664 -0.024954386 0.046356224
0.53386056 -0.024103619 0.04634345
0.53469735 -0.023169981 0.046874996
0.53469127 -0.022320807 0.046862248
0.53468513 -0.021471629 0.0468495
0.53467906 -0.020622455 0.046836752
0.53467292 -0.01977328 0.046824005
0.53466684 -0.018924106 0.046811257
0.5355038 -0.018001616 0.047343004
0.53549773 -0.017154034 0.047330279
0.53549159 -0.016306451 0.047317557
0.53548551 -0.015458871 0.047304831
0.53547943 -0.014611289 0.047292106
0.53547329 -0.013763708 0.047279384
0.53546721 -0.012916124 0.047266658
0.53546113 -0.012068545 0.047253937
0.53545499 -0.011220963 0.047241211
0.53544891 -0.010373381 0.047228489
0.53544283 -0.0095257973 0.047215763
0.53543669 -0.0086782174 0.047203038
0.53543061 -0.0078306356 0.047190316
0.53542453 -0.0069830525 0.04717759
0.53541839 -0.0061354707 0.047164869
0.53541231 -0.0052878908 0.047152143
0.53540623 -0.004440309 0.047139421
0.53624332 -0.0035465001 0.04767156
0.53623724 -0.0027005109 0.047658861
0.53623116 -0.0018545234 0.047646161
0.53622508 -0.0010085349 0.047633462
0.536219 -0.00016254657 0.047620762
0.53621292 0.00068344182 0.047608063
0.53536355 0.0014927626 0.047050349
0.53535742 0.0023403452 0.047037628
0.53535134 0.003187926 0.047024902
0.53534526 0.0040355087 0.04701218
0.53533912 0.0048830896 0.046999454
0.53448963 0.0057019684 0.046441566
0.53448355 0.0065511432 0.046428818
0.53447741 0.0074003185 0.04641607
0.53447133 0.0082494924 0.046403322
0.53446519 0.0090986677 0.046390574
0.53445911 0.0099478429 0.046377826
0.53445297 0.010797018 0.046365079
0.5344469 0.011646193 0.046352331
0.53444076 0.012495368 0.046339583
0.53443468 0.013344543 0.046326835
0.53442854 0.014193717 0.046314087
0.53442246 0.015042893 0.046301339
0.53441632 0.015892068 0.046288591
0.53441024 0.016741242 0.046275843
0.5344041 0.017590417 0.046263095
0.53439796 0.018439593 0.046250347
0.53439188 0.019288767 0.046237599
0.53438574 0.020137943 0.046224855
0.53437966 0.020987118 0.046212107
0.53437352 0.021836292 0.046199359
0.53436744 0.022685466 0.046186611
0.5343613 0.023534643 0.046173863
0.53435522 0.024383817 0.046161115
0.53434908 0.025232991 0.046148367
0.534343 0.026082167 0.046135619
0.53433686 0.026931342 0.046122871
0.53433079 0.027780516 0.046110123
0.533481 0.028644007 0.045551594
0.53347486 0.029494774 0.045538824
0.53346878 0.030345542 0.045526054
0.53346264 0.031196311 0.04551328
0.5334565 0.032047078 0.045500509
0.53345042 0.032897845 0.045487735
0.53344429 0.033748616 0.045474965
0.53428191 0.034573916 0.04600814
0.53427577 0.035423089 0.045995392
0.53426969 0.036272265 0.045982644
0.53426355 0.037121441 0.045969896
0.53425747 0.037970617 0.045957148
0.53425133 0.03881979 0.0459444
0.53424525 0.039668966 0.045931652
0.53423911 0.040518142 0.045918904
0.53507692 0.041329101 0.046452321
0.53507078 0.042176683 0.046439599
0.5350647 0.043024264 0.046426874
0.53505862 0.043871846 0.046414152
0.53505248 0.044719428 0.046401426
0.5350464 0.04556701 0.046388704
0.53504032 0.046414591 0.046375979
0.53503418 0.047262177 0.046363253
0.5350281 0.048109755 0.046350531
0.53502202 0.048957337 0.046337806
0.53501594 0.049804918 0.046325084
0.5350098 0.050652497 0.046312358
0.53500372 0.051500082 0.046299636
0.53499764 0.052347664 0.046286911
0.5349915 0.053195246 0.046274185
0.53414136 0.054104943 0.045714937
0.53413528 0.054954115 0.045702189
0.53412914 0.055803288 0.045689441
0.53412306 0.056652464 0.045676693
0.53327286 0.057570118 0.045117352
0.53326678 0.058420893 0.045104582
0.53326064 0.05927166 0.045091808
0.53241044 0.060195692 0.044532377
0.5324043 0.061048049 0.044519581
0.53239816 0.061900411 0.044506785
0.53239202 0.062752776 0.044493992
0.53359526 -0.031013206 0.045232762
0.53358912 -0.030160848 0.045219965
0.53358305 -0.029308485 0.045207173
0.53441876 -0.02836368 0.0457398
0.53441268 -0.027512912 0.045727026
0.53440654 -0.026662143 0.045714255
0.5344004 -0.02581138 0.045701481
0.53439432 -0.024960611 0.045688711
0.53523016 -0.024025368 0.046221487
0.53522402 -0.023176193 0.046208739
0.53521794 -0.022327019 0.046195991
0.5352118 -0.021477841 0.046183243
0.53520572 -0.020628667 0.046170495
0.53519958 -0.019779494 0.046157748
0.5351935 -0.01893032 0.046145
0.53518736 -0.018081142 0.046132252
0.53518128 -0.017231969 0.046119504
0.53601724 -0.016312651 0.046652544
0.53601116 -0.015465072 0.046639819
0.53600508 -0.014617491 0.046627097
0.53599894 -0.013769909 0.046614371
0.53599286 -0.012922325 0.046601646
0.53598678 -0.012074745 0.046588924
0.53598064 -0.011227163 0.046576198
0.53597456 -0.010379582 0.046563476
0.53596848 -0.0095319981 0.046550751
0.53596234 -0.0086844182 0.046538029
0.53595626 -0.0078368373 0.046525303
0.53595018 -0.0069892532 0.046512578
0.5359441 -0.0061416714 0.046499856
0.53593796 -0.005294092 0.04648713
0.53593189 -0.0044465102 0.046474408
0.53592581 -0.0035989266 0.046461683
0.53591967 -0.0027513448 0.046448961
0.53591359 -0.0019037642 0.046436235
0.53590751 -0.0010561824 0.04642351
0.53590137 -0.00020860173 0.046410788
0.53589529 0.00063898088 0.046398062
0.53588921 0.0014865616 0.04638534
0.53588307 0.0023341442 0.046372615
0.53587699 0.003181725 0.046359893
0.53587091 0.0040293075 0.046347167
0.53586477 0.0048768884 0.046334442
0.53585869 0.0057244706 0.04632172
0.53501016 0.0065449309 0.045762561
0.53500408 0.0073941057 0.045749813
0.53499794 0.0082432805 0.045737065
0.53499186 0.0090924548 0.045724317
0.53498572 0.009941631 0.045711569
0.53497964 0.010790805 0.045698822
0.5349735 0.011639981 0.045686074
0.53496742 0.012489155 0.045673326
0.53496128 0.01333833 0.045660578
0.5349552 0.014187505 0.04564783
0.53494906 0.01503668 0.045635082
0.53494298 0.015885854 0.045622334
0.53493685 0.01673503 0.045609586
0.53493077 0.017584205 0.045596838
0.53492463 0.018433379 0.04558409
0.53491855 0.019282555 0.045571342
0.53491241 0.02013173 0.045558594
0.53490633 0.020980906 0.045545846
0.53490019 0.02183008 0.045533098
0.53489411 0.022679254 0.04552035
0.53488797 0.023528429 0.045507602
0.53488189 0.024377605 0.045494854
0.53487575 0.025226779 0.045482107
0.53486967 0.026075954 0.045469359
0.53486353 0.02692513 0.045456611
0.53401476 0.027787015 0.044896856
0.53400862 0.028637782 0.044884086
0.53400254 0.02948855 0.044871312
0.5339964 0.030339317 0.044858541
0.53399026 0.031190086 0.044845771
0.53398418 0.032040853 0.044832997
0.53397804 0.03289162 0.044820227
0.53397191 0.033742391 0.044807453
0.53396583 0.034593157 0.044794682
0.53395969 0.035443928 0.044781912
0.53395355 0.036294695 0.044769138
0.53394741 0.037145466 0.044756368
0.53394133 0.037996233 0.044743594
0.534778 0.038813576 0.045278139
0.53477186 0.039662752 0.045265391
0.53476578 0.040511928 0.045252644
0.53475964 0.041361105 0.045239896
0.53475356 0.042210277 0.045227148
0.53474742 0.04305945 0.0452144
0.53474134 0.04390863 0.045201652
0.5347352 0.044757802 0.045188904
0.53472912 0.045606978 0.045176156
0.53472298 0.046456151 0.045163408
0.5347169 0.047305331 0.04515066
0.53471076 0.048154503 0.045137912
0.53470469 0.049003676 0.045125164
0.53469855 0.049852852 0.045112416
0.53469247 0.050702024 0.045099668
0.53468633 0.051551204 0.04508692
0.53468025 0.05240038 0.045074172
0.53467411 0.053249553 0.045061424
0.53466803 0.054098729 0.045048676
0.53466189 0.054947902 0.045035928
0.53465581 0.055797078 0.045023181
0.53380662 0.056713127 0.044462614
0.53380054 0.057563897 0.044449843
0.5337944 0.058414668 0.044437069
0.53294522 0.059337091 0.043876413
0.53293908 0.060189456 0.043863617
0.53293294 0.061041813 0.043850821
0.5329268 0.061894175 0.043838024
0.53292066 0.06274654 0.043825228
0.5341239 -0.031019442 0.044564005
0.53495866 -0.030071445 0.045097835
0.53495252 -0.029220676 0.045085061
0.53494644 -0.028369904 0.045072291
0.5349403 -0.027519137 0.045059521
0.53493416 -0.026668368 0.045046747
0.53492802 -0.025817603 0.045033976
0.53492194 -0.024966836 0.045021202
0.5349158 -0.024116067 0.045008432
0.53490967 -0.023265298 0.044995658
0.53574455 -0.022333231 0.045529727
0.53573847 -0.021484055 0.045516979
0.53573233 -0.02063488 0.045504231
0.53572625 -0.019785706 0.045491483
0.53572011 -0.018936532 0.045478735
0.53571403 -0.018087354 0.045465987
0.53570789 -0.017238181 0.045453239
0.53570181 -0.016389005 0.045440491
0.53569567 -0.015539831 0.045427743
0.53568959 -0.014690656 0.045414995
0.53568345 -0.013841482 0.045402247
0.53567737 -0.012992305 0.0453895
0.53567123 -0.01214313 0.045376752
0.53566515 -0.011293956 0.045364004
0.53565902 -0.010444783 0.045351256
0.53565294 -0.0095956046 0.045338508
0.53648806 -0.0086906198 0.04587302
0.53648192 -0.0078430381 0.045860294
0.53647584 -0.0069954544 0.045847569
0.53646976 -0.0061478727 0.045834847
0.53646362 -0.0053002927 0.045822121
0.53645754 -0.004452711 0.045809399
0.53645146 -0.0036051276 0.045796674
0.53644532 -0.0027575458 0.045783952
0.53643924 -0.0019099652 0.045771226
0.53643316 -0.0010623834 0.045758501
0.53642702 -0.00021480271 0.045745779
0.53642094 0.00063277991 0.045733053
0.53641486 0.0014803606 0.045720331
0.53640872 0.0023279432 0.045707606
0.53640264 0.0031755241 0.045694884
0.53639656 0.0040231068 0.045682158
0.53639042 0.0048706871 0.045669433
0.53554291 0.0056895432 0.045109045
0.53553683 0.006538718 0.045096297
0.53553069 0.0073878928 0.045083549
0.53552461 0.0082370676 0.045070801
0.53551847 0.0090862429 0.045058053
0.53551239 0.0099354181 0.045045305
0.53550625 0.010784592 0.045032557
0.53550017 0.011633768 0.045019809
0.53549403 0.012482943 0.045007061
0.53548795 0.013332117 0.044994313
0.53548181 0.014181293 0.044981565
0.53547573 0.015030468 0.044968817
0.53546959 0.015879642 0.044956069
0.53546351 0.016728817 0.044943321
0.53545737 0.017577993 0.044930574
0.53545129 0.018427167 0.044917826
0.53544515 0.019276343 0.044905078
0.53543907 0.020125518 0.04489233
0.53543293 0.020974692 0.044879582
0.53542686 0.021823866 0.044866834
0.53542072 0.022673042 0.044854086
0.53541464 0.023522217 0.044841338
0.5354085 0.024371391 0.04482859
0.53540242 0.025220567 0.044815842
0.53539628 0.026069742 0.044803094
0.5353902 0.026918916 0.044790346
0.53454238 0.02778079 0.044229351
0.5345363 0.028631557 0.044216577
0.53453016 0.029482326 0.044203807
0.53452402 0.030333094 0.044191033
0.53451794 0.031183861 0.044178262
0.5345118 0.032034632 0.044165492
0.53450567 0.032885395 0.044152718
0.53449953 0.033736166 0.044139948
0.53449345 0.034586936 0.044127174
0.53448731 0.035437703 0.044114403
0.53448117 0.03628847 0.044101629
0.53447509 0.037139241 0.044088859
0.53446895 0.037990008 0.044076089
0.53446281 0.038840774 0.044063315
0.53445667 0.039691541 0.044050545
0.53445059 0.040542312 0.04403777
0.53444445 0.041393079 0.044025
0.53443831 0.042243846 0.04401223
0.53527409 0.04305324 0.044548135
0.53526801 0.043902416 0.044535387
0.53526187 0.044751592 0.044522639
0.53525579 0.045600764 0.044509891
0.53524965 0.046449937 0.044497143
0.53524357 0.047299117 0.044484396
0.53523743 0.048148289 0.044471648
0.53523135 0.048997466 0.0444589
0.53522521 0.049846638 0.044446152
0.53521907 0.050695814 0.044433404
0.53521299 0.05154499 0.044420656
0.53520685 0.052394167 0.044407908
0.53520077 0.053243343 0.04439516
0.53519464 0.054092515 0.044382412
0.53434652 0.055005372 0.043820649
0.53434038 0.055856138 0.043807879
0.53433424 0.056706902 0.043795105
0.53432816 0.057557672 0.043782335
0.53347993 0.058478497 0.043220449
0.53347379 0.059330855 0.043207653
0.53346765 0.06018322 0.043194856
0.53346157 0.061035577 0.04318206
0.53345543 0.061887939 0.043169267
0.53344929 0.062740304 0.043156471
0.58172292 0.25455305 0.072613031
0.53549242 -0.030928437 0.044443097
0.53548628 -0.03007767 0.044430323
0.5354802 -0.029226901 0.044417553
0.53547406 -0.028376129 0.044404779
0.53546792 -0.02752536 0.044392008
0.53546178 -0.026674593 0.044379238
0.5354557 -0.025823828 0.044366464
0.53544956 -0.024973059 0.044353694
0.53544343 -0.024122292 0.04434092
0.53543735 -0.023271523 0.044328149
0.53627121 -0.022339445 0.044863466
0.53626508 -0.021490267 0.044850718
0.536259 -0.020641092 0.04483797
0.53625286 -0.019791918 0.044825222
0.53624678 -0.018942745 0.044812474
0.53624064 -0.018093567 0.044799726
0.53623456 -0.017244395 0.044786979
0.53622842 -0.016395217 0.044774231
0.53622234 -0.015546042 0.044761483
0.5362162 -0.014696869 0.044748735
0.53621012 -0.013847695 0.044735987
0.53620398 -0.012998517 0.044723239
0.5361979 -0.012149343 0.044710491
0.53619176 -0.011300169 0.044697743
0.53618568 -0.010450995 0.044684995
0.53617954 -0.0096018175 0.044672247
0.53617346 -0.0087526431 0.044659499
0.53616732 -0.0079034688 0.044646751
0.53616124 -0.0070542935 0.044634003
0.5361551 -0.0062051173 0.044621255
0.53614902 -0.0053559435 0.044608507
0.53614289 -0.0045067696 0.044595759
0.53697711 -0.0036113285 0.045131665
0.53697097 -0.0027637468 0.045118943
0.53696489 -0.0019161662 0.045106217
0.53695881 -0.0010685845 0.045093495
0.53695267 -0.00022100371 0.04508077
0.53694659 0.00062657893 0.045068044
0.53694052 0.0014741597 0.045055322
0.53693438 0.0023217422 0.045042597
0.53608793 0.0031358053 0.044481028
0.53608179 0.0039849812 0.04446828
0.53607571 0.0048341551 0.044455532
0.53606957 0.0056833304 0.044442784
0.53606349 0.0065325056 0.044430036
0.53605735 0.0073816804 0.044417288
0.53605127 0.0082308548 0.04440454
0.53604513 0.00908003 0.044391792
0.53603905 0.0099292053 0.044379044
0.53603292 0.010778381 0.044366296
0.53602684 0.011627555 0.044353548
0.5360207 0.01247673 0.0443408
0.53601462 0.013325904 0.044328053
0.53600848 0.01417508 0.044315305
0.5360024 0.015024255 0.044302557
0.53599626 0.01587343 0.044289812
0.53599012 0.016722605 0.044277065
0.53598404 0.017571779 0.044264317
0.5359779 0.018420955 0.044251569
0.53597182 0.01927013 0.044238821
0.53596568 0.020119304 0.044226073
0.5359596 0.02096848 0.044213325
0.53595346 0.021817654 0.044200577
0.53594738 0.022666829 0.044187829
0.53594124 0.023516005 0.044175081
0.53593516 0.024365179 0.044162333
0.53508842 0.025222261 0.043600153
0.53508228 0.026073029 0.043587383
0.53507614 0.026923796 0.043574613
0.53507006 0.027774565 0.043561839
0.53506392 0.028625334 0.043549068
0.53505778 0.029476101 0.043536294
0.53505164 0.030326869 0.043523524
0.53504556 0.031177638 0.04351075
0.5341987 0.032049056 0.042948358
0.53419256 0.032901417 0.042935561
0.53418642 0.033753779 0.042922765
0.53418028 0.034606144 0.042909969
0.53417414 0.035458505 0.042897172
0.534168 0.036310863 0.042884376
0.53416187 0.037163228 0.042871583
0.53415579 0.038015585 0.042858787
0.53499043 0.038834549 0.043395806
0.53498435 0.039685316 0.043383032
0.53497821 0.040536087 0.043370262
0.53497207 0.041386854 0.043357488
0.53496599 0.042237625 0.043344717
0.53495985 0.043088391 0.043331947
0.53495371 0.043939158 0.043319173
0.53494763 0.044789929 0.043306403
0.53494149 0.045640696 0.043293629
0.53493536 0.046491463 0.043280859
0.53492922 0.047342233 0.043268088
0.53492314 0.048193 0.043255314
0.534917 0.049043767 0.043242544
0.53491086 0.049894538 0.04322977
0.53490478 0.050745301 0.043217
0.53489864 0.051596072 0.043204226
0.5348925 0.052446842 0.043191455
0.53488642 0.053297609 0.043178685
0.53488028 0.05414838 0.043165911
0.53487414 0.054999147 0.043153141
0.534868 0.055849914 0.043140367
0.53402084 0.056767534 0.042577278
0.5340147 0.057619896 0.042564485
0.53400856 0.058472261 0.042551689
0.53400242 0.059324618 0.042538892
0.53399628 0.060176983 0.042526096
0.53314906 0.061104164 0.041962866
0.53314292 0.061958119 0.041950047
0.53313673 0.062812075 0.041937228
0.58219874 0.25378916 0.072029404
0.58219326 0.25454751 0.07201802
0.53602618 -0.031785429 0.043788355
0.53602004 -0.030934662 0.043775581
0.53601396 -0.030083893 0.043762811
0.53684676 -0.029139057 0.044299189
0.53600168 -0.028382353 0.043737266
0.53599554 -0.027531585 0.043724496
0.53598946 -0.026680816 0.043711722
0.53598332 -0.025830053 0.043698952
0.53597718 -0.024979284 0.043686181
0.53597111 -0.024128515 0.043673407
0.53596497 -0.023277747 0.043660637
0.53595883 -0.02242698 0.043647863
0.53595269 -0.021576207 0.043635093
0.53594661 -0.020725442 0.043622319
0.53594047 -0.019874675 0.043609548
0.53593433 -0.019023906 0.043596778
0.53592825 -0.018173138 0.043584004
0.53592211 -0.017322369 0.043571234
0.53591597 -0.016471602 0.04355846
0.53674901 -0.015552255 0.044095222
0.53590375 -0.014770065 0.043532919
0.53589761 -0.013919299 0.043520145
0.53589147 -0.013068529 0.043507375
0.53588539 -0.01221776 0.043494601
0.53587925 -0.011366992 0.043481831
0.53587312 -0.010516226 0.043469056
0.53670621 -0.0096080303 0.044005986
0.53670007 -0.008758856 0.043993238
0.53669399 -0.0079096816 0.04398049
0.53668785 -0.0070605059 0.043967742
0.53668177 -0.0062113302 0.043954995
0.53667563 -0.0053621563 0.043942247
0.53666955 -0.004512982 0.043929499
0.53666341 -0.0036638062 0.043916751
0.53665733 -0.0028146303 0.043904003
0.53665119 -0.0019654571 0.043891255
0.53664511 -0.0011162814 0.043878507
0.53663898 -0.00026710733 0.043865759
0.5366329 0.00058206858 0.043853011
0.53662676 0.0014312426 0.043840263
0.53662068 0.0022804185 0.043827515
0.53661454 0.0031295924 0.043814767
0.53660846 0.0039787684 0.043802019
0.53660232 0.0048279422 0.043789271
0.53659624 0.005677118 0.043776523
0.5365901 0.0065262928 0.043763775
0.53658402 0.0073754676 0.043751027
0.53657788 0.0082246419 0.043738279
0.5365718 0.0090738172 0.043725532
0.53656566 0.0099229924 0.043712784
0.53655958 0.010772168 0.043700036
0.53655344 0.011621342 0.043687288
0.53654736 0.012470517 0.04367454
0.53654122 0.013319693 0.043661792
0.53653514 0.014168867 0.043649044
0.536529 0.015018042 0.043636296
0.53652292 0.015867217 0.043623548
0.53651679 0.016716393 0.0436108
0.53651071 0.017565567 0.043598052
0.53650457 0.018414741 0.043585304
0.53649849 0.019263918 0.043572556
0.53649235 0.020113092 0.043559808
0.53648627 0.020962266 0.04354706
0.53648013 0.021811441 0.043534312
0.5356344 0.022663733 0.042970955
0.53562826 0.0235145 0.042958185
0.53562218 0.024365269 0.042945411
0.53561604 0.025216036 0.042932641
0.5356099 0.026066804 0.04291987
0.53560382 0.026917573 0.042907096
0.53559768 0.027768342 0.042894326
0.53559154 0.028619109 0.042881552
0.53474569 0.029485738 0.042317983
0.53473955 0.030338101 0.042305186
0.53473347 0.031190461 0.04229239
0.53472733 0.03204282 0.042279594
0.5347212 0.032895181 0.042266801
0.53471506 0.033747543 0.042254005
0.53470892 0.034599908 0.042241208
0.53470278 0.035452269 0.042228412
0.53469664 0.036304627 0.042215616
0.5346905 0.037156992 0.042202819
0.53468436 0.038009349 0.042190026
0.53467822 0.038861711 0.04217723
0.53467214 0.039714072 0.042164434
0.534666 0.040566437 0.042151637
0.53465986 0.041418798 0.042138841
0.53465372 0.042271156 0.042126045
0.53464758 0.043123517 0.042113252
0.53548139 0.043932933 0.042651661
0.53547525 0.044783704 0.04263889
0.53546911 0.045634471 0.042626116
0.53546298 0.046485238 0.042613346
0.5354569 0.047336008 0.042600572
0.53545076 0.048186775 0.042587802
0.53544462 0.049037546 0.042575028
0.53543854 0.049888313 0.042562257
0.5354324 0.050739076 0.042549487
0.53542626 0.05158985 0.042536713
0.53542012 0.052440617 0.042523943
0.53541404 0.053291384 0.042511169
0.5354079 0.054142155 0.042498399
0.53456169 0.055056576 0.04193411
0.53455561 0.055908937 0.041921314
0.53454947 0.056761302 0.041908517
0.53454334 0.05761366 0.041895721
0.5345372 0.058466025 0.041882925
0.53369093 0.059390008 0.041318491
0.53368479 0.06024396 0.041305672
0.53367865 0.061097912 0.041292854
0.53367251 0.061951872 0.041280031
0.53282619 0.062883817 0.040715482
0.5826745 0.25302523 0.071445778
0.58266902 0.25378358 0.071434394
0.5826636 0.25454196 0.071423009
0.53739172 -0.031692792 0.043671172
0.53738558 -0.030843617 0.043658424
0.5373795 -0.029994443 0.043645676
0.53737336 -0.029145269 0.043632928
0.53736728 -0.028296091 0.04362018
0.53652322 -0.02753781 0.043056984
0.53651708 -0.026687041 0.043044213
0.53651094 -0.025836276 0.043031439
0.53650486 -0.024985509 0.043018669
0.53649873 -0.02413474 0.043005899
0.53649259 -0.023283971 0.042993125
0.53648645 -0.022433203 0.042980354
0.53648037 -0.021582432 0.04296758
0.53647423 -0.020731667 0.04295481
0.53646809 -0.019880898 0.04294204
0.53646201 -0.019030131 0.042929266
0.53645587 -0.018179363 0.042916495
0.53644973 -0.017328594 0.042903721
0.53644365 -0.016477825 0.042890951
0.53643751 -0.015627058 0.042878177
0.53643137 -0.014776289 0.042865407
0.53642523 -0.013925523 0.042852636
0.53641915 -0.013074753 0.042839862
0.53641301 -0.012223985 0.042827092
0.53640687 -0.011373216 0.042814318
0.53640079 -0.01052245 0.042801548
0.53639466 -0.0096716797 0.042788778
0.53638852 -0.0088209119 0.042776003
0.53638244 -0.0079701459 0.042763233
0.5363763 -0.0071193753 0.042750459
0.53637016 -0.006268607 0.042737689
0.53636402 -0.005417841 0.042724919
0.53635794 -0.0045670727 0.042712145
0.5363518 -0.0037163026 0.042699374
0.53634566 -0.0028655361 0.0426866
0.53633958 -0.0020147678 0.04267383
0.53633344 -0.0011639987 0.042661056
0.5363273 -0.00031323149 0.042648286
0.5371595 0.0005758559 0.04318675
0.53715342 0.0014250299 0.043174002
0.53714728 0.0022742059 0.043161254
0.5371412 0.0031233798 0.043148506
0.53713506 0.0039725555 0.043135758
0.53712898 0.0048217298 0.043123011
0.53628445 0.0056421449 0.042558882
0.53627837 0.0064929132 0.042546112
0.53627223 0.0073436815 0.042533338
0.53626609 0.0081944503 0.042520568
0.53625995 0.0090452172 0.042507794
0.53625387 0.0098959859 0.042495023
0.53624773 0.010746755 0.042482253
0.53624159 0.011597523 0.042469479
0.53623551 0.01244829 0.042456709
0.53622937 0.013299058 0.042443935
0.53622323 0.014149827 0.042431165
0.53621715 0.015000595 0.042418394
0.53621101 0.015851364 0.04240562
0.53620487 0.01670213 0.04239285
0.53619874 0.017552899 0.042380076
0.53619266 0.018403668 0.042367306
0.53618652 0.019254437 0.042354532
0.53618038 0.020105204 0.042341761
0.5361743 0.020955972 0.042328991
0.53616816 0.021806739 0.042316217
0.53616202 0.022657508 0.042303447
0.53615594 0.023508277 0.042290673
0.5361498 0.024359044 0.042277902
0.53614366 0.025209812 0.042265132
0.53613752 0.026060581 0.042252358
0.53613144 0.026911348 0.042239588
0.53528661 0.027774779 0.041674811
0.53528047 0.02862714 0.041662015
0.53527433 0.029479502 0.041649222
0.53526819 0.030331865 0.041636426
0.53526205 0.031184224 0.04162363
0.53525591 0.032036584 0.041610833
0.53524983 0.032888945 0.041598037
0.53440487 0.033765126 0.041033074
0.53439873 0.034619078 0.041020252
0.5343926 0.035473034 0.041007433
0.53438646 0.036326986 0.040994614
0.53438032 0.037180942 0.040981792
0.53521299 0.038003117 0.041521262
0.53520685 0.038855474 0.041508466
0.53520072 0.039707836 0.041495673
0.53519464 0.040560201 0.041482877
0.5351885 0.041412562 0.041470081
0.53518236 0.042264923 0.041457284
0.53517622 0.043117281 0.041444488
0.53517008 0.043969646 0.041431691
0.53516394 0.044822004 0.041418899
0.5351578 0.045674369 0.041406102
0.53515166 0.046526726 0.041393306
0.53514552 0.047379088 0.04138051
0.53513938 0.048231453 0.041367713
0.5351333 0.04908381 0.041354917
0.53512716 0.049936172 0.041342124
0.53512102 0.050788533 0.041329328
0.53511488 0.051640898 0.041316532
0.53510875 0.052493259 0.041303735
0.53510261 0.053345617 0.041290939
0.53509647 0.054197982 0.041278142
0.53509033 0.05505034 0.04126535
0.53508419 0.055902701 0.041252553
0.53423899 0.056821894 0.040686943
0.53423285 0.057675846 0.04067412
0.53422672 0.058529805 0.040661301
0.5333814 0.059455369 0.040095594
0.53337526 0.060310915 0.040082753
0.53336912 0.061166465 0.040069908
0.53336293 0.062022012 0.040057063
0.53335679 0.062877558 0.040044222
0.5814715 0.25247148 0.06975536
0.58315027 0.25226134 0.070862152
0.58314484 0.25301969 0.070850767
0.58313936 0.25377804 0.070839383
0.58313394 0.25453642 0.070827998
0.53791833 -0.031699006 0.043004911
0.53791225 -0.030849829 0.042992163
0.53790611 -0.030000657 0.042979416
0.53790003 -0.029151483 0.042966668
0.53789389 -0.028302304 0.04295392
0.53788781 -0.02745313 0.042941172
0.5370447 -0.026693266 0.042376701
0.53703856 -0.025842501 0.04236393
0.53703249 -0.024991732 0.04235116
0.53702635 -0.024140963 0.042338386
0.53702021 -0.023290196 0.042325616
0.53701413 -0.022439428 0.042312842
0.53617096 -0.02166841 0.041748203
0.53616482 -0.020816049 0.041735411
0.53615868 -0.019963689 0.041722614
0.53615254 -0.019111328 0.041709818
0.5361464 -0.018258968 0.041697022
0.53614026 -0.017406607 0.041684225
0.53613412 -0.016554244 0.041671429
0.53612798 -0.015701883 0.041658636
0.53612185 -0.014849522 0.04164584
0.53611577 -0.01399716 0.041633043
0.53610963 -0.013144798 0.041620247
0.53610349 -0.012292437 0.041607451
0.53609735 -0.011440077 0.041594654
0.53609121 -0.010587716 0.041581862
0.53608507 -0.0097353533 0.041569065
0.53691614 -0.0088271359 0.042108495
0.53691006 -0.0079763699 0.042095721
0.53690392 -0.0071255998 0.04208295
0.53689778 -0.0062748315 0.042070176
0.5368917 -0.005424065 0.042057406
0.53688556 -0.0045732968 0.042044636
0.53687942 -0.0037225268 0.042031862
0.53687334 -0.0028717604 0.042019092
0.5368672 -0.0020209923 0.042006318
0.53686106 -0.0011702231 0.041993547
0.53685492 -0.00031945578 0.041980777
0.53684884 0.00053131243 0.041968003
0.5368427 0.0013820806 0.041955233
0.53683656 0.0022328489 0.041942459
0.53683048 0.0030836172 0.041929688
0.53682435 0.0039343853 0.041916914
0.53681821 0.0047851526 0.041904144
0.53681213 0.0056359209 0.041891374
0.53680599 0.0064866892 0.0418786
0.53679985 0.0073374575 0.041865829
0.53679371 0.0081882253 0.041853055
0.53678763 0.0090389932 0.041840285
0.53678149 0.0098897619 0.041827515
0.53677535 0.01074053 0.041814741
0.53676927 0.011591298 0.04180197
0.53676313 0.012442066 0.041789196
0.53675699 0.013292834 0.041776426
0.53675091 0.014143602 0.041763652
0.53674477 0.014994371 0.041750882
0.53673863 0.015845139 0.041738112
0.53673249 0.016695907 0.041725338
0.53672642 0.017546674 0.041712567
0.53672028 0.018397443 0.041699793
0.53671414 0.019248212 0.041687023
0.53670806 0.020098979 0.041674253
0.53670192 0.020949747 0.041661479
0.53669578 0.021800516 0.041648708
0.5366897 0.022651283 0.041635934
0.53668356 0.023502052 0.041623164
0.53667742 0.024352821 0.04161039
0.5358336 0.025211459 0.04104444
0.53582752 0.02606382 0.041031644
0.53582138 0.026916182 0.041018847
0.53581524 0.027768543 0.041006051
0.5358091 0.028620904 0.040993255
0.53580296 0.029473266 0.040980458
0.53495908 0.030343058 0.040414341
0.53495294 0.031197013 0.040401522
0.5349468 0.032050967 0.040388703
0.53494066 0.032904919 0.040375885
0.53493452 0.033758879 0.040363062
0.53492832 0.034612831 0.040350243
0.53492218 0.035466786 0.040337425
0.53491604 0.036320738 0.040324606
0.5349099 0.037174694 0.040311784
0.53490376 0.03802865 0.040298965
0.53489763 0.038882602 0.040286146
0.53489149 0.039736558 0.040273324
0.53488535 0.040590513 0.040260505
0.53571707 0.041406326 0.04080132
0.53571099 0.042258687 0.040788524
0.53570485 0.043111045 0.040775727
0.53569871 0.04396341 0.040762931
0.53569257 0.044815768 0.040750135
0.53568643 0.045668133 0.040737342
0.53568029 0.04652049 0.040724546
0.53567415 0.047372852 0.040711749
0.53566802 0.048225217 0.040698953
0.53482389 0.049130056 0.04013231
0.53481776 0.049984008 0.040119488
0.53481162 0.050837964 0.040106669
0.53480548 0.051691923 0.04009385
0.53479934 0.052545875 0.040081032
0.5347932 0.053399831 0.040068209
0.534787 0.054253783 0.04005539
0.53478086 0.055107739 0.040042572
0.53477472 0.055961695 0.040029753
0.53393048 0.056882467 0.039462864
0.53392434 0.057738014 0.039450023
0.5339182 0.058593564 0.039437179
0.533912 0.05944911 0.039424334
0.53390586 0.060304657 0.039411493
0.53389972 0.061160203 0.039398648
0.53389353 0.062015753 0.039385803
0.53304917 0.062949277 0.038818691
0.53304297 0.063806415 0.038805824
0.58026159 0.25343439 0.068037167
0.58193833 0.25322747 0.069146417
0.58277398 0.25350159 0.069695361
0.5836097 0.2537725 0.070244379
0.58360422 0.25453088 0.070232995
0.538445 -0.031705216 0.042338654
0.53843892 -0.030856043 0.042325906
0.53843278 -0.030006869 0.042313159
0.5384267 -0.029157694 0.042300411
0.5375846 -0.028401027 0.041734736
0.53757846 -0.027550258 0.041721962
0.53757232 -0.026699489 0.041709192
0.53756624 -0.025848726 0.041696418
0.53756011 -0.024997957 0.041683648
0.53755397 -0.024147188 0.041670877
0.53671181 -0.023379372 0.041105039
0.53670567 -0.022527009 0.041092243
0.53669953 -0.021674646 0.041079447
0.53669339 -0.020822285 0.04106665
0.53668731 -0.019969925 0.041053854
0.53668118 -0.019117564 0.041041061
0.53667504 -0.018265205 0.041028265
0.5366689 -0.017412841 0.041015469
0.53666276 -0.01656048 0.041002672
0.53665662 -0.015708119 0.040989876
0.53665048 -0.014855758 0.040977079
0.53664434 -0.014003396 0.040964287
0.5366382 -0.013151034 0.04095149
0.53663212 -0.012298673 0.040938694
0.53662598 -0.011446312 0.040925898
0.53661984 -0.010593952 0.040913101
0.5366137 -0.0097415894 0.040900305
0.53660756 -0.008889229 0.040887509
0.53660142 -0.0080368668 0.040874716
0.53659528 -0.0071845041 0.04086192
0.53658915 -0.0063321437 0.040849123
0.53658301 -0.0054797828 0.040836327
0.53657687 -0.0046274224 0.04082353
0.53657079 -0.0037750599 0.040810734
0.53656465 -0.0029226993 0.040797941
0.53655851 -0.002070338 0.040785145
0.53655237 -0.0012179764 0.040772349
0.53654623 -0.00036561492 0.040759552
0.53654009 0.00048674658 0.040746756
0.53653395 0.0013391072 0.04073396
0.53652781 0.0021914686 0.040721167
0.53652167 0.0030438302 0.040708371
0.53651559 0.0038961917 0.040695574
0.53650945 0.0047485521 0.040682778
0.53650331 0.0056009139 0.040669981
0.53649718 0.0064532752 0.040657185
0.53649104 0.0073056361 0.040644392
0.5364849 0.0081579974 0.040631596
0.53647876 0.0090103587 0.0406188
0.53647262 0.00986272 0.040606003
0.53730303 0.010734306 0.041147232
0.53729689 0.011585074 0.041134458
0.53729075 0.012435841 0.041121688
0.53728461 0.01328661 0.041108914
0.53727853 0.014137378 0.041096143
0.53727239 0.014988146 0.041083373
0.53726625 0.015838914 0.041070599
0.53726017 0.016689682 0.041057829
0.53725404 0.017540451 0.041045055
0.5372479 0.018391218 0.041032284
0.53724182 0.019241987 0.04101951
0.53723568 0.020092756 0.04100674
0.53639293 0.020943418 0.040439658
0.53638679 0.021795778 0.040426861
0.53638065 0.022648141 0.040414069
0.53637451 0.0235005 0.040401272
0.53636837 0.024352863 0.040388476
0.53636223 0.025205223 0.04037568
0.53635609 0.026057584 0.040362883
0.53634995 0.026909946 0.040350087
0.53634387 0.027762309 0.040337294
0.53550094 0.028628901 0.03976997
0.5354948 0.029482856 0.039757151
0.53548867 0.03033681 0.039744329
0.53548253 0.031190766 0.03973151
0.5346396 0.032065324 0.03916407
0.53463346 0.032920871 0.039151225
0.53462732 0.033776421 0.039138384
0.53462112 0.034631968 0.039125539
0.53461498 0.035487514 0.039112695
0.53460884 0.036343064 0.039099853
0.53460264 0.037198611 0.039087009
0.5345965 0.038054157 0.039074164
0.53459036 0.038909707 0.039061323
0.53542107 0.03973031 0.039603312
0.53541493 0.040584262 0.039590493
0.53540879 0.041438218 0.039577674
0.53540266 0.042292174 0.039564855
0.53539652 0.043146126 0.039552033
0.53539038 0.044000082 0.039539214
0.53538424 0.044854037 0.039526395
0.5353781 0.045707989 0.039513577
0.53537196 0.046561945 0.039500754
0.53536582 0.047415901 0.039487936
0.53535962 0.048269857 0.039475117
0.53535348 0.049123809 0.039462298
0.53534734 0.049977761 0.039449476
0.53450418 0.050887372 0.03888151
0.53449804 0.051742923 0.038868666
0.53449184 0.052598469 0.038855825
0.5344857 0.053454019 0.03884298
0.53447956 0.054309566 0.038830135
0.53447342 0.055165112 0.038817294
0.53446722 0.056020658 0.038804449
0.53446108 0.056876205 0.038791604
0.53361773 0.057800159 0.03822339
0.5336116 0.058657303 0.038210522
0.5336054 0.059514444 0.038197655
0.53359926 0.060371585 0.038184788
0.53359306 0.061228722 0.038171921
0.53358692 0.062085863 0.038159054
0.53358072 0.062943004 0.038146183
0.53357458 0.063800149 0.038133316
0.57989568 0.25391302 0.066875562
0.58157051 0.25370771 0.067987286
0.58240515 0.25398344 0.068537474
0.58323985 0.25425595 0.069087699
0.58407456 0.2545253 0.069637984
0.53896552 -0.030862255 0.041659646
0.53812444 -0.030108791 0.041092768
0.53811836 -0.029258022 0.041079998
0.53811222 -0.02840725 0.041067224
0.53810608 -0.027556483 0.041054454
0.5381 -0.026705714 0.04104168
0.53725886 -0.025942691 0.040474664
0.53725272 -0.025090329 0.040461868
0.53724658 -0.02423797 0.040449072
0.53724045 -0.023385607 0.040436275
0.53723431 -0.022533245 0.040423483
0.53722817 -0.021680882 0.040410686
0.53638697 -0.020906704 0.0398435
0.53638083 -0.020052752 0.039830681
0.53637469 -0.019198794 0.039817862
0.53636855 -0.018344842 0.039805043
0.53636235 -0.01749089 0.039792221
0.53635621 -0.016636932 0.039779402
0.53635007 -0.01578298 0.039766584
0.53634393 -0.014929025 0.039753765
0.53633779 -0.01407507 0.039740942
0.53633165 -0.013221115 0.039728124
0.53632551 -0.01236716 0.039715305
0.53631938 -0.011513207 0.039702486
0.53631324 -0.010659252 0.039689664
0.5363071 -0.0098052965 0.039676845
0.53630096 -0.0089513436 0.039664026
0.53629482 -0.0080973888 0.039651208
0.53628862 -0.0072434335 0.039638385
0.53628248 -0.0063894787 0.039625566
0.53627634 -0.0055355243 0.039612748
0.5362702 -0.0046815714 0.039599929
0.53709936 -0.0037812958 0.040141974
0.53709328 -0.0029289355 0.040129177
0.53708714 -0.0020765739 0.040116385
0.537081 -0.0012242123 0.040103588
0.53707486 -0.00037185088 0.040090792
0.53706872 0.00048051061 0.040077996
0.53706259 0.0013328712 0.040065199
0.53705645 0.0021852327 0.040052403
0.53705031 0.0030375943 0.04003961
0.53704417 0.0038899556 0.040026814
0.53703803 0.0047423164 0.040014017
0.53703195 0.0055946778 0.040001221
0.53702581 0.0064470391 0.039988425
0.53701967 0.0072994004 0.039975628
0.53701353 0.0081517622 0.039962836
0.53700739 0.0090041226 0.039950039
0.53700125 0.0098564848 0.039937243
0.53699511 0.010708846 0.039924446
0.53698897 0.011561207 0.03991165
0.53698283 0.012413568 0.039898854
0.53697675 0.013265929 0.039886061
0.53697062 0.014118291 0.039873265
0.53696448 0.014970652 0.039860468
0.53695834 0.015823014 0.039847672
0.5369522 0.016675375 0.039834876
0.53694606 0.017527737 0.039822079
0.53693992 0.018380098 0.039809287
0.53693378 0.019232459 0.03979649
0.53692764 0.020084821 0.039783694
0.5369215 0.020937182 0.039770897
0.53691542 0.021789543 0.039758101
0.53690928 0.022641905 0.039745305
0.53690314 0.023494264 0.039732512
0.536897 0.024346627 0.039719716
0.53689086 0.025198987 0.039706919
0.53604901 0.026060792 0.039138418
0.53604287 0.026914746 0.039125599
0.53603673 0.027768699 0.03911278
0.53603059 0.028622653 0.039099962
0.53518867 0.029492423 0.038531341
0.53518254 0.030347971 0.038518496
0.53517634 0.03120352 0.038505655
0.5351702 0.032059066 0.03849281
0.53516406 0.032914612 0.038479965
0.53515792 0.033770163 0.038467124
0.53515172 0.034625709 0.038454279
0.53514558 0.035481256 0.038441435
0.53513944 0.036336802 0.038428593
0.53513324 0.037192352 0.038415749
0.5351271 0.038047899 0.038402904
0.53512096 0.038903445 0.038390063
0.53511482 0.039758995 0.038377218
0.53510863 0.040614542 0.038364373
0.53510249 0.041470088 0.038351532
0.53509635 0.042325638 0.038338687
0.53509015 0.043181185 0.038325842
0.53508401 0.044036731 0.038312998
0.53507787 0.044892281 0.038300157
0.53507173 0.045747828 0.038287312
0.53506553 0.046603374 0.038274467
0.53505939 0.047458924 0.038261626
0.53505325 0.048314471 0.038248781
0.53504711 0.049170021 0.038235936
0.53504092 0.050025567 0.038223095
0.53503478 0.050881114 0.03821025
0.53502864 0.051736664 0.038197406
0.53502244 0.05259221 0.038184565
0.53418016 0.053508185 0.037615217
0.53417403 0.054365326 0.03760235
0.53416783 0.055222467 0.037589483
0.53416169 0.056079607 0.037576612
0.53415549 0.056936745 0.037563745
0.53414935 0.057793885 0.037550878
0.53414315 0.05865103 0.037538011
0.53413701 0.059508175 0.037525143
0.53413081 0.060365316 0.037512276
0.53328848 0.061297216 0.036942724
0.53328228 0.062155951 0.036929831
0.53327614 0.063014679 0.036916941
0.53326994 0.063873418 0.036904048
0.57116294 0.25609836 0.060130153
0.58120465 0.25418794 0.066825666
0.58203828 0.25446525 0.067377068
0.58371115 0.25425041 0.068491437
0.58370566 0.25501037 0.06848003
0.53865212 -0.030115014 0.04042526
0.53864598 -0.029264247 0.040412489
0.53863984 -0.028413475 0.040399719
0.53863376 -0.027562706 0.040386945
0.53779358 -0.026801286 0.0398187
0.53778744 -0.025948927 0.039805904
0.53778136 -0.025096565 0.039793111
0.53777522 -0.024244206 0.039780315
0.53693497 -0.023474818 0.039211951
0.53692883 -0.022620866 0.039199132
0.53692269 -0.021766905 0.03918631
0.53691655 -0.020912953 0.039173491
0.53607631 -0.0201356 0.038605008
0.53607017 -0.019280054 0.038592163
0.53606397 -0.018424507 0.038579322
0.53605783 -0.017568957 0.038566478
0.53605169 -0.016713409 0.038553633
0.53604555 -0.01585786 0.038540792
0.53603935 -0.015002314 0.038527947
0.53686744 -0.014081318 0.039070934
0.53686124 -0.013227363 0.039058115
0.5368551 -0.012373408 0.039045297
0.53684896 -0.011519455 0.039032474
0.53684282 -0.010665501 0.039019655
0.53683668 -0.0098115439 0.039006837
0.53683054 -0.0089575909 0.038994018
0.53682441 -0.0081036361 0.038981196
0.53681827 -0.0072496813 0.038968377
0.53681213 -0.0063957265 0.038955558
0.53680599 -0.0055417717 0.038942739
0.53679985 -0.0046878187 0.038929917
0.53679365 -0.0038338623 0.038917098
0.53678751 -0.0029799093 0.038904279
0.53678137 -0.0021259545 0.038891461
0.53677523 -0.0012719998 0.038878638
0.53676909 -0.00041804591 0.03886582
0.53676295 0.00043590885 0.038853001
0.53675681 0.0012898636 0.038840182
0.53675067 0.0021438184 0.03882736
0.53674453 0.0029977723 0.038814541
0.5367384 0.0038517271 0.038801722
0.53673226 0.004705681 0.0387889
0.53672612 0.0055596358 0.038776081
0.53671992 0.0064135897 0.038763262
0.53671378 0.0072675445 0.038750444
0.53670764 0.0081214989 0.038737621
0.5367015 0.0089754537 0.038724802
0.53669536 0.0098294085 0.038711984
0.53668922 0.010683362 0.038699165
0.53751761 0.011554971 0.039242893
0.53751147 0.012407333 0.039230097
0.53750533 0.013259694 0.039217301
0.53749919 0.014112055 0.039204504
0.53749311 0.014964417 0.039191708
0.53748697 0.015816778 0.039178915
0.53748083 0.016669139 0.039166119
0.53747469 0.017521501 0.039153323
0.53746855 0.018373862 0.039140526
0.53746241 0.019226223 0.03912773
0.53745627 0.020078585 0.039114933
0.53745013 0.020930946 0.039102141
0.537444 0.021783307 0.039089344
0.53660321 0.022638725 0.038519688
0.53659707 0.023492679 0.038506869
0.53659093 0.024346635 0.038494051
0.53658479 0.025200589 0.038481228
0.5365786 0.026054544 0.038468409
0.53573775 0.02691952 0.037898611
0.53573155 0.027775068 0.037885766
0.53572541 0.028630616 0.037872925
0.53571928 0.029486163 0.037860081
0.53571314 0.030341713 0.037847236
0.53570694 0.031197259 0.037834395
0.5357008 0.032052808 0.03782155
0.53485978 0.032930531 0.037251525
0.53485364 0.033787671 0.037238657
0.53484744 0.034644812 0.03722579
0.5348413 0.035501953 0.037212923
0.5348351 0.036359094 0.037200056
0.53566384 0.037186094 0.037744489
0.5356577 0.03804164 0.037731644
0.53565156 0.038897187 0.037718803
0.53564543 0.039752733 0.037705958
0.53563923 0.040608283 0.037693113
0.53563309 0.04146383 0.037680272
0.53562695 0.042319376 0.037667427
0.53562075 0.043174926 0.037654582
0.53561461 0.044030473 0.037641738
0.53560847 0.044886019 0.037628897
0.53560233 0.045741569 0.037616052
0.53559613 0.046597116 0.037603207
0.53558999 0.047452666 0.037590366
0.53558385 0.048308212 0.037577521
0.53474259 0.049216211 0.037007041
0.53473645 0.050073348 0.036994174
0.53473026 0.050930489 0.036981307
0.53472412 0.051787633 0.03696844
0.53471792 0.052644774 0.036955573
0.53471178 0.053501911 0.036942706
0.53470558 0.054359052 0.036929838
0.53469944 0.055216197 0.036916971
0.53385812 0.056138527 0.036346313
0.53385192 0.056997262 0.036333419
0.53384578 0.057855994 0.03632053
0.53383958 0.058714733 0.036307637
0.53383338 0.059573464 0.036294747
0.53382725 0.060432199 0.036281854
0.53382105 0.061290931 0.036268964
0.53381485 0.062149666 0.036256071
0.53380871 0.063008398 0.036243178
0.53380251 0.063867137 0.036230288
0.57164907 0.25609264 0.059515145
0.57331967 0.25591761 0.060631413
0.58084071 0.25466815 0.065661542
0.58251154 0.25445968 0.06677831
0.58334428 0.25473383 0.067331024
0.58417702 0.25500479 0.067883767
0.53917974 -0.030121239 0.039757751
0.5391736 -0.02927047 0.039744977
0.53833449 -0.028512243 0.039175533
0.53832835 -0.027659884 0.039162736
0.53832221 -0.026807522 0.03914994
0.53831607 -0.025955163 0.039137144
0.5374769 -0.025188975 0.038567577
0.53747076 -0.024335019 0.038554758
0.53746462 -0.023481065 0.038541939
0.53662539 -0.022708505 0.037972279
0.53661925 -0.021852953 0.037959438
0.53661305 -0.020997407 0.037946593
0.53660691 -0.02014186 0.037933748
0.53660077 -0.019286312 0.037920903
