# .PCD v0.7 - Point Cloud Data file format
VERSION 0.7
FIELDS x y z
SIZE 4 4 4
TYPE F F F
COUNT 1 1 1
WIDTH 1377
HEIGHT 1
VIEWPOINT 0 0 0 1 0 0 0
POINTS 1377
DATA ascii
0.57399404 0.032000434 0.04904823
0.57398832 0.032797035 0.049036272
0.5739826 0.033593632 0.049024314
0.57397687 0.03439023 0.049012352
0.57397115 0.035186831 0.049000394
0.57314527 0.036013398 0.048412386
0.57313955 0.03681159 0.048400402
0.57313383 0.037609782 0.048388422
0.57312804 0.038407974 0.048376437
0.57312232 0.03920617 0.048364457
0.5731166 0.040004361 0.048352472
0.57311082 0.040802553 0.048340492
0.5731051 0.041600745 0.048328508
0.57309937 0.042398941 0.048316527
0.57309359 0.043197133 0.048304543
0.57308787 0.043995325 0.048292559
0.57308215 0.044793516 0.048280578
0.57307637 0.045591708 0.048268594
0.57307065 0.0463899 0.048256613
0.57306492 0.047188096 0.048244629
0.57305914 0.047986288 0.048232649
0.57223314 0.048839934 0.047644265
0.57222742 0.049639724 0.047632258
0.57222164 0.050439507 0.047620252
0.57139564 0.051299531 0.047031779
0.57138985 0.052100908 0.047019746
0.56974351 0.053029135 0.04585468
0.56891733 0.053898718 0.045266025
0.56727087 0.054838095 0.044100791
0.56479818 0.05666618 0.042346615
0.56233126 0.057694472 0.040604483
0.56068456 0.058659345 0.039438833
0.58635628 0.25093818 0.055546246
0.58635074 0.2517077 0.055534694
0.5863452 0.2524772 0.055523142
0.58633965 0.25324672 0.05551159
0.58715743 0.25353381 0.056082848
0.58715189 0.25430173 0.056071319
0.5871464 0.25506964 0.056059793
0.58714086 0.25583759 0.056048263
0.58713531 0.25660551 0.056036737
0.58795315 0.25688303 0.056608133
0.55179757 -0.0010380511 0.032768056
0.55261004 -0.00015669782 0.03333164
0.55342257 0.00072147074 0.033895273
0.55423516 0.0015964509 0.034458954
0.55586636 0.0025036139 0.035599001
0.5558604 0.0033368561 0.035586495
0.55667305 0.0042022783 0.036150318
0.55830431 0.0050951 0.037290547
0.56157297 0.0060395361 0.039583668
0.56974214 0.0087479427 0.045311239
0.57219249 0.0096219629 0.047028597
0.57300538 0.010444369 0.047593068
0.57381839 0.011263588 0.048157588
0.5738126 0.012061781 0.048145603
0.57380688 0.012859973 0.048133623
0.57380116 0.013658166 0.048121639
0.57379538 0.014456359 0.048109658
0.57378966 0.015254552 0.048097674
0.57460272 0.016062619 0.048662394
0.574597 0.016859218 0.048650436
0.57459128 0.017655818 0.048638474
0.57458556 0.018452417 0.048626516
0.57457983 0.019249016 0.048614558
0.57457405 0.020045616 0.0486026
0.57456833 0.020842215 0.048590641
0.5737437 0.021640092 0.048001815
0.57373798 0.022438284 0.04798983
0.5737322 0.023236476 0.04797785
0.57372648 0.02403467 0.047965866
0.57372075 0.024832861 0.047953885
0.57371497 0.025631055 0.047941901
0.57370925 0.026429247 0.047929917
0.57370353 0.027227441 0.047917936
0.57369775 0.028025633 0.047905952
0.57369202 0.028823825 0.047893971
0.57368624 0.029622016 0.047881987
0.57368052 0.03042021 0.047870006
0.5736748 0.031218402 0.047858022
0.57366902 0.032016594 0.047846042
0.57366329 0.032814786 0.047834057
0.57365757 0.033612981 0.047822077
0.57365179 0.034411173 0.047810093
0.57364607 0.035209365 0.047798108
0.57364035 0.036007557 0.047786128
0.57363456 0.036805753 0.047774144
0.57362884 0.037603941 0.047762163
0.57362312 0.038402136 0.047750179
0.57361734 0.039200328 0.047738198
0.57361162 0.03999852 0.047726214
0.5736059 0.040796716 0.047714233
0.57360011 0.041594904 0.047702249
0.57359439 0.0423931 0.047690269
0.57358861 0.043191291 0.047678284
0.57358289 0.043989483 0.0476663
0.57357717 0.044787675 0.04765432
0.57275218 0.04563494 0.047064785
0.57274646 0.046434727 0.047052778
0.57274067 0.047234513 0.047040772
0.57273495 0.048034299 0.047028765
0.57272917 0.048834082 0.047016758
0.57272345 0.049633872 0.047004752
0.57271767 0.050433658 0.046992745
0.57189262 0.051293667 0.046403017
0.57106757 0.052156866 0.045813244
0.57024246 0.053023249 0.045223422
0.56859797 0.053957827 0.044055726
0.56695354 0.054898772 0.042887967
0.56612825 0.055777907 0.042297918
0.5644837 0.05673001 0.041129995
0.56283909 0.057688482 0.039961975
0.56119442 0.058653329 0.038793821
0.55954969 0.059624549 0.037625611
0.58683348 0.25093254 0.054942489
0.58682799 0.25170207 0.054930937
0.58682245 0.2524716 0.054919384
0.58763921 0.25276026 0.055491865
0.58763367 0.25352818 0.055480339
0.58762819 0.25429612 0.055468809
0.58762264 0.25506404 0.055457283
0.5876171 0.25583196 0.055445753
0.58761156 0.25659987 0.055434227
0.58842844 0.25687739 0.056006875
0.5555895 -0.00087720621 0.034417801
0.55640113 -2.2117085e-06 0.034982767
0.55639517 0.0008310324 0.034970257
0.55720675 0.0017012444 0.035535261
0.55720079 0.0025328952 0.035522778
0.55801243 0.0033983283 0.036087852
0.55882406 0.0042605759 0.036652971
0.56045347 0.0051502362 0.037795782
0.56290048 0.0060625258 0.039516285
0.56942439 0.00871782 0.044101022
0.57187176 0.0095934682 0.04582211
0.57350141 0.010438518 0.046965558
0.57349569 0.011238303 0.046953551
0.5734899 0.012038089 0.046941545
0.5743019 0.012854134 0.047507361
0.57429618 0.013652327 0.047495376
0.57429039 0.014450519 0.047483396
0.57428467 0.015248711 0.047471412
0.57427895 0.016046904 0.047459431
0.57427317 0.016845096 0.047447447
0.57426745 0.01764329 0.047435466
0.57426172 0.018441482 0.047423482
0.57425594 0.019239675 0.047411501
0.57425022 0.020037867 0.047399517
0.5742445 0.020836059 0.047387533
0.57423872 0.021634253 0.047375552
0.574233 0.022432445 0.047363568
0.57422727 0.023230636 0.047351588
0.57422149 0.02402883 0.047339603
0.57421577 0.024827022 0.047327623
0.57420999 0.025625216 0.047315639
0.57420427 0.026423408 0.047303658
0.57419854 0.0272216 0.047291674
0.57419276 0.028019793 0.047279693
0.57418704 0.028817985 0.047267709
0.57418132 0.029616177 0.047255725
0.57417554 0.030414371 0.047243744
0.57416981 0.031212563 0.04723176
0.57416409 0.032010756 0.047219779
0.57415831 0.032808948 0.047207795
0.57415259 0.03360714 0.047195815
0.57414687 0.034405332 0.04718383
0.57414109 0.035203524 0.04717185
0.57413536 0.03600172 0.047159865
0.57412964 0.036799911 0.047147885
0.57330579 0.037631232 0.046557337
0.5733 0.038431019 0.04654533
0.57329428 0.039230805 0.046533324
0.5732885 0.040030591 0.046521317
0.57328272 0.040830374 0.046509311
0.573277 0.04163016 0.046497304
0.57327121 0.042429946 0.046485297
0.57326549 0.043229733 0.046473291
0.57325971 0.044029519 0.046461284
0.57325399 0.044829305 0.046449281
0.57324821 0.045629088 0.046437275
0.57324249 0.046428878 0.046425268
0.5732367 0.04722866 0.046413261
0.57323098 0.048028447 0.046401255
0.5732252 0.048828229 0.046389248
0.57321942 0.049628023 0.046377242
0.57239538 0.050486427 0.045786288
0.57238966 0.051287804 0.045774255
0.57156557 0.052150991 0.04518323
0.5699231 0.053080767 0.044013109
0.56828064 0.05401691 0.042842921
0.56745642 0.054892838 0.042251706
0.56581384 0.055840142 0.041081317
0.56498963 0.056724042 0.040489983
0.56334698 0.057682488 0.039319463
0.56170428 0.058647316 0.038148809
0.56087995 0.05954396 0.037557285
0.56087404 0.06036764 0.037544917
0.58731073 0.25092691 0.054338727
0.58730519 0.25169644 0.054327175
0.58729964 0.25246596 0.054315623
0.58729416 0.25323546 0.054304071
0.58728862 0.25400496 0.054292519
0.58728307 0.25477448 0.054280967
0.58809888 0.25505841 0.054854773
0.58809334 0.25582635 0.054843243
0.58808786 0.25659427 0.054831713
0.58808231 0.25736216 0.054820187
0.55937958 -0.0015447288 0.03609002
0.55937362 -0.00071626541 0.036077585
0.55936766 0.00011219791 0.036065146
0.5593617 0.00094066124 0.036052711
0.55935574 0.0017691246 0.036040273
0.56016642 0.002632977 0.036606621
0.56097716 0.0034936438 0.037173051
0.5609712 0.0043189214 0.037160661
0.56178194 0.0051748077 0.037727129
0.56340933 0.006056523 0.038872525
0.56992537 0.0087119108 0.043467265
0.57155305 0.0095649501 0.044613127
0.57318074 0.010411616 0.045759048
0.57317495 0.011212995 0.045747019
0.57398593 0.012032238 0.046314035
0.57398015 0.012832023 0.046302028
0.57397443 0.01363181 0.046290021
0.57396865 0.014431595 0.046278015
0.57477969 0.015242872 0.046845153
0.57477397 0.016041065 0.046833172
0.57476825 0.016839257 0.046821188
0.57476246 0.01763745 0.046809208
0.57475674 0.018435642 0.046797223
0.57475096 0.019233836 0.046785239
0.57474524 0.020032028 0.046773259
0.57473952 0.02083022 0.046761274
0.57473373 0.021628411 0.046749294
0.57391113 0.022429453 0.046157952
0.57390535 0.023229238 0.046145946
0.57389963 0.024029024 0.046133939
0.57389385 0.02482881 0.046121933
0.57388812 0.025628595 0.046109926
0.57388234 0.026428381 0.046097919
0.57387656 0.027228167 0.046085913
0.57387084 0.028027952 0.046073906
0.57386506 0.028827738 0.0460619
0.57385933 0.029627524 0.046049893
0.57385355 0.030427311 0.046037886
0.57384783 0.031227095 0.04602588
0.57384205 0.032026879 0.046013873
0.57383633 0.03282667 0.046001866
0.57383054 0.033626452 0.04598986
0.57382482 0.034426238 0.045977853
0.57381904 0.035226025 0.045965847
0.57381326 0.036025811 0.04595384
0.57380754 0.036825597 0.045941833
0.57380176 0.03762538 0.045929827
0.57379603 0.038425166 0.04591782
0.57379025 0.039224952 0.045905814
0.57378453 0.040024739 0.045893811
0.57377875 0.040824525 0.045881804
0.57377303 0.041624311 0.045869797
0.57376724 0.042424098 0.045857791
0.57376152 0.043223884 0.045845784
0.57293856 0.044069532 0.045253772
0.57293278 0.044870909 0.04524174
0.572927 0.04567229 0.045229711
0.57292122 0.046473667 0.045217682
0.57291549 0.047275048 0.045205649
0.57290971 0.048076425 0.04519362
0.57290393 0.048877805 0.045181587
0.57289815 0.049679186 0.045169558
0.57289243 0.050480563 0.045157529
0.57206935 0.051342145 0.044565279
0.57124621 0.052206911 0.04397298
0.57042307 0.053074867 0.043380599
0.56878257 0.054010987 0.042207912
0.56795937 0.054886907 0.041615445
0.56631875 0.055834185 0.04044256
0.56467813 0.056787837 0.039269611
0.56385487 0.057676498 0.038676951
0.56221414 0.0586413 0.037503801
0.56139076 0.059537932 0.036911022
0.56138486 0.060361616 0.036898658
0.58696765 0.25139731 0.053148489
0.58778244 0.2516908 0.053723417
0.5877769 0.25246033 0.053711865
0.58777136 0.25322983 0.053700313
0.58776581 0.25399935 0.053688761
0.58776033 0.25476885 0.053677209
0.58775479 0.25553837 0.053665657
0.58774924 0.2563079 0.053654104
0.5885641 0.25658864 0.054229207
0.58855855 0.25735655 0.054217678
0.55989343 -0.0015507899 0.035440013
0.56070304 -0.00068055367 0.036007512
0.56069708 0.00014631639 0.0359951
0.56069112 0.00097318739 0.035982687
0.56068516 0.0018000565 0.035970274
0.56149489 0.0026623302 0.03653793
0.56148899 0.0034876058 0.036525544
0.56229872 0.004345098 0.037093237
0.56392413 0.0052300231 0.038241085
0.56554961 0.0061085774 0.039389063
0.56717515 0.0069807572 0.040537104
0.57042634 0.0087060006 0.042833503
0.572052 0.0095590642 0.043981865
0.57367772 0.010405753 0.045130286
0.57367194 0.011207132 0.045118257
0.57366616 0.012008511 0.045106228
0.57447618 0.012826173 0.045674521
0.57447046 0.013625958 0.045662515
0.57446468 0.014425743 0.045650508
0.5744589 0.01522553 0.045638502
0.57445318 0.016025316 0.045626495
0.57444739 0.0168251 0.045614488
0.57444167 0.017624887 0.045602482
0.57443589 0.018424673 0.045590475
0.57443017 0.019224457 0.045578469
0.57442439 0.020024244 0.045566462
0.57441866 0.02082403 0.045554455
0.57441288 0.021623814 0.045542449
0.57440716 0.022423601 0.045530442
0.57440138 0.023223387 0.045518436
0.5743956 0.024023173 0.045506429
0.57438987 0.024822958 0.045494422
0.57438409 0.025622744 0.045482416
0.57437837 0.02642253 0.045470409
0.57437259 0.027222317 0.045458402
0.57436687 0.028022101 0.045446396
0.57436109 0.028821887 0.045434389
0.57435536 0.029621674 0.045422383
0.57434958 0.03042146 0.045410376
0.57434386 0.031221244 0.045398369
0.57433808 0.032021031 0.045386363
0.5743323 0.032820817 0.045374356
0.57432657 0.033620603 0.04536235
0.57432079 0.03442039 0.045350343
0.57431507 0.035220172 0.04533834
0.57430929 0.036019962 0.045326333
0.57348746 0.036851257 0.044733286
0.57348168 0.037652634 0.044721253
0.5734759 0.038454015 0.044709224
0.57347012 0.039255396 0.044697195
0.57346439 0.040056776 0.044685163
0.57345861 0.040858153 0.044673134
0.57345283 0.04165953 0.044661101
0.57344705 0.042460911 0.044649072
0.57344133 0.043262288 0.044637043
0.57343554 0.044063669 0.04462501
0.57342976 0.044865046 0.044612981
0.57342398 0.045666426 0.044600949
0.57341826 0.046467807 0.04458892
0.57341248 0.047269184 0.044576891
0.5734067 0.048070561 0.044564858
0.57340091 0.048871942 0.044552829
0.57339519 0.049673323 0.0445408
0.57338941 0.050474703 0.044528767
0.57256734 0.05133627 0.043935269
0.57174522 0.052201025 0.043341719
0.57010669 0.053132348 0.042166572
0.5692845 0.054005068 0.041572902
0.56764591 0.054947544 0.040397584
0.56682366 0.055828229 0.039803799
0.56518501 0.056781858 0.038628351
0.5643627 0.057670508 0.038034443
0.5635404 0.058562353 0.037440453
0.56271803 0.059457377 0.036846451
0.56189567 0.060355589 0.036252402
0.56188977 0.061179273 0.036240034
0.58744591 0.25139168 0.05254348
0.58744031 0.25216278 0.052531905
0.58743477 0.25293389 0.052520327
0.58742923 0.25370499 0.052508753
0.58824307 0.25399372 0.053085003
0.58823752 0.25476325 0.053073447
0.58823198 0.25553277 0.053061895
0.5882265 0.25630227 0.053050347
0.58822095 0.25707176 0.053038795
0.5890348 0.25735092 0.053615168
0.56122178 -0.0015134732 0.035371166
0.56121582 -0.00068660313 0.035358753
0.56120992 0.00014026693 0.03534634
0.56201863 0.0010057386 0.0359152
0.56201267 0.0018310145 0.035902813
0.56282139 0.0026917045 0.036471706
0.56281549 0.0035153872 0.036459342
0.5636242 0.0043712975 0.037028309
0.56443298 0.0052240202 0.037597325
0.56605649 0.0061025978 0.038747802
0.56768006 0.006974801 0.039898343
0.57011259 0.0086758314 0.041618291
0.57173622 0.0095305098 0.042769097
0.57335997 0.010378816 0.043920029
0.57416892 0.011201269 0.044489499
0.5741632 0.012002648 0.04447747
0.57415742 0.012804027 0.044465438
0.57415164 0.013605406 0.044453409
0.57414591 0.014406784 0.044441376
0.57414013 0.015208164 0.044429347
0.57413435 0.016009543 0.044417318
0.57412857 0.016810922 0.044405285
0.57412285 0.017612301 0.044393256
0.57411706 0.01841368 0.044381224
0.57411128 0.019215059 0.044369195
0.5741055 0.020016437 0.044357166
0.57409978 0.020817816 0.044345133
0.574094 0.021619195 0.044333104
0.57408822 0.022420574 0.044321075
0.57408243 0.023221953 0.044309042
0.57407671 0.024023332 0.044297013
0.57407093 0.024824711 0.044284981
0.57406515 0.025626089 0.044272952
0.57405937 0.026427468 0.044260923
0.57405365 0.027228849 0.04424889
0.57404786 0.028030226 0.044236861
0.57404208 0.028831605 0.044224828
0.5740363 0.029632984 0.0442128
0.57403058 0.030434364 0.044200771
0.5740248 0.031235741 0.044188738
0.57401901 0.03203712 0.044176709
0.57401329 0.032838501 0.044164676
0.57400751 0.033639878 0.044152647
0.57400173 0.034441259 0.044140618
0.57399595 0.035242636 0.044128586
0.57399023 0.036044016 0.044116557
0.57398444 0.036845393 0.044104528
0.57397866 0.037646774 0.044092495
0.57397288 0.038448151 0.044080466
0.57396716 0.039249532 0.044068433
0.57396138 0.040050913 0.044056404
0.5739556 0.04085229 0.044044375
0.57394981 0.041653667 0.044032343
0.57394409 0.042455047 0.044020314
0.57393831 0.043256424 0.044008281
0.57393253 0.044057805 0.043996252
0.57392675 0.044859182 0.043984223
0.57392102 0.045660567 0.04397219
0.57391524 0.046461944 0.043960162
0.57390946 0.047263321 0.043948133
0.57390368 0.048064698 0.0439361
0.57308263 0.048921477 0.043341421
0.57307684 0.049724452 0.043329366
0.57307106 0.050527427 0.043317314
0.57306528 0.051330395 0.043305259
0.57142878 0.052256916 0.04212768
0.5706076 0.053126439 0.041532811
0.56978643 0.053999145 0.040937893
0.56814981 0.054941598 0.039760076
0.56732857 0.055822272 0.039165039
0.56650728 0.056706138 0.038569953
0.56568605 0.057593185 0.03797482
0.5648647 0.058483422 0.037379641
0.56404334 0.059376847 0.036784377
0.56403744 0.060197342 0.036772057
0.56321609 0.061095543 0.03617676
0.58792412 0.25138605 0.05193847
0.58791858 0.25215715 0.051926896
0.58791304 0.25292826 0.051915318
0.58790749 0.25369936 0.051903743
0.58790195 0.25447047 0.051892165
0.58789641 0.2552416 0.051880591
0.5878908 0.25601271 0.051869016
0.58788526 0.25678378 0.051857438
0.58869815 0.25706613 0.052435033
0.58869267 0.25783566 0.052423481
0.56254828 -0.0014761304 0.035304856
0.56335592 -0.00060905656 0.035874907
0.56253636 0.00017442311 0.035280079
0.56253046 0.00099970086 0.035267688
0.56333816 0.001861994 0.03583781
0.56414586 0.0027211015 0.036407981
0.56495363 0.0035770226 0.0369782
0.56494772 0.0043975203 0.036965881
0.56575561 0.0052486635 0.037536204
0.56737709 0.0061256695 0.038689174
0.56818497 0.0069688447 0.039259583
0.57142824 0.0086941822 0.041565984
0.57223618 0.0095246118 0.042136583
0.57304418 0.010351857 0.042707268
0.57385218 0.011175914 0.043277964
0.5738464 0.011978886 0.043265909
0.5746544 0.012798164 0.043836676
0.57464868 0.013599543 0.043824647
0.5746429 0.014400922 0.043812614
0.57463712 0.015202301 0.043800585
0.57463133 0.016003679 0.043788556
0.57462561 0.016805058 0.043776523
0.57461983 0.017606437 0.043764494
0.57461405 0.018407816 0.043752462
0.57460827 0.019209195 0.043740433
0.57460254 0.020010576 0.043728404
0.57459676 0.020811953 0.043716371
0.57459098 0.021613332 0.043704342
0.57458526 0.022414712 0.043692313
0.57457948 0.023216091 0.04368028
0.5745737 0.024017468 0.043668251
0.57456791 0.024818847 0.043656219
0.57456219 0.025620228 0.04364419
0.57455641 0.026421607 0.043632161
0.57455063 0.027222985 0.043620128
0.57454485 0.028024362 0.043608099
0.57453912 0.028825743 0.043596067
0.57453334 0.029627122 0.043584038
0.57452756 0.030428501 0.043572009
0.57452178 0.031229878 0.043559976
0.57451606 0.032031257 0.043547947
0.57451028 0.032832637 0.043535918
0.57450449 0.033634014 0.043523885
0.57449871 0.034435395 0.043511856
0.57449299 0.035236772 0.043499824
0.57448721 0.036038153 0.043487795
0.57448143 0.036839534 0.043475766
0.57447565 0.037640911 0.043463733
0.57446992 0.038442288 0.043451704
0.57364994 0.039279938 0.042856064
0.57364416 0.040082909 0.042844009
0.57363844 0.040885881 0.042831954
0.57363266 0.041688856 0.042819899
0.57362688 0.042491827 0.042807844
0.57362109 0.043294799 0.042795792
0.57361531 0.04409777 0.042783737
0.57360953 0.044900745 0.042771682
0.57360375 0.045703717 0.042759627
0.57359797 0.046506688 0.042747572
0.57359219 0.047309659 0.042735521
0.5735864 0.048112631 0.042723466
0.57358062 0.048915602 0.042711411
0.57357484 0.049718577 0.042699356
0.57356906 0.050521553 0.042687301
0.57274896 0.051384687 0.042091276
0.57192874 0.052251019 0.04149517
0.57110858 0.053120527 0.040899049
0.57028842 0.053993225 0.04030288
0.5686537 0.054935653 0.039122567
0.56783348 0.055816315 0.038526278
0.5670132 0.05670017 0.037929941
0.56619292 0.057587206 0.037333559
0.56537259 0.058477432 0.036737129
0.56536669 0.059296332 0.036724836
0.56454629 0.060191341 0.036128297
0.56454039 0.061011836 0.036115982
0.58759058 0.2510837 0.050754849
0.58758503 0.25185639 0.050743248
0.58757943 0.2526291 0.050731648
0.58757389 0.25340179 0.050720047
0.58756834 0.2541745 0.050708447
0.5875628 0.25494719 0.05069685
0.5875572 0.2557199 0.050685249
0.58755165 0.25649258 0.050673649
0.58836353 0.25677815 0.051252428
0.58835799 0.25754926 0.05124085
0.58916986 0.25783002 0.051819723
0.56387269 -0.0014387672 0.035241012
0.56386679 -0.00061508274 0.035228647
0.56386083 0.0002086008 0.035216283
0.56466758 0.0010709065 0.035787653
0.56466162 0.0018929959 0.035775311
0.56465572 0.002715087 0.035762973
0.56546253 0.0035710197 0.03633444
0.56545663 0.0043915175 0.036322121
0.56707615 0.0052733282 0.037477553
0.56788301 0.0061197015 0.038049165
0.56868988 0.0069628889 0.038620822
0.57030952 0.0078287674 0.039776493
0.57111645 0.0086639887 0.040348273
0.57192338 0.0094960239 0.040920097
0.57273036 0.010324873 0.041491974
0.57353741 0.011150536 0.042063929
0.5743444 0.011973011 0.042635899
0.57433861 0.012775984 0.042623844
0.57433283 0.013578956 0.042611789
0.57432705 0.014381928 0.042599738
0.57432127 0.0151849 0.042587683
0.57431549 0.015987873 0.042575628
0.57512259 0.016799195 0.043147765
0.57511681 0.017600574 0.043135736
0.57511109 0.018401952 0.043123703
0.57510531 0.019203333 0.043111674
0.57428664 0.020002732 0.042515356
0.57428086 0.020805705 0.042503301
0.57427508 0.021608677 0.042491246
0.57426929 0.02241165 0.042479195
0.57426351 0.023214621 0.04246714
0.57425773 0.024017593 0.042455085
0.57425195 0.024820566 0.04244303
0.57424617 0.025623538 0.042430975
0.57424039 0.026426509 0.042418923
0.5742346 0.027229482 0.042406868
0.57422882 0.028032454 0.042394813
0.57422304 0.028835425 0.042382758
0.57503033 0.029621258 0.042955279
0.57502455 0.030422637 0.04294325
0.57501882 0.031224016 0.042931218
0.57419997 0.032047313 0.042334542
0.57419419 0.032850288 0.042322487
0.57418841 0.033653259 0.042310432
0.57418263 0.034456231 0.042298377
0.57417685 0.035259202 0.042286325
0.57417107 0.036062177 0.04227427
0.57416528 0.036865149 0.042262215
0.5741595 0.037668116 0.04225016
0.57415372 0.038471092 0.042238105
0.57414794 0.039274063 0.042226054
0.57414216 0.040077034 0.042213999
0.57413638 0.040880006 0.042201944
0.57413065 0.041682981 0.042189889
0.57412487 0.042485952 0.042177834
0.57411909 0.043288924 0.042165782
0.57411331 0.044091895 0.042153727
0.57410753 0.04489487 0.042141672
0.57410175 0.045697842 0.042129617
0.57409596 0.046500813 0.042117562
0.57409018 0.047303785 0.042105511
0.5740844 0.048106756 0.042093456
0.57326531 0.048965104 0.041496251
0.57325953 0.04976967 0.041484173
0.57325375 0.050574236 0.041472096
0.57324791 0.051378801 0.041460019
0.5724287 0.052245121 0.040862661
0.57160956 0.053114619 0.040265292
0.57079035 0.053987302 0.039667871
0.56997108 0.054863174 0.039070409
0.56915182 0.055742238 0.038472857
0.56833255 0.056624487 0.037875295
0.56751323 0.057509921 0.037277687
0.5666939 0.058398541 0.036680032
0.56587458 0.059290342 0.036082324
0.56586868 0.060109247 0.03607003
0.56586277 0.060928147 0.036057737
0.58725345 0.25155243 0.049557131
0.58724785 0.2523267 0.049545508
0.58724231 0.25310102 0.049533885
0.5872367 0.25387532 0.049522262
0.58723116 0.25464961 0.049510639
0.58722556 0.2554239 0.049499013
0.58722001 0.2561982 0.04948739
0.58721441 0.25697249 0.049475767
0.58802533 0.25725964 0.050055791
0.58801973 0.25803235 0.05004419
0.58883065 0.25831473 0.050624266
0.56519514 -0.0014013805 0.035179667
0.56518924 -0.00057928939 0.035167325
0.56518334 0.00024280087 0.035154983
0.56598908 0.001103525 0.035727631
0.56598318 0.001924022 0.035715315
0.56597728 0.0027445199 0.035702996
0.56678313 0.0035988728 0.036275774
0.56677723 0.0044177775 0.036263481
0.56758302 0.0052673486 0.036836293
0.56838888 0.0061137336 0.037409153
0.57000649 0.0069844141 0.038567219
0.57081246 0.0078228349 0.039140232
0.57161838 0.0086580673 0.039713264
0.57242435 0.0094901146 0.04028634
0.57323033 0.010318975 0.040859465
0.57322454 0.011125133 0.040847361
0.57403058 0.011949215 0.04142059
0.5740248 0.01275378 0.041408513
0.57401901 0.013558346 0.041396435
0.57482505 0.014376054 0.041969728
0.57481927 0.015179025 0.041957673
0.57481349 0.015981998 0.041945618
0.5748077 0.01678497 0.041933563
0.57480192 0.017587941 0.041921511
0.57479614 0.018390914 0.041909456
0.57479042 0.019193886 0.041897401
0.57478464 0.019996859 0.041885346
0.57477885 0.020799831 0.041873291
0.57477307 0.021602802 0.041861236
0.57476729 0.022405775 0.041849185
0.57476151 0.023208747 0.04183713
0.57475573 0.024011718 0.041825075
0.57474995 0.024814691 0.04181302
0.57474416 0.025617663 0.041800965
0.57473838 0.026420634 0.041788913
0.5747326 0.027223608 0.041776858
0.57472682 0.028026579 0.041764803
0.57472104 0.028829552 0.041752748
0.57471526 0.029632524 0.041740693
0.57470948 0.030435497 0.041728642
0.57470375 0.031238468 0.041716587
0.57469797 0.032041438 0.041704532
0.57469219 0.032844413 0.041692477
0.57468641 0.033647384 0.041680422
0.57468063 0.034450356 0.04166837
0.57467484 0.035253327 0.041656315
0.57466906 0.036056302 0.04164426
0.57466328 0.036859274 0.041632205
0.57384533 0.037695304 0.041034088
0.57383955 0.038499869 0.04102201
0.57383376 0.039304435 0.041009933
0.57382798 0.040109001 0.040997855
0.5738222 0.040913567 0.040985774
0.57381636 0.041718129 0.040973697
0.57381058 0.042522695 0.040961619
0.5738048 0.043327261 0.040949542
0.57379901 0.044131827 0.040937461
0.57379323 0.044936392 0.040925384
0.57378745 0.045740958 0.040913306
0.57378167 0.046545524 0.040901229
0.57377589 0.047350086 0.040889148
0.57377005 0.048154652 0.04087707
0.57376426 0.048959218 0.040864993
0.57375848 0.049763784 0.040852915
0.57294029 0.050626904 0.040254354
0.57293451 0.05143306 0.040242251
0.57211632 0.05230096 0.039643656
0.57211047 0.053108711 0.039631531
0.57129228 0.053981382 0.039032862
0.57047403 0.054857243 0.038434148
0.56965572 0.055736292 0.037835348
0.56883746 0.05661853 0.037236538
0.56801915 0.057503954 0.036637679
0.56801325 0.058319669 0.036625434
0.56719494 0.059209868 0.0360265
0.56718904 0.060027182 0.036014233
0.56718314 0.060844488 0.036001962
0.58773923 0.25077248 0.048961248
0.58773363 0.25154677 0.048949622
0.58772808 0.25232103 0.048937999
0.58772248 0.25309536 0.048926376
0.58771694 0.25386965 0.048914753
0.58689594 0.25512469 0.048310343
0.58689034 0.25590056 0.048298694
0.5868848 0.25667647 0.048287049
0.58769464 0.25696683 0.048868258
0.58768904 0.25774112 0.048856631
0.5876835 0.25851542 0.048845008
0.58849341 0.25879937 0.049426332
0.58930331 0.2590802 0.050007682
0.56651562 -0.0013639696 0.035120822
0.56650972 -0.00054347271 0.035108507
0.56650382 0.00027702429 0.035096191
0.56649792 0.0010975222 0.035083871
0.56649202 0.0019180191 0.035071556
0.56729686 0.0027739778 0.035645556
0.5681017 0.0036267473 0.036219575
0.5680958 0.0044440585 0.036207303
0.56890064 0.0052920482 0.036781389
0.56970555 0.0061368519 0.037355524
0.57051045 0.0069784694 0.03792971
0.57131541 0.0078169014 0.038503975
0.57212031 0.0086521469 0.039078254
0.57292527 0.0094842045 0.039652579
0.57291949 0.010291956 0.039640453
0.57372451 0.011119235 0.040214851
0.57371867 0.011925394 0.040202748
0.57452375 0.012747894 0.040777255
0.57451797 0.013552459 0.040765177
0.57451218 0.014357025 0.040753096
0.5745064 0.01516159 0.040741019
0.57450062 0.015966155 0.040728942
0.57449484 0.01677072 0.040716864
0.57448906 0.017575286 0.040704787
0.57448322 0.01837985 0.040692706
0.57447743 0.019184416 0.040680628
0.57447165 0.019988982 0.040668551
0.57446587 0.020793546 0.040656473
0.57446009 0.021598112 0.040644392
0.57445431 0.022402678 0.040632315
0.57444853 0.023207242 0.040620238
0.57444274 0.024011809 0.04060816
0.5744369 0.024816373 0.040596083
0.57443112 0.025620939 0.040584002
0.57442534 0.026425503 0.040571924
0.57441956 0.027230069 0.040559847
0.57441378 0.028034635 0.04054777
0.57440799 0.028839199 0.040535688
0.57440221 0.029643765 0.040523611
0.57439643 0.030448331 0.040511534
0.57439059 0.031252895 0.040499456
0.57438481 0.03205746 0.040487375
0.57437903 0.032862026 0.040475298
0.57437325 0.033666592 0.04046322
0.57436746 0.034471154 0.040451143
0.57436168 0.03527572 0.040439066
0.5743559 0.03608029 0.040426984
0.57435012 0.036884852 0.040414907
0.57434428 0.037689418 0.04040283
0.5743385 0.038493983 0.040390752
0.57433271 0.039298549 0.040378671
0.57432693 0.040103115 0.040366594
0.57432115 0.040907681 0.040354516
0.57431537 0.041712243 0.040342439
0.57349825 0.042559419 0.039742868
0.57349247 0.043365575 0.039730765
0.57348669 0.044171736 0.039718661
0.57348084 0.044977896 0.039706562
0.57347506 0.045784052 0.039694458
0.57346928 0.046590213 0.039682355
0.57346344 0.047396369 0.039670255
0.57345766 0.04820253 0.039658152
0.57345188 0.049008686 0.039646048
0.57344604 0.049814846 0.039633948
0.57344025 0.050621007 0.039621845
0.57262307 0.051487297 0.039022025
0.57261729 0.052295048 0.039009899
0.57180005 0.053166118 0.038410004
0.57179421 0.053975459 0.038397852
0.57097697 0.054851308 0.037797887
0.57015967 0.05573035 0.037197839
0.57015377 0.056542885 0.037185643
0.56933647 0.057426699 0.036585554
0.56851918 0.058313701 0.035985421
0.56851327 0.059129417 0.035973176
0.56850743 0.059945136 0.035960931
0.56850153 0.060760856 0.035948686
0.58903933 0.24952132 0.04895927
0.5882194 0.25076681 0.048353739
0.58821386 0.25154111 0.048342116
0.58739388 0.25279135 0.047736529
0.58738834 0.25356725 0.04772488
0.58738273 0.25434312 0.047713231
0.58656269 0.25559974 0.047107533
0.58737159 0.2558949 0.047689937
0.58655155 0.25715473 0.04708419
0.58736038 0.25744668 0.047666643
0.58735484 0.25822255 0.047654994
0.58816367 0.25850976 0.048237499
0.58815813 0.25928402 0.048225876
0.58896708 0.25956646 0.04880847
0.56703043 -0.0021904705 0.034489382
0.56702453 -0.0013699726 0.034477063
0.5678283 -0.00050763 0.035052221
0.5678224 0.0003112737 0.035039928
0.56781656 0.0011301783 0.035027634
0.56781065 0.001949082 0.035015341
0.56861448 0.0028034574 0.035590582
0.56860858 0.0036207677 0.03557831
0.56941241 0.0044703633 0.036153626
0.56940657 0.0052860803 0.036141381
0.57021046 0.0061308956 0.036716763
0.57101434 0.0069725248 0.037292197
0.5710085 0.0077850558 0.037280001
0.57181251 0.0086219069 0.037855539
0.57261646 0.00945557 0.038431093
0.57342046 0.010286047 0.039006691
0.57341462 0.011093799 0.038994566
0.57421863 0.011919496 0.039570238
0.57421285 0.012725654 0.039558135
0.57420707 0.013531812 0.039546035
0.57420123 0.014337972 0.039533932
0.57419544 0.01514413 0.039521832
0.57418966 0.015950289 0.039509729
0.57499379 0.016764835 0.040085603
0.57498801 0.017569399 0.040073525
0.57498223 0.018373964 0.040061448
0.57497644 0.01917853 0.040049367
0.57497066 0.019983096 0.040037289
0.57496488 0.02078766 0.040025212
0.57495904 0.021592226 0.040013134
0.57495326 0.022396792 0.040001057
0.57494748 0.023201356 0.039988976
0.57494169 0.024005922 0.039976899
0.57493591 0.024810486 0.039964821
0.57493013 0.025615053 0.039952744
0.57492435 0.026419617 0.039940663
0.57491857 0.027224183 0.039928585
0.57491273 0.028028749 0.039916508
0.57490695 0.028833313 0.039904431
0.57490116 0.029637879 0.039892349
0.57489538 0.030442445 0.039880272
0.5748896 0.031247009 0.039868195
0.57488382 0.032051574 0.039856117
0.57487804 0.03285614 0.03984404
0.57406205 0.033685777 0.039243482
0.57405627 0.034491938 0.039231379
0.57405043 0.035298094 0.039219275
0.57404464 0.036104254 0.039207175
0.57403886 0.036910411 0.039195072
0.57403302 0.037716571 0.039182968
0.57402724 0.038522728 0.039170869
0.57402146 0.039328888 0.039158765
0.57401562 0.040135045 0.039146662
0.57400984 0.040941205 0.039134562
0.57400405 0.041747361 0.039122459
0.57399821 0.042553522 0.039110355
0.57399243 0.043359678 0.039098255
0.57398665 0.044165839 0.039086152
0.57398081 0.044971999 0.039074052
0.57397503 0.045778155 0.039061949
0.57396924 0.046584316 0.039049845
0.5739634 0.047390472 0.039037745
0.5731473 0.048250377 0.038436767
0.57314146 0.049058128 0.038424641
0.57313567 0.049865883 0.038412515
0.57312983 0.050673634 0.038400389
0.57312405 0.051481389 0.038388263
0.57311821 0.052289139 0.038376134
0.57230198 0.053160198 0.037774991
0.57148576 0.054034442 0.0371738
0.57147992 0.054845378 0.037161626
0.57066357 0.055724405 0.036560327
0.57065773 0.056536943 0.03654813
0.56984138 0.057420742 0.035946794
0.56983554 0.058234867 0.035934571
0.5698297 0.059048992 0.035922352
0.5698238 0.059863113 0.03591013
0.56981796 0.060677238 0.035897907
0.56981212 0.061491366 0.035885684
0.58870518 0.24998684 0.047757849
0.58869964 0.25076115 0.047746226
0.58788067 0.25200978 0.047139414
0.58787507 0.25278565 0.047127768
0.58786952 0.25356156 0.047116119
0.5870505 0.25481659 0.046509191
0.58704489 0.25559407 0.04649752
0.58703929 0.25637153 0.046485849
0.58703369 0.25714904 0.046474177
0.58702809 0.25792652 0.046462506
0.58702254 0.25870398 0.046450835
0.58783042 0.25899276 0.047034584
0.58863831 0.25927836 0.047618367
0.58863276 0.26005268 0.04760674
0.56834799 -0.0021514287 0.034434296
0.56834209 -0.0013325249 0.034422003
0.56833619 -0.0005136212 0.034409709
0.569139 0.00034554466 0.034986131
0.56832439 0.0011241871 0.034385122
0.5691272 0.0019801664 0.034961592
0.56912136 0.0027974779 0.034949321
0.56992418 0.0036486774 0.035525858
0.56991833 0.0044643953 0.035513613
0.57072121 0.0053108153 0.036090225
0.57071537 0.0061249393 0.036078006
0.57151824 0.0069665802 0.036654688
0.5715124 0.0077791112 0.036642492
0.57231539 0.0086159743 0.037219279
0.57230961 0.0094269123 0.037207104
0.57311255 0.010258994 0.037783932
0.5739156 0.011087889 0.038360808
0.57390976 0.011895641 0.038348678
0.57390398 0.012703393 0.038336553
0.57389814 0.013511145 0.038324427
0.57389235 0.014318896 0.038312301
0.57469541 0.015138232 0.038889319
0.57468963 0.015944391 0.038877219
0.57468385 0.01675055 0.038865115
0.574678 0.017556708 0.038853016
0.57467222 0.018362867 0.038840912
0.57466644 0.019169025 0.038828809
0.5746606 0.019975184 0.038816709
0.57465482 0.020781342 0.038804606
0.57464904 0.0215875 0.038792502
0.57464319 0.022393659 0.038780402
0.57463741 0.023199817 0.038768299
0.57463163 0.024005977 0.038756195
0.57462579 0.024812134 0.038744096
0.57462001 0.025618294 0.038731992
0.57461423 0.026424451 0.038719889
0.57460839 0.027230611 0.038707789
0.5746026 0.028036769 0.038695686
0.57459682 0.028842928 0.038683582
0.57459104 0.029649086 0.038671482
0.5745852 0.030455245 0.038659379
0.57457942 0.031261403 0.038647279
0.57457364 0.03206756 0.038635176
0.57456779 0.03287372 0.038623072
0.57456201 0.03367988 0.038610972
0.57455623 0.034486037 0.038598869
0.57455039 0.035292193 0.038586766
0.57454461 0.036098354 0.038574666
0.57453883 0.036904514 0.038562562
0.57453299 0.03771067 0.038550459
0.57371801 0.038551446 0.037948519
0.57371217 0.039359201 0.037936393
0.57370633 0.040166952 0.037924267
0.57370055 0.040974703 0.037912142
0.57369471 0.041782454 0.037900016
0.57368892 0.042590208 0.03788789
0.57368308 0.043397959 0.037875764
0.5736773 0.04420571 0.037863638
0.57367146 0.045013461 0.037851512
0.57366568 0.045821216 0.037839387
0.57365984 0.046628967 0.037827261
0.57365406 0.047436718 0.037815131
0.57364821 0.048244469 0.037803005
0.57364243 0.04905222 0.03779088
0.57363659 0.049859975 0.037778754
0.57363081 0.050667726 0.037766628
0.5728156 0.051535588 0.037164282
0.57280976 0.052344929 0.037152134
0.57280391 0.053154275 0.037139982
0.57198864 0.054028507 0.036537539
0.57198286 0.054839443 0.036525369
0.57116747 0.055718459 0.035922818
0.57116163 0.056530997 0.035910621
0.57115579 0.057343528 0.035898425
0.57034045 0.05822891 0.035295814
0.57033461 0.059043035 0.035283592
0.57032871 0.05985716 0.035271369
0.57032287 0.060671281 0.035259146
0.57031703 0.06148541 0.035246927
0.57031119 0.062299535 0.035234705
0.58918542 0.24998118 0.04715034
0.58836746 0.25122821 0.046542302
0.58754945 0.25247845 0.0459342
0.58753824 0.25403342 0.045910858
0.58753264 0.2548109 0.045899186
0.58671463 0.25606909 0.045290977
0.58670902 0.25684816 0.045279283
0.58670342 0.25762725 0.045267586
0.58669782 0.25840631 0.045255892
0.58750468 0.25869828 0.045840826
0.58749908 0.25947577 0.045829155
0.58830601 0.25976297 0.046414178
0.589113 0.26004702 0.046999231
0.56966352 -0.0021123672 0.03438168
0.56965762 -0.0012950567 0.034369409
0.56965172 -0.00047774531 0.034357142
0.56964588 0.00033956513 0.034344871
0.57044768 0.001195556 0.034922589
0.57044184 0.0020112733 0.034910344
0.57043594 0.0028269913 0.034898099
0.5704301 0.0036427095 0.03488585
0.57123196 0.004490735 0.035463687
0.57122612 0.005304859 0.035451468
0.57122028 0.006118983 0.035439245
0.5720222 0.0069606355 0.036017179
0.57201636 0.0077731665 0.036004979
0.57281834 0.0086100409 0.036583021
0.5728125 0.0094209798 0.036570847
0.57361454 0.010253073 0.037148923
0.5736087 0.011062417 0.037136775
0.57360286 0.011871763 0.037124623
0.5744049 0.012697482 0.037702795
0.57439911 0.013505234 0.037690669
0.57439327 0.014312986 0.037678543
0.57438749 0.015120738 0.037666418
0.57438165 0.01592849 0.037654292
0.57437587 0.016736241 0.037642166
0.57437003 0.017543994 0.03763004
0.57436424 0.018351745 0.037617911
0.5743584 0.019159498 0.037605785
0.57435262 0.019967249 0.037593659
0.57434678 0.020775001 0.037581533
0.574341 0.021582752 0.037569407
0.57433516 0.022390503 0.037557282
0.57513738 0.02319392 0.038135789
0.5751316 0.024000078 0.038123686
0.57431775 0.024813758 0.037520904
0.57431191 0.025621511 0.037508778
0.57430613 0.026429262 0.037496652
0.57430029 0.027237015 0.037484527
0.57510257 0.02803087 0.038063176
0.57509679 0.028837029 0.038051073
0.575091 0.029643189 0.038038973
0.57427704 0.030468022 0.03743602
0.57427126 0.031275772 0.037423894
0.57426542 0.032083523 0.037411768
0.57425964 0.032891277 0.037399642
0.5742538 0.033699028 0.037387516
0.57424802 0.034506779 0.037375391
0.57424217 0.03531453 0.037363265
0.57423639 0.036122285 0.037351139
0.57423055 0.036930036 0.037339013
0.57422477 0.037737787 0.037326887
0.57421893 0.038545538 0.037314761
0.57421315 0.039353289 0.037302636
0.57420731 0.040161043 0.03729051
0.57420152 0.040968794 0.037278384
0.57419568 0.041776545 0.037266258
0.5741899 0.042584296 0.037254129
0.57418406 0.043392051 0.037242003
0.57417828 0.044199802 0.037229877
0.57417244 0.045007553 0.037217751
0.57416666 0.045815308 0.037205625
0.57416081 0.046623059 0.0371935
0.57415503 0.047430806 0.037181374
0.57414919 0.048238557 0.037169248
0.57414341 0.049046308 0.037157122
0.57332915 0.049910974 0.036553573
0.57332337 0.050720319 0.036541425
0.57331753 0.051529665 0.036529273
0.57331169 0.05233901 0.036517125
0.57249743 0.053211637 0.035913456
0.57249159 0.054022573 0.035901282
0.57248574 0.054833509 0.035889108
0.57167143 0.055712514 0.035285309
0.57166559 0.056525052 0.035273112
0.57165974 0.057337582 0.035260912
0.57165384 0.058150113 0.035248715
0.57083952 0.059037078 0.034644831
0.57083362 0.059851203 0.034632608
0.57082778 0.060665324 0.034620389
0.57082194 0.061479453 0.034608167
0.57081604 0.062293578 0.034595944
0.58885419 0.25044665 0.045945194
0.58884865 0.25122255 0.045933545
0.58803165 0.25247276 0.045324188
0.58802605 0.25325024 0.045312516
0.58720905 0.25450525 0.044703111
0.58720344 0.25528431 0.044691414
0.58719778 0.2560634 0.04467972
0.58719218 0.25684243 0.044668023
0.58718657 0.25762153 0.044656329
0.58718097 0.25840062 0.044644631
0.58717537 0.25917968 0.044632938
0.58798128 0.25947008 0.045219146
0.58797568 0.26024756 0.045207474
0.58878165 0.26053321 0.045793772
0.56936371 -0.0021634111 0.033149276
0.5701645 -0.0013010362 0.033728149
0.57015866 -0.00048372487 0.033715878
0.57095945 0.00037387008 0.034294821
0.57095361 0.0011895882 0.034282576
0.57094771 0.0020053054 0.034270331
0.57094187 0.0028210233 0.034258086
0.57174271 0.0036706529 0.034837149
0.57173687 0.0044847787 0.034824926
0.57173103 0.0052989027 0.034812707
0.57172519 0.0061130268 0.034800485
0.5725261 0.0069546909 0.035379667
0.57252026 0.0077672224 0.03536747
0.57251441 0.0085797533 0.03535527
0.57331544 0.0094150463 0.035934586
0.5733096 0.010225984 0.035922412
0.57330376 0.011036923 0.035910238
0.57410485 0.011865841 0.03648961
0.574099 0.012675186 0.036477461
0.57409316 0.013484531 0.036465313
0.57408732 0.014293876 0.036453161
0.57488847 0.015114829 0.037032656
0.57488263 0.01592258 0.037020531
0.57487684 0.016730333 0.037008405
0.574871 0.017538084 0.036996279
0.57486522 0.018345835 0.036984153
0.57485938 0.019153588 0.036972027
0.5748536 0.01996134 0.036959901
0.57484776 0.020769091 0.036947772
0.57484192 0.021576842 0.036935646
0.57483613 0.022384593 0.03692352
0.57483029 0.023192346 0.036911394
0.57482451 0.024000097 0.036899269
0.57481867 0.02480785 0.036887143
0.57481289 0.025615601 0.036875017
0.57480705 0.026423354 0.036862891
0.57480127 0.027231105 0.036850765
0.57479542 0.028038856 0.03683864
0.57478964 0.028846608 0.036826514
0.5747838 0.029654359 0.036814388
0.57477802 0.030462112 0.036802262
0.57477218 0.031269863 0.036790136
0.5747664 0.032077614 0.03677801
0.57476056 0.032885365 0.036765881
0.57475477 0.03369312 0.036753755
0.57474893 0.034500871 0.036741629
0.57474315 0.035308622 0.036729503
0.57473731 0.036116373 0.036717378
0.57473153 0.036924127 0.036705252
0.57472569 0.037731878 0.036693126
0.57471991 0.038539629 0.036681
0.57471406 0.03934738 0.036668874
0.573901 0.040192913 0.03606436
0.57389516 0.041002259 0.036052212
0.57388937 0.0418116 0.03604006
0.57388353 0.042620949 0.036027912
0.57387769 0.043430295 0.03601576
0.57387191 0.044239637 0.036003612
0.57386607 0.045048982 0.03599146
0.57386023 0.045858327 0.035979312
0.57385439 0.046667673 0.03596716
0.57384861 0.047477018 0.035955012
0.57384276 0.04828636 0.035942864
0.57383692 0.049095705 0.035930712
0.57383114 0.049905054 0.035918564
0.5738253 0.0507144 0.035906412
0.57301205 0.051583827 0.035301544
0.57300621 0.052394766 0.03528937
0.57300037 0.053205702 0.035277195
0.57299453 0.054016642 0.035265021
0.57218117 0.054894041 0.034659993
0.57217532 0.055706572 0.034647796
0.57216948 0.05651911 0.0346356
0.57216364 0.057331637 0.034623399
0.5721578 0.058144167 0.034611203
0.57215196 0.058956701 0.034599006
0.57214612 0.059769232 0.03458681
0.57133269 0.060659371 0.033981629
0.57132685 0.061473496 0.033969406
0.57051337 0.062368415 0.033364151
0.58851939 0.25168961 0.04472585
0.58851379 0.25246707 0.044714179
0.5876922 0.25449955 0.044091851
0.5876866 0.25527862 0.044080153
0.58687055 0.25653836 0.043469425
0.58686489 0.25731903 0.043457706
0.58685929 0.2580997 0.043445986
0.58766419 0.2583949 0.044033371
0.58765858 0.25917399 0.044021677
0.58765298 0.25995305 0.04400998
0.58845788 0.26024187 0.044597462
0.58926284 0.26052752 0.045185011
0.57067728 -0.0021243263 0.03309916
0.57067138 -0.0013070158 0.033086888
0.57066554 -0.00048970437 0.033074621
0.57146537 0.00036790222 0.033654813
0.57145947 0.0011836203 0.033642568
0.57145363 0.0019993375 0.033630323
0.57225353 0.0028505728 0.034210611
0.57224762 0.0036646968 0.034198388
0.57224178 0.0044788225 0.03418617
0.57223594 0.0052929465 0.034173947
0.5730359 0.0061362148 0.034754355
0.57303005 0.0069487467 0.034742158
0.57302415 0.0077612777 0.034729961
0.57301831 0.0085738087 0.034717761
0.57301247 0.0093863411 0.034705564
0.57381254 0.010220052 0.035286151
0.5738067 0.01103099 0.03527398
0.57380086 0.011841928 0.035261806
0.57379502 0.012652866 0.035249632
0.57459509 0.01347861 0.035830304
0.57458931 0.014287955 0.035818152
0.57458347 0.0150973 0.035806004
0.57457763 0.015906645 0.035793852
0.57457185 0.01671599 0.035781704
0.57456601 0.017525334 0.035769552
0.57456017 0.018334679 0.035757404
0.57455432 0.019144025 0.035745252
0.57454854 0.01995337 0.035733104
0.5745427 0.020762714 0.035720952
0.57453686 0.021572059 0.035708804
0.57453108 0.022381404 0.035696652
0.57452524 0.02319075 0.035684504
0.57532549 0.023994189 0.036265507
0.57531965 0.02480194 0.036253382
0.57531387 0.025609691 0.036241256
0.57450193 0.026428128 0.035635903
0.57449609 0.027237475 0.035623752
0.5752964 0.028032947 0.036204878
0.57529062 0.028840698 0.036192752
0.57528478 0.029648451 0.036180627
0.575279 0.030456202 0.036168501
0.57527316 0.031263955 0.036156375
0.57526737 0.032071706 0.036144249
0.57445538 0.032902889 0.035538703
0.57444954 0.033712231 0.035526555
0.5744437 0.034521576 0.035514403
0.57443786 0.035330921 0.035502255
0.57443208 0.036140267 0.035490103
0.57442623 0.036949612 0.035477955
0.57442039 0.037758958 0.035465803
0.57441461 0.038568303 0.035453655
0.57440877 0.039377648 0.035441503
0.57440293 0.040186994 0.035429355
0.57439715 0.040996339 0.035417203
0.57439131 0.041805681 0.035405055
0.57438546 0.042615026 0.035392903
0.57437962 0.043424372 0.035380755
0.57437384 0.044233717 0.035368603
0.574368 0.045043062 0.035356455
0.57355583 0.045901328 0.034750499
0.57354999 0.046712268 0.034738328
0.57354414 0.047523204 0.034726154
0.5735383 0.04833414 0.03471398
0.57353246 0.049145076 0.034701806
0.57352662 0.04995602 0.034689631
0.57352078 0.05076696 0.034677457
0.573515 0.051577896 0.034665283
0.57350916 0.052388836 0.034653109
0.57350332 0.053199768 0.034640934
0.57269096 0.054075565 0.034034684
0.57268512 0.054888096 0.034022488
0.57267922 0.055700626 0.034010287
0.57267338 0.056513164 0.033998091
0.57266754 0.057325695 0.033985894
0.5726617 0.058138222 0.033973694
0.57184935 0.059025165 0.03336731
0.57184345 0.05983929 0.033355091
0.5718376 0.060653415 0.033342868
0.57102513 0.061546732 0.032736387
0.57021272 0.062443234 0.032129861
0.56940019 0.063342929 0.031523287
0.58817536 0.25449383 0.04348059
0.58816975 0.25527292 0.043468893
0.58735466 0.25653267 0.042856913
0.58734906 0.25731331 0.042845193
0.58734345 0.25809398 0.042833477
0.58733785 0.25887465 0.042821757
0.58733219 0.25965533 0.042810038
0.58813614 0.25994733 0.043398723
0.58813053 0.26072642 0.043387026
0.58893448 0.26101369 0.043975782
0.57037944 -0.0021753933 0.031864256
0.57117826 -0.0013129953 0.032445628
0.57117242 -0.00049568393 0.032433361
0.57197124 0.00036193433 0.033014804
0.5719654 0.0011776524 0.033002559
0.5719595 0.0019933695 0.03299031
0.57195365 0.0028090877 0.032978065
0.57275254 0.0036587405 0.033559632
0.57274669 0.0044728662 0.033547409
0.57274085 0.0052869902 0.033535186
0.57273501 0.0061011147 0.033522964
0.57272911 0.0069152387 0.033510745
0.57352811 0.0077553331 0.034092449
0.57352227 0.008567865 0.034080252
0.57351643 0.0093803965 0.034068055
0.57351059 0.010192928 0.034055855
0.57350475 0.011005458 0.034043659
0.57349885 0.01181799 0.034031462
0.57429796 0.012646933 0.034613371
0.57429212 0.013457871 0.034601197
0.57428628 0.014268809 0.034589022
0.5742805 0.015079747 0.034576848
0.57427466 0.015890686 0.034564674
0.57426882 0.016701624 0.0345525
0.57426298 0.017512562 0.034540325
0.57425714 0.0183235 0.034528151
0.57425129 0.019134438 0.034515977
0.57505047 0.019947449 0.035098094
0.57504463 0.020756792 0.035085943
0.57503885 0.021566138 0.035073794
0.57503301 0.022375483 0.035061643
0.57502717 0.023184828 0.035049494
0.57502133 0.023994172 0.035037342
0.57501554 0.024803517 0.035025194
0.5750097 0.025612863 0.035013042
0.57500386 0.026422206 0.035000894
0.57499808 0.027231554 0.034988742
0.57499224 0.028040897 0.034976594
0.5749864 0.028850242 0.034964442
0.57498062 0.029659588 0.034952294
0.57497478 0.030468933 0.034940142
0.57496893 0.031278275 0.034927994
0.57496309 0.03208762 0.034915842
0.57495731 0.032896969 0.034903694
0.57495147 0.033706311 0.034891542
0.57494563 0.034515657 0.034879394
0.57493985 0.035325002 0.034867242
0.57412875 0.036164138 0.034260325
0.57412291 0.036975078 0.034248151
0.57411712 0.037786014 0.03423598
0.57411128 0.03859695 0.034223806
0.57410544 0.03940789 0.034211632
0.5740996 0.040218826 0.034199458
0.57409376 0.041029766 0.034187283
0.57408792 0.041840706 0.034175109
0.57408208 0.042651642 0.034162935
0.57407624 0.043462582 0.034150761
0.57407039 0.044273518 0.034138586
0.57406461 0.045084454 0.034126412
0.57405877 0.045895394 0.034114238
0.57405293 0.046706334 0.034102067
0.57404709 0.04751727 0.034089893
0.57404125 0.04832821 0.034077719
0.57403541 0.049139146 0.034065545
0.57322407 0.050006967 0.033458162
0.57321823 0.050819498 0.033445965
0.57321239 0.051632028 0.033433769
0.57320654 0.052444559 0.033421569
0.5732007 0.053257089 0.033409372
0.57319486 0.054069623 0.033397175
0.57318902 0.054882154 0.033384975
0.57318318 0.055694681 0.033372778
0.57317734 0.056507219 0.033360582
0.57236594 0.057390962 0.032752994
0.5723601 0.058205087 0.032740775
0.5723542 0.059019208 0.032728553
0.57234836 0.059833333 0.03271633
0.57234251 0.060647458 0.032704107
0.57153106 0.061540764 0.032096379
0.5707196 0.062437255 0.031488601
0.56910241 0.063419305 0.030285187
0.58866972 0.25292999 0.042892721
0.58866411 0.25370905 0.042881027
0.58865851 0.25448814 0.042869329
0.58784443 0.25574628 0.042256124
0.58783883 0.25652695 0.042244405
0.58783323 0.25730762 0.042232685
0.58782762 0.25808829 0.042220969
0.58782196 0.25886896 0.042209249
0.58862489 0.25916258 0.042799156
0.58861929 0.25994164 0.042787462
0.58861369 0.26072073 0.042775765
0.58941662 0.26100799 0.043365773
0.568488 -0.003964053 0.029461768
0.57008356 -0.0022264875 0.03062682
