# .PCD v0.7 - Point Cloud Data file format
VERSION 0.7
FIELDS x y z
SIZE 4 4 4
TYPE F F F
COUNT 1 1 1
WIDTH 1417
HEIGHT 1
VIEWPOINT 0 0 0 1 0 0 0
POINTS 1417
DATA ascii
0.56500262 0.22296907 0.19453855
0.56499791 0.22362866 0.19452864
0.56444818 0.2168403 0.19377494
0.56444341 0.21750148 0.19376501
0.5644387 0.21816267 0.19375509
0.56443393 0.21882384 0.19374517
0.56442916 0.219485 0.19373524
0.5644244 0.22014619 0.19372532
0.5654307 0.2203259 0.19406064
0.56441492 0.22146854 0.19370545
0.56542116 0.22164507 0.19404083
0.56541646 0.22230467 0.19403094
0.56541169 0.22296424 0.19402103
0.56540692 0.22362383 0.19401114
0.56485826 0.21683545 0.19325618
0.56485349 0.21749663 0.19324626
0.56484872 0.21815783 0.19323634
0.56484395 0.21881901 0.19322641
0.56483924 0.21948017 0.19321647
0.56584448 0.2196615 0.19355305
0.56583971 0.22032109 0.19354315
0.565835 0.22098066 0.19353324
0.56583023 0.22164024 0.19352335
0.56582552 0.22229984 0.19351344
0.56481069 0.22344725 0.19315693
0.56581599 0.223619 0.19349363
0.56526828 0.21683063 0.19273743
0.56526357 0.21749181 0.19272749
0.5652588 0.21815298 0.19271757
0.56626302 0.21833751 0.19305533
0.56625831 0.21899709 0.19304544
0.5652445 0.22013652 0.19268779
0.56624877 0.22031626 0.19302563
0.56624407 0.22097585 0.19301572
0.56523025 0.22212003 0.19265802
0.56623459 0.22229502 0.19299592
0.56522071 0.22344241 0.19263817
0.56521595 0.22410357 0.19262823
0.56567359 0.21748696 0.19220874
0.56566882 0.21814816 0.19219881
0.56667209 0.21833268 0.19253783
0.56565934 0.21947049 0.19217896
0.56565458 0.22013168 0.19216904
0.56564981 0.22079286 0.19215912
0.56564504 0.22145402 0.19214919
0.56564027 0.2221152 0.19213927
0.56563556 0.2227764 0.19212933
0.56563079 0.22343758 0.1921194
0.56562603 0.22409873 0.19210948
0.56606936 0.21946566 0.19166021
0.5660646 0.22012685 0.19165029
0.56605989 0.22078803 0.19164035
0.56605512 0.22144918 0.19163042
0.56605035 0.22211036 0.1916205
0.56604558 0.22277156 0.19161057
0.56604081 0.22343273 0.19160065
0.56603605 0.2240939 0.19159073
0.56544954 0.22325289 0.19074024
0.56544477 0.22391567 0.19073029
0.56544 0.22457844 0.19072033
0.56586534 0.22258528 0.19023018
0.56586057 0.22324805 0.19022022
0.5658558 0.22391082 0.19021028
0.56585103 0.22457358 0.19020033
0.56628591 0.22125489 0.18973006
0.56628114 0.22191766 0.18972012
0.56627637 0.22258042 0.18971017
0.5662716 0.22324319 0.18970022
0.56626683 0.22390597 0.18969028
0.56525785 0.22505809 0.18932618
0.56567949 0.2237245 0.18882486
0.56567466 0.22438887 0.18881489
0.56566989 0.22505324 0.18880492
0.56609625 0.22305527 0.18831359
0.56609148 0.22371964 0.1883036
0.56608671 0.22438401 0.18829364
0.56608194 0.22504838 0.18828367
0.56549275 0.22553281 0.18740453
0.41395023 0.31997603 0.080093741
0.41394335 0.3209351 0.080079347
0.41393644 0.32189423 0.080064945
0.41454506 0.319969 0.079341225
0.41453817 0.3209281 0.079326823
0.41453126 0.32188722 0.079312429
0.41610557 0.31659278 0.079061106
0.41609865 0.31755033 0.079046734
0.41609177 0.31850785 0.079032354
0.41608489 0.31946534 0.079017982
0.416078 0.32042286 0.07900361
0.41607112 0.32138038 0.078989238
0.41669938 0.31658578 0.078309849
0.4166925 0.31754333 0.078295477
0.41668561 0.31850082 0.078281105
0.41667873 0.31945834 0.078266725
0.41667184 0.32041585 0.078252353
0.41666493 0.32137337 0.078237981
0.41729322 0.31657878 0.077558585
0.41728634 0.31753632 0.077544205
0.4182224 0.31799883 0.077961564
0.41727257 0.31945133 0.077515461
0.41726568 0.32040882 0.077501088
0.41725877 0.32136637 0.077486709
0.41788706 0.31657177 0.076807328
0.41788018 0.31752932 0.076792948
0.41881523 0.31799182 0.077211559
0.41880837 0.31894776 0.077197209
0.41880149 0.3199037 0.077182859
0.4187946 0.32085958 0.077168509
0.41942185 0.316073 0.076490246
0.41941497 0.31702894 0.076475888
0.41940808 0.31798485 0.076461539
0.4194012 0.31894076 0.076447189
0.41939434 0.3198967 0.076432839
0.41938746 0.32085258 0.076418489
0.42001471 0.316066 0.075740226
0.42000782 0.31702197 0.075725876
0.42094091 0.31748289 0.076147005
0.42093405 0.31843725 0.076132677
0.4209272 0.31939155 0.076118357
0.41998032 0.3208456 0.075668477
0.56807935 0.23179403 0.1436554
0.42153278 0.31747591 0.075398244
0.42152593 0.31843024 0.075383916
0.42151904 0.31938457 0.075369589
0.42151219 0.3203389 0.075355262
0.56296694 0.22391362 0.14063655
0.56296182 0.22462896 0.14062582
0.56295669 0.22534432 0.14061508
0.56388927 0.22560295 0.14104176
0.56388414 0.22631669 0.14103104
0.56387901 0.22703046 0.14102033
0.56481165 0.22728272 0.14144708
0.56480652 0.2279949 0.14143638
0.56573921 0.22824237 0.14186323
0.56573409 0.22895294 0.14185256
0.56666678 0.22919565 0.14227946
0.56666172 0.22990464 0.14226882
0.56943977 0.23342563 0.14350761
0.5624842 0.22292641 0.13965824
0.56341577 0.22319302 0.14008604
0.56341058 0.22390839 0.1400753
0.56340545 0.22462372 0.14006455
0.56340033 0.22533907 0.14005382
0.56433195 0.22559774 0.14048174
0.56432682 0.22631148 0.14047103
0.56432164 0.22702523 0.14046031
0.56525332 0.22727752 0.14088832
0.56524819 0.22798969 0.14087763
0.56617987 0.22823717 0.14130573
0.56617481 0.22894774 0.14129506
0.56710649 0.22919047 0.1417232
0.56710142 0.22989944 0.14171256
0.56803316 0.23013739 0.14214079
0.56988662 0.23201211 0.14297625
0.56988156 0.23271631 0.14296567
0.56987649 0.23342049 0.14295511
0.56987143 0.23412468 0.14294453
0.57080328 0.23434509 0.14337303
0.57079828 0.2350477 0.14336248
0.57079321 0.2357503 0.14335194
0.57078815 0.23645289 0.14334139
0.57078308 0.2371555 0.14333084
0.56293398 0.22220422 0.1391065
0.56292886 0.22292116 0.13909572
0.5638594 0.22318779 0.13952477
0.56385428 0.22390315 0.13951403
0.56384909 0.22461849 0.1395033
0.56384397 0.22533384 0.13949256
0.56383884 0.22604918 0.13948181
0.56476945 0.22630624 0.13991103
0.56476432 0.22702001 0.13990031
0.56569499 0.2272723 0.14032957
0.56568986 0.22798447 0.14031887
0.56662059 0.22823197 0.14074822
0.56661546 0.22894254 0.14073755
0.56754619 0.22918528 0.14116696
0.56847692 0.22942483 0.14159639
0.56847185 0.23013222 0.14158578
0.56940264 0.23036698 0.14201531
0.56939757 0.23107277 0.14200471
0.57032841 0.23130275 0.14243431
0.57032335 0.23200695 0.14242373
0.57031828 0.23271115 0.14241317
0.57031322 0.23341534 0.14240259
0.57030815 0.23411952 0.14239202
0.57123905 0.23433995 0.14282177
0.57123399 0.23504256 0.14281122
0.57122892 0.23574516 0.14280067
0.57122391 0.23644775 0.14279012
0.57121885 0.23715036 0.14277957
0.56338382 0.22148204 0.13855475
0.56337863 0.22219898 0.13854399
0.56337351 0.22291592 0.13853322
0.56336832 0.22363284 0.13852246
0.56336313 0.22434981 0.1385117
0.56429273 0.22461326 0.13894203
0.5642876 0.22532861 0.1389313
0.56428248 0.22604395 0.13892056
0.56521213 0.22630103 0.13935101
0.565207 0.22701478 0.1393403
0.56613666 0.22726709 0.13977081
0.56613153 0.22797927 0.13976011
0.56706125 0.22822678 0.14019071
0.56799102 0.22847112 0.14062133
0.56798589 0.2291801 0.14061069
0.56891567 0.22941966 0.14104138
0.56891054 0.23012704 0.14103077
0.56984037 0.2303618 0.14146155
0.56983531 0.23106761 0.14145096
0.56983024 0.23177338 0.14144036
0.57076007 0.2320018 0.14187123
0.570755 0.23270601 0.14186066
0.57074994 0.23341018 0.14185008
0.57074487 0.23411438 0.14183952
0.57167476 0.23433481 0.14227052
0.57166976 0.23503742 0.14225997
0.57166469 0.23574002 0.14224942
0.57165962 0.23644261 0.14223887
0.57071954 0.23763534 0.14178666
0.56382841 0.22147679 0.13799225
0.56382328 0.22219373 0.13798147
0.5638181 0.22291067 0.13797072
0.56381297 0.2236276 0.13795996
0.56380779 0.22434457 0.13794918
0.56473643 0.22460802 0.13838078
0.56473124 0.22532338 0.13837004
0.56472611 0.22603872 0.13835931
0.56565475 0.22629581 0.13879099
0.56564963 0.22700956 0.13878028
0.56657833 0.22726189 0.13921204
0.5665732 0.22797406 0.13920136
0.56750196 0.22822158 0.13963319
0.56843066 0.22846593 0.14006507
0.5684256 0.22917491 0.14005443
0.56935436 0.22941449 0.14048637
0.57028317 0.22965086 0.14091839
0.57027811 0.23035665 0.14090779
0.57027304 0.23106244 0.1408972
0.57120186 0.23129246 0.14132929
0.57119679 0.23199664 0.14131872
0.57119173 0.23270085 0.14130816
0.57118666 0.23340502 0.14129758
0.5711816 0.23410922 0.14128701
0.57211053 0.23432967 0.14171925
0.57210547 0.23503228 0.1417087
0.5721004 0.23573488 0.14169815
0.57209539 0.23643747 0.14168762
0.57115626 0.23763019 0.14123416
0.56427306 0.22147155 0.13742973
0.56426793 0.22218849 0.13741897
0.56426275 0.22290543 0.1374082
0.56425762 0.22362235 0.13739744
0.56425244 0.22433932 0.13738668
0.56424725 0.22505625 0.13737592
0.56517488 0.22531813 0.13780878
0.56516975 0.22603349 0.13779804
0.56609744 0.22629058 0.13823099
0.56609231 0.22700435 0.13822028
0.56702 0.22725667 0.13865328
0.56794775 0.2275058 0.13908635
0.56794262 0.22821638 0.13907568
0.56887037 0.22846074 0.13950881
0.56979817 0.22870193 0.13994199
0.56979305 0.22940931 0.13993137
0.57072091 0.2296457 0.14036463
0.57071584 0.23035148 0.14035404
0.57071072 0.23105729 0.14034344
0.57163858 0.2312873 0.14077678
0.57163352 0.2319915 0.14076622
0.57162845 0.2326957 0.14075564
0.57255638 0.23291934 0.1411891
0.57161832 0.23410407 0.14073449
0.57161325 0.23480827 0.14072393
0.57160819 0.23551247 0.14071335
0.57160312 0.23621665 0.14070278
0.57159805 0.23692085 0.1406922
0.57252604 0.23713493 0.14112581
0.56378597 0.2219118 0.13642249
0.56378078 0.22263032 0.1364117
0.5647074 0.22290018 0.13684569
0.56470221 0.22361711 0.13683493
0.56469709 0.22433408 0.13682418
0.5646919 0.225051 0.1368134
0.56561857 0.2253129 0.13724753
0.56561339 0.22602826 0.13723679
0.56654012 0.22628537 0.13767098
0.56653494 0.22699912 0.13766026
0.56746167 0.22725146 0.13809453
0.5683884 0.22750062 0.13852885
0.56838334 0.22821118 0.13851818
0.56931007 0.22845556 0.13895255
0.57023686 0.22869675 0.13938698
0.5702318 0.22940414 0.13937637
0.57115865 0.22964053 0.13981088
0.57115352 0.23034632 0.13980028
0.57208037 0.23057796 0.14023484
0.57207531 0.23128216 0.14022428
0.57207024 0.23198634 0.1402137
0.57206517 0.23269054 0.14020313
0.57206011 0.23339473 0.14019257
0.57205504 0.23409891 0.14018199
0.57204998 0.23480311 0.14017142
0.57204491 0.23550731 0.14016084
0.57203984 0.23621151 0.14015028
0.57203478 0.23691569 0.1401397
0.57202971 0.23761989 0.14012913
0.56422639 0.22262506 0.13584793
0.56515205 0.22289494 0.13628319
0.56514686 0.22361186 0.13627243
0.56514168 0.22432883 0.13626166
0.56513655 0.22504576 0.1362509
0.56606221 0.22530767 0.13668627
0.56605703 0.22602302 0.13667552
0.56698275 0.22628014 0.13711098
0.56697762 0.2269939 0.13710025
0.56790334 0.22724625 0.13753577
0.56882912 0.22749542 0.13797133
0.56882399 0.22820598 0.13796067
0.56974977 0.22845037 0.13839629
0.57067555 0.22869158 0.13883197
0.57067049 0.22939897 0.13882135
0.57159632 0.22963537 0.13925712
0.57159126 0.23034115 0.13924652
0.57251716 0.2305728 0.13968234
0.57251209 0.231277 0.13967176
0.57250696 0.23198119 0.13966119
0.5725019 0.2326854 0.13965063
0.57249683 0.23338957 0.13964005
0.57249177 0.23409377 0.13962948
0.5724867 0.23479795 0.1396189
0.57248163 0.23550215 0.13960834
0.57247657 0.23620635 0.13959776
0.5724715 0.23691054 0.13958719
0.57246643 0.23761474 0.13957663
0.56467205 0.2226198 0.13528417
0.56559664 0.22288969 0.13572069
0.56559151 0.22360662 0.13570993
0.56558633 0.22432359 0.13569915
0.56651098 0.22458708 0.13613574
0.56650585 0.22530244 0.13612501
0.56650072 0.22601779 0.13611427
0.56742543 0.22627492 0.13655096
0.56835014 0.22652888 0.1369877
0.56834501 0.22724104 0.13697702
0.56926978 0.22749022 0.13741383
0.57019454 0.22773622 0.13785069
0.57018948 0.22844519 0.13784003
0.57111424 0.22868641 0.13827696
0.57110918 0.22939378 0.13826635
0.57203406 0.2296302 0.13870336
0.57202899 0.230336 0.13869277
0.57202393 0.23104179 0.13868217
0.57294881 0.23127185 0.13911925
0.57294375 0.23197603 0.13910869
0.57293868 0.23268025 0.13909811
0.57293361 0.23338442 0.13908754
0.57292855 0.23408861 0.13907698
0.57292348 0.2347928 0.1390664
0.57291842 0.23549701 0.13905583
0.57291335 0.2362012 0.13904525
0.57290828 0.2369054 0.13903469
0.57290322 0.23760958 0.13902411
0.56511766 0.22261456 0.13472041
0.56604129 0.22288445 0.13515817
0.56603616 0.22360137 0.13514741
0.56603098 0.22431834 0.13513665
0.56695461 0.22458185 0.13557449
0.56694949 0.22529721 0.13556375
0.56787324 0.22555596 0.13600168
0.56786805 0.22626969 0.13599095
0.56879181 0.22652367 0.13642894
0.56878668 0.22723582 0.13641825
0.56971049 0.22748502 0.13685632
0.57063425 0.22773103 0.13729443
0.57062918 0.22844 0.13728379
0.57155299 0.22868124 0.13772196
0.57154787 0.22938861 0.13771133
0.5724718 0.22962505 0.13814959
0.57246667 0.23033082 0.13813899
0.57246161 0.23103663 0.1381284
0.57338554 0.23126669 0.13856675
0.57338047 0.23197089 0.13855617
0.5733754 0.23267509 0.1385456
0.57337034 0.23337927 0.13853504
0.57336527 0.23408346 0.13852446
0.5733602 0.23478766 0.13851389
0.57335514 0.23549186 0.13850331
0.57335007 0.23619604 0.13849275
0.57334501 0.23690024 0.13848217
0.57333994 0.23760442 0.1384716
0.56649107 0.22216226 0.13460642
0.56648594 0.2228792 0.13459566
0.56648076 0.22359613 0.1345849
0.56647563 0.2243131 0.13457413
0.56739831 0.22457662 0.13501322
0.56739312 0.22529197 0.13500249
0.56831586 0.22555074 0.13544166
0.56831074 0.22626448 0.13543095
0.56923348 0.22651845 0.13587019
0.57015628 0.22676925 0.13630947
0.57015115 0.22747982 0.13629881
0.57107395 0.22772583 0.13673817
0.57106888 0.22843482 0.13672753
0.57199168 0.22867605 0.13716695
0.57198662 0.22938344 0.13715632
0.57290947 0.22961988 0.13759585
0.57290441 0.23032567 0.13758525
0.57289934 0.23103146 0.13757466
0.57289428 0.23173723 0.13756406
0.57381719 0.23196574 0.13800368
0.57381213 0.23266993 0.1379931
0.57380706 0.23337412 0.13798253
0.57380199 0.2340783 0.13797195
0.57379693 0.2347825 0.13796139
0.57379186 0.2354867 0.13795082
0.5737868 0.2361909 0.13794024
0.57378173 0.23689508 0.13792968
0.57377666 0.23759928 0.1379191
0.56692022 0.22430785 0.13401163
0.56784195 0.22457139 0.13445197
0.56783676 0.22528674 0.13444123
0.56875855 0.22554551 0.13488166
0.56968027 0.2258011 0.13532211
0.56967515 0.22651325 0.13531142
0.57059693 0.22676405 0.13575196
0.57059187 0.22747461 0.13574131
0.57151365 0.22772065 0.13618191
0.57150853 0.22842963 0.13617127
0.57243037 0.22867088 0.13661194
0.57242531 0.22937825 0.13660131
0.57242024 0.23008564 0.1365907
0.57334214 0.2303205 0.13703148
0.57333708 0.23102631 0.13702089
0.57333195 0.23173207 0.13701029
0.57332689 0.23243785 0.1369997
0.57424885 0.23266479 0.13744059
0.57424378 0.23336896 0.13743001
0.57423872 0.23407316 0.13741945
0.57423365 0.23477735 0.13740888
0.57422858 0.23548156 0.1373983
0.57422352 0.23618574 0.13738774
0.57421845 0.23688993 0.13737716
0.57421339 0.23759413 0.13736659
0.56828558 0.22456616 0.1338907
0.5692063 0.22482651 0.13433236
0.56920117 0.2255403 0.13432164
0.57012194 0.22579589 0.13476336
0.57011682 0.22650804 0.13475268
0.57103765 0.22675885 0.13519447
0.57103252 0.22746941 0.1351838
0.57195336 0.22771546 0.13562566
0.57194823 0.22842444 0.13561501
0.57194316 0.22913341 0.13560437
0.572864 0.22937308 0.13604631
0.57285893 0.23008046 0.1360357
0.57285386 0.23078784 0.13602507
0.57377476 0.23102114 0.13646713
0.57376969 0.2317269 0.13645653
0.57376462 0.23243269 0.13644594
0.57375956 0.23313849 0.13643534
0.57375449 0.23384428 0.13642475
0.57374936 0.23455006 0.13641416
0.5737443 0.23525585 0.13640356
0.57373923 0.23596163 0.13639297
0.57373416 0.23666741 0.13638237
0.5737291 0.2373732 0.13637178
0.57372397 0.23807898 0.13636118
0.56872922 0.22456092 0.13332945
0.56964898 0.2248213 0.13377236
0.56964386 0.22553506 0.13376163
0.57056361 0.22579068 0.1342046
0.57055849 0.22650282 0.13419391
0.57147831 0.22675365 0.13463695
0.57147318 0.22746421 0.13462628
0.57146811 0.22817479 0.13461562
0.57238793 0.22841926 0.13505875
0.57238287 0.22912823 0.13504811
0.57330275 0.22936791 0.1354913
0.57329762 0.23007528 0.13548069
0.57329255 0.23078267 0.13547006
0.57421249 0.23101597 0.13591337
0.57420743 0.23172174 0.13590278
0.57420236 0.23242752 0.13589218
0.57419723 0.23313333 0.13588159
0.57419217 0.23383911 0.13587099
0.5741871 0.2345449 0.1358604
0.57418203 0.23525068 0.1358498
0.57417697 0.23595648 0.13583921
0.57417184 0.23666225 0.13582861
0.57416677 0.23736803 0.13581802
0.57416171 0.23807383 0.13580742
0.57008654 0.22552985 0.13320163
0.57100528 0.22578546 0.13364583
0.57100016 0.22649762 0.13363515
0.57191902 0.22674845 0.13407944
0.5719139 0.22745903 0.13406877
0.57190877 0.22816959 0.1340581
0.57282764 0.22841406 0.13450249
0.57282251 0.22912304 0.13449185
0.57281744 0.22983201 0.13448121
0.57373637 0.23007011 0.13492566
0.57373124 0.23077749 0.13491505
0.57372618 0.23148488 0.13490443
0.57464516 0.23171657 0.13534902
0.57464004 0.23242237 0.13533843
0.57463497 0.23312816 0.13532783
0.5746299 0.23383395 0.13531724
0.57462484 0.23453973 0.13530664
0.57461977 0.23524553 0.13529605
0.57461464 0.2359513 0.13528545
0.57460958 0.23665708 0.13527484
0.57460451 0.23736288 0.13526425
0.57459944 0.23806866 0.13525365
0.57052916 0.22552462 0.13264161
0.57144696 0.22578026 0.13308708
0.57144183 0.2264924 0.1330764
0.57235968 0.22674325 0.13352193
0.57235456 0.22745383 0.13351128
0.57234949 0.22816439 0.13350061
0.57326734 0.22840887 0.13394623
0.57326221 0.22911786 0.13393559
0.57325715 0.22982682 0.13392495
0.57417506 0.23006494 0.13437067
0.57416993 0.23077232 0.13436005
0.57416487 0.23147969 0.13434944
0.57508284 0.23171142 0.13479526
0.57507777 0.2324172 0.13478467
0.57507271 0.233123 0.13477407
0.57506764 0.23382878 0.13476348
0.57506251 0.23453458 0.13475288
0.57505745 0.23524036 0.13474229
0.57505238 0.23594613 0.1347317
0.57504731 0.23665193 0.13472109
0.57504225 0.23735771 0.13471049
0.57503712 0.2380635 0.1346999
0.57188863 0.22577505 0.13252832
0.5718835 0.22648719 0.13251762
0.5728004 0.22673805 0.13296443
0.57279527 0.22744863 0.13295376
0.57279015 0.22815919 0.13294309
0.57370704 0.22840369 0.13338996
0.57370192 0.22911267 0.13337933
0.57369685 0.22982164 0.13336869
0.57461375 0.23005976 0.13381566
0.57460868 0.23076715 0.13380504
0.57460356 0.23147452 0.13379441
0.57459849 0.23218191 0.1337838
0.57551551 0.23241204 0.1342309
0.57551044 0.23311783 0.1342203
0.57550532 0.23382363 0.13420971
0.57550025 0.23452941 0.13419911
0.57549518 0.2352352 0.13418852
0.57549012 0.23594098 0.13417792
0.57548505 0.23664676 0.13416733
0.57547992 0.23735255 0.13415673
0.57547486 0.23805833 0.13414614
0.5723303 0.22576983 0.13196956
0.57324618 0.22602229 0.13241759
0.57324106 0.22673286 0.13240692
0.57323593 0.22744343 0.13239625
0.5732308 0.22815399 0.13238558
0.57322574 0.22886457 0.13237491
0.57414162 0.22910748 0.13282308
0.5741365 0.22981645 0.13281243
0.57502699 0.2335915 0.13320756
0.57368684 0.22601709 0.13186008
0.57368171 0.22672766 0.13184941
0.57367665 0.22743823 0.13183874
0.57367152 0.22814879 0.13182807
0.57410711 0.22885416 0.1312599
0.58134913 0.25503817 0.071461327
0.58182591 0.25427264 0.070876472
0.58182043 0.2550326 0.070865065
0.57978177 0.25420472 0.068625696
0.58061844 0.254482 0.069173351
0.58145505 0.25475612 0.069721058
0.58229172 0.25502706 0.070268802
0.5794149 0.25468495 0.067465313
0.5810917 0.25447643 0.068574585
0.58108622 0.25523958 0.068563133
0.58192188 0.25551209 0.069112122
0.57737529 0.2553657 0.0651908
0.57905006 0.25516516 0.066302449
0.58072484 0.25495824 0.067414202
0.58155948 0.255234 0.067964368
0.58239418 0.25550652 0.068514608
0.57199639 0.25640279 0.060681146
0.57701439 0.25584427 0.064022958
0.57868719 0.25564536 0.065137081
0.58035994 0.25544006 0.066251293
0.58119363 0.2557174 0.06680271
0.58202732 0.25599155 0.067354158
0.57164907 0.25609264 0.059515145
0.57248157 0.25639707 0.060067385
0.57415217 0.25621727 0.061183728
0.57582289 0.25603113 0.062300164
0.57665545 0.25632283 0.062852599
0.57999706 0.25592184 0.065085903
0.5816679 0.25571179 0.0662027
0.58250058 0.25598595 0.066755399
0.57214087 0.25530303 0.058911901
0.57297236 0.25560907 0.059465367
0.57296669 0.25639135 0.059453625
0.57463539 0.25621158 0.060572468
0.57546693 0.25650805 0.061126083
0.57713568 0.25631717 0.06224509
0.57880443 0.25611988 0.063364193
0.5796361 0.2564036 0.063918017
0.58130497 0.25619519 0.065037273
0.58213669 0.25647092 0.065591209
0.57263261 0.25451344 0.058308657
0.57262701 0.2552973 0.058296889
0.57345748 0.25560334 0.058851611
0.57428801 0.25590619 0.059406396
0.57511854 0.25620589 0.059961207
0.57594907 0.25650236 0.060516071
0.57761586 0.25631151 0.06163758
0.57927716 0.25688535 0.062747613
0.580944 0.25667852 0.063869357
0.58177471 0.25695589 0.064424507
0.57311875 0.25450772 0.057693645
0.57311314 0.25529155 0.057681877
0.5739426 0.25559762 0.058237847
0.57477218 0.25590047 0.058793884
0.5756017 0.25620019 0.059349947
0.57559609 0.25697926 0.059338253
0.57726091 0.25678998 0.060462236
0.57809049 0.25708011 0.061018445
0.57975537 0.25687972 0.062142599
0.58058506 0.25716186 0.062698945
0.58225 0.25695029 0.063823245
0.57443905 0.2540274 0.057647575
0.57443339 0.25480965 0.057635833
0.57442778 0.2555919 0.05762409
0.57525635 0.25589478 0.058181372
0.57608491 0.25619447 0.058738686
0.57691348 0.25649101 0.059296049
0.5777421 0.25678432 0.059853476
0.57857072 0.25707445 0.060410935
0.57939941 0.25736141 0.060968459
0.58106232 0.25715622 0.06209518
0.581891 0.2574352 0.062652811
0.57575732 0.25354707 0.057604022
0.57575172 0.25432771 0.057592303
0.57574612 0.25510842 0.057580583
0.57657367 0.25540972 0.058139123
0.57740122 0.25570783 0.058697712
0.57739562 0.25648531 0.05868604
0.57822329 0.25677863 0.059244718
0.5790509 0.25706878 0.059803426
0.57987857 0.25735575 0.060362197
0.5807063 0.25763953 0.060921002
0.58236724 0.2574296 0.062050298
0.57790023 0.25336969 0.058122717
0.57789463 0.25414717 0.058111046
0.57788903 0.25492465 0.058099374
0.57788342 0.25570214 0.058087703
0.57871008 0.25599706 0.058647607
0.57953668 0.25628883 0.05920754
0.58036339 0.2565774 0.059767541
0.58035779 0.25735009 0.05975594
0.58118451 0.25763389 0.060315996
0.58201122 0.25791448 0.060876112
0.57921356 0.25288785 0.058085438
0.57920802 0.25366375 0.058073793
0.57920241 0.25443962 0.058062144
0.57919681 0.2552155 0.058050495
0.58002245 0.25550887 0.058611657
0.58001691 0.25628316 0.058600035
0.58084261 0.25657174 0.059161279
0.58166826 0.25685713 0.059722561
0.58249402 0.25713933 0.060283907
0.58331978 0.25741836 0.060845282
0.57970035 0.25210628 0.057488326
0.57969475 0.25288215 0.057476681
0.5796892 0.25365806 0.057465032
0.5796836 0.25443396 0.057453383
0.58050823 0.25472891 0.058015771
0.58050269 0.25550321 0.058004148
0.58132738 0.25579339 0.058566622
0.58215207 0.25608039 0.05912913
0.58214653 0.25685149 0.059117552
0.58297127 0.25713369 0.059680145
0.58296573 0.25790322 0.059668593
0.58018154 0.25210059 0.056879569
0.580176 0.25287649 0.05686792
0.58099961 0.25317466 0.057431508
0.58099401 0.25394896 0.057419885
0.58181769 0.25424233 0.057983562
0.58181214 0.25501502 0.057971962
0.58263582 0.25530365 0.058535695
0.58263028 0.25607476 0.058524121
0.58345407 0.25635856 0.059087943
0.58344853 0.25712806 0.059076391
0.58427227 0.25740713 0.059640262
0.58066273 0.25209492 0.056270808
0.58148539 0.25239468 0.056835622
0.58147979 0.253169 0.056823999
0.58147424 0.25394329 0.056812376
0.58229691 0.25423667 0.057377305
0.58229136 0.25500938 0.057365704
0.58311409 0.25529802 0.057930686
0.58310854 0.25606912 0.057919107
0.58393127 0.25635293 0.058484182
0.58392572 0.25712246 0.05847263
0.58474851 0.2574015 0.059037756
0.58197117 0.25161475 0.056239735
0.58196557 0.25238901 0.056228112
0.58196002 0.25316334 0.05621649
0.58278173 0.25345832 0.056782641
0.58277613 0.25423104 0.05677104
0.58359784 0.25452125 0.057337251
0.5835923 0.25529236 0.057325672
0.58441406 0.2555778 0.057891972
0.58440852 0.2563473 0.05788042
0.58523029 0.25662798 0.058446772
0.58522481 0.25739589 0.058435243
0.58245134 0.25160909 0.055632226
0.5824458 0.25238335 0.055620603
0.5832665 0.25267997 0.056187984
0.58326095 0.25345266 0.056176383
0.58325535 0.25422537 0.056164782
0.58407611 0.25451562 0.056732241
0.58407056 0.25528672 0.056720667
0.58489132 0.25557217 0.057288215
0.58488578 0.25634167 0.057276662
0.58570659 0.25662234 0.057844263
0.58570105 0.25739026 0.057832737
0.58293158 0.25160342 0.055024717
0.58292598 0.25237769 0.055013094
0.58374572 0.25267431 0.055581722
0.58374012 0.25344703 0.055570122
0.58455986 0.25373885 0.05613881
0.58455431 0.25450996 0.056127232
0.58537412 0.25479701 0.056696005
0.58536857 0.25556654 0.056684453
0.58536303 0.25633603 0.056672901
0.58618283 0.25661674 0.057241753
0.58617729 0.25738466 0.057230223
0.58179986 0.01929546 0.055607278
0.58178866 0.020856794 0.055583842
0.58168757 0.034908805 0.05537289
0.5816707 0.037250806 0.055337731
0.5816651 0.038031474 0.055326011
0.58341175 0.25159776 0.054417208
0.58340621 0.25237203 0.054405585
0.58340061 0.25314635 0.054393958
0.58421934 0.25344136 0.054963864
0.58421379 0.25421405 0.054952264
0.58503252 0.25450432 0.055522222
0.58502698 0.25527543 0.055510648
0.58502144 0.25604653 0.055499069
0.58584028 0.2563304 0.056069143
0.58583474 0.25709993 0.056057591
0.58665353 0.25737903 0.056627717
0.5790897 0.0074701835 0.052869909
0.5831039 0.019293237 0.055570286
0.58309823 0.020072311 0.055558588
0.58309263 0.020851387 0.055546895
0.58308703 0.02163046 0.055535197
0.58308142 0.022409534 0.055523504
0.58307022 0.023967683 0.055500112
0.583031 0.029421201 0.055418242
0.58299738 0.034095645 0.055348068
0.58299178 0.034874719 0.055336375
0.58298618 0.035653796 0.055324677
0.58298057 0.03643287 0.055312984
0.58297491 0.037211943 0.055301286
0.58296931 0.037991017 0.055289593
0.5829469 0.041107312 0.05524281
0.58294129 0.041886389 0.055231113
0.58293569 0.042665463 0.055219419
0.58293009 0.043444537 0.055207722
0.58306873 0.25206655 0.053227011
0.58388638 0.25236636 0.053798076
0.58388084 0.25314066 0.053786453
0.58387524 0.25391495 0.053774826
0.58469301 0.25420842 0.054346006
0.58468747 0.2549811 0.054334406
0.58550525 0.2552698 0.054905638
0.5854997 0.2560409 0.05489406
0.5854941 0.25681201 0.054882485
0.58631194 0.25709429 0.055453829
0.58630645 0.25786379 0.055442277
0.50273758 -0.011036782 -0.0016912501
0.57794613 0.0066193994 0.051111437
0.58039641 0.0074918256 0.052828807
0.58120948 0.0083030798 0.053393461
0.58202255 0.0091111464 0.053958144
0.58283561 0.009916028 0.054522898
0.58359265 0.018508464 0.054970723
0.58358705 0.019287538 0.054959025
0.58358145 0.020066611 0.054947332
0.58357584 0.020845687 0.054935634
0.58357024 0.021624761 0.05492394
0.58356464 0.022403834 0.054912243
0.58437788 0.023178443 0.055477429
0.58437228 0.023955926 0.055465758
0.58436668 0.024733406 0.055454087
0.58434993 0.027065849 0.055419073
0.58434433 0.02784333 0.055407401
0.58433872 0.028620811 0.05539573
0.58433312 0.029398292 0.055384059
0.58432758 0.030175773 0.055372387
0.58432198 0.030953255 0.055360716
0.58431637 0.031730734 0.055349045
0.58431077 0.032508217 0.055337369
0.58430517 0.0332857 0.055325698
0.58348054 0.034089945 0.054736812
0.58429396 0.034840658 0.055302355
0.58346933 0.035648096 0.054713421
0.58428282 0.036395621 0.055279013
0.58427721 0.0371731 0.055267341
0.58427161 0.037950583 0.05525567
0.5842548 0.040283024 0.055220656
0.58424926 0.041060507 0.055208985
0.58424366 0.041837987 0.05519731
0.58423805 0.04261547 0.055185638
0.58423245 0.043392949 0.055173967
0.58340764 0.044217911 0.054584768
0.58340204 0.044996984 0.054573074
0.58339643 0.045776058 0.054561377
0.58354431 0.25283676 0.052606605
0.58353877 0.25361264 0.052594956
0.58435547 0.25390929 0.053167317
0.58434987 0.25468358 0.053155694
0.58434433 0.25545788 0.053144071
0.58516109 0.25574815 0.053716544
0.58515555 0.25652087 0.053704947
0.58597237 0.25680637 0.054277476
0.58596683 0.25757748 0.054265901
0.58678365 0.25785819 0.05483852
0.57762426 0.0057927943 0.049925681
0.58007157 0.0066716275 0.051646706
0.58170128 0.007513491 0.052790217
0.58251327 0.0083231628 0.05335613
0.58332539 0.009129649 0.053922106
0.58331978 0.0099103162 0.053910386
0.5841319 0.010712023 0.054476418
0.58412629 0.011491097 0.05446472
0.58490485 0.01695291 0.054960791
0.58489925 0.017730389 0.05494912
0.58489364 0.01850787 0.054937448
0.58488804 0.019285353 0.054925777
0.58488244 0.020062832 0.054914106
0.58487684 0.020840313 0.054902434
0.58487129 0.021617794 0.054890763
0.58486569 0.022395276 0.054879092
0.58486009 0.023172757 0.05486742
0.58567244 0.023944192 0.055433922
0.58566684 0.024720078 0.055422276
0.58566123 0.025495967 0.055410627
0.58565569 0.026271855 0.055398978
0.58565009 0.027047742 0.055387333
0.58564448 0.027823631 0.055375684
0.58563894 0.028599517 0.055364035
0.58563334 0.029375406 0.05535239
0.58562773 0.030151293 0.055340741
0.58480412 0.030947566 0.054750703
0.58561659 0.031703066 0.055317447
0.58479297 0.032502528 0.054727361
0.58560544 0.033254843 0.055294149
0.58478177 0.034057491 0.054704018
0.58477616 0.03483497 0.054692347
0.58477056 0.035612453 0.054680672
0.58476496 0.036389932 0.054669
0.58475941 0.037167415 0.054657329
0.58475381 0.037944894 0.054645658
0.58474261 0.039499857 0.054622315
0.584737 0.040277336 0.054610644
0.58554959 0.041013721 0.055177674
0.58554399 0.04178961 0.055166025
0.58553845 0.042565499 0.055154376
0.58471465 0.04338726 0.054563958
0.58470905 0.044164743 0.054552287
0.58470345 0.044942223 0.054540612
0.58469784 0.045719702 0.05452894
0.58469224 0.046497189 0.054517269
0.58468664 0.047274668 0.054505598
0.5840255 0.25283107 0.051997844
0.58401996 0.25360698 0.051986195
0.58401436 0.25438285 0.051974546
0.58400875 0.25515875 0.051962901
0.58482456 0.25545222 0.052536562
0.58481896 0.25622651 0.052524935
0.58563477 0.2565152 0.053098686
0.58562922 0.25728792 0.053087085
0.58644503 0.25757182 0.053660892
0.58643949 0.25834292 0.053649314
0.58056533 0.0058788294 0.051041011
0.58219302 0.0067239027 0.052186977
0.58300406 0.0075351791 0.052754112
0.58381516 0.00834327 0.053321317
0.58462626 0.009148174 0.053888548
0.58462065 0.0099272477 0.053876854
0.58461505 0.010706322 0.053865157
0.58542615 0.011504854 0.054432485
0.58542061 0.012282334 0.054420814
0.58541501 0.013059815 0.054409143
0.58622617 0.013851974 0.054976583
0.58622062 0.014627863 0.054964937
0.58621502 0.01540375 0.054953288
0.58620942 0.016179638 0.054941639
0.58620387 0.016955525 0.054929994
0.58619827 0.017731413 0.054918345
0.58619267 0.0185073 0.054906696
0.58618712 0.019283189 0.054895051
0.58618152 0.020059077 0.054883402
0.58617592 0.020834966 0.054871753
0.58535343 0.021612106 0.054280754
0.58616477 0.022386741 0.054848459
0.58615917 0.023162628 0.05483681
0.58615363 0.023938516 0.054825164
0.58614802 0.024714403 0.054813515
0.58614242 0.025490291 0.054801866
0.58613688 0.026266178 0.054790221
0.58613127 0.027042067 0.054778572
0.58612573 0.027817953 0.054766923
0.58612013 0.028593842 0.054755278
0.58611453 0.029369731 0.054743629
0.58610898 0.030145617 0.05473198
0.58610338 0.030921504 0.054720335
0.58609778 0.031697392 0.054708686
0.58609223 0.032473281 0.054697037
0.58608663 0.03324917 0.054685391
0.58608103 0.034025054 0.054673743
0.58607548 0.034800943 0.054662094
0.58606988 0.035576832 0.054650448
0.58606428 0.03635272 0.054638799
0.58605874 0.037128609 0.05462715
0.58605313 0.037904494 0.054615505
0.58604753 0.038680386 0.054603856
0.58604199 0.039456271 0.054592207
0.58603638 0.040232159 0.054580562
0.58603078 0.041008044 0.054568913
0.58602524 0.041783936 0.054557264
0.58601964 0.042559821 0.054545619
0.58601403 0.04333571 0.05453397
0.58600849 0.044111595 0.054522324
0.58600289 0.044887487 0.054510675
0.58599728 0.045663372 0.054499026
0.58599174 0.046439257 0.054487381
0.58598614 0.047215149 0.054475732
0.58598053 0.047991034 0.054464083
0.58369201 0.25252396 0.050814275
0.58368641 0.25330144 0.050802603
0.58450115 0.25360131 0.051377434
0.58449554 0.25437719 0.051365789
0.58449 0.25515306 0.05135414
0.5844844 0.25592896 0.051342491
0.58529919 0.25622085 0.051917426
0.58529359 0.25699514 0.051905803
0.58528805 0.25776944 0.05189418
0.5861029 0.25805494 0.052469227
0.5869177 0.25833729 0.053044304
0.58691216 0.25910842 0.05303273
0.58268481 0.0059343143 0.051583733
0.58349484 0.0067471955 0.052152097
0.58430493 0.0075568915 0.052720524
0.58429933 0.0083375582 0.052708805
0.58510941 0.0091424743 0.053277288
0.58510381 0.009921548 0.053265594
0.58509821 0.010700623 0.053253897
0.58590835 0.011499166 0.053822476
0.58590275 0.012276647 0.053810805
0.58671296 0.01307041 0.054379474
0.58670741 0.013846298 0.054367825
0.58670181 0.014622185 0.054356176
0.58669621 0.015398074 0.054344531
0.58669066 0.016173961 0.054332882
0.58668506 0.016949849 0.054321233
0.58667946 0.017725736 0.054309588
0.58667392 0.018501624 0.054297939
0.58666831 0.019277513 0.05428629
0.58666271 0.0200534 0.054274645
0.58665717 0.020829288 0.054262996
0.58665156 0.021605175 0.054251347
0.58664596 0.022381064 0.054239701
0.58664042 0.02315695 0.054228052
0.58745074 0.023926817 0.054797061
0.58662921 0.024708726 0.054204758
0.58662367 0.025484614 0.054193109
0.58661807 0.026260501 0.05418146
0.58661246 0.027036389 0.054169815
0.58660692 0.027812278 0.054158166
0.5874173 0.028572584 0.05472732
0.58659571 0.029364053 0.054134872
0.58740616 0.030121174 0.05470407
0.58740062 0.030895468 0.054692447
0.58739501 0.031669762 0.054680824
0.58657342 0.032467604 0.05408828
0.58656782 0.033243492 0.054076631
0.58656222 0.034019377 0.054064985
0.58655667 0.034795266 0.054053336
0.58655107 0.035571154 0.054041687
0.58736163 0.036315531 0.054611079
0.58653992 0.037122931 0.054018393
0.58653432 0.03789882 0.054006744
0.58652872 0.038674708 0.053995099
0.58652318 0.039450593 0.05398345
0.58651757 0.040226482 0.053971801
0.5873282 0.040961295 0.054541338
0.58732259 0.041735593 0.054529712
0.58650082 0.042554144 0.053936858
0.58649522 0.043330032 0.053925212
0.58648968 0.044105921 0.053913563
0.58648407 0.04488181 0.053901915
0.58647847 0.045657698 0.053890269
0.58647293 0.046433583 0.05387862
0.58646733 0.047209471 0.053866971
0.58646172 0.047985356 0.053855326
0.58645618 0.048761249 0.053843677
0.58417416 0.25251827 0.050204266
0.58416855 0.25329575 0.050192595
0.58416301 0.25407323 0.050180923
0.58497673 0.25437149 0.050757028
0.58497119 0.2551474 0.050745383
0.58496559 0.25592327 0.050733734
0.58495998 0.25669917 0.050722085
0.58495444 0.25747505 0.05071044
0.58576822 0.25776377 0.051286671
0.58576268 0.25853807 0.051275045
0.58657652 0.25882199 0.051851369
0.58739042 0.25910279 0.05242772
0.58480036 0.0059898454 0.052131455
0.5847947 0.0067705126 0.052119736
0.58560383 0.0075786263 0.052689422
0.58559817 0.0083577009 0.052677725
0.58559257 0.0091367746 0.052666031
0.5864017 0.0099385157 0.05323581
0.58639616 0.010715997 0.053224139
0.58639055 0.011493478 0.053212468
0.58719975 0.012288846 0.053782362
0.58719414 0.013064734 0.053770714
0.5871886 0.013840621 0.053759065
0.58799779 0.014629617 0.054329038
0.58799225 0.015403911 0.054317415
0.58798665 0.016178206 0.054305792
0.5879811 0.016952502 0.054294165
0.5879755 0.017726796 0.054282542
0.58796996 0.01850109 0.054270919
0.58796436 0.019275384 0.054259297
0.58795881 0.02004968 0.05424767
0.58795321 0.020823974 0.054236047
0.58794767 0.021598268 0.054224424
0.58794206 0.022372562 0.054212801
0.58793652 0.023146857 0.054201175
0.58793098 0.023921153 0.054189552
0.58792537 0.024695447 0.054177929
0.58791983 0.025469741 0.054166306
0.58791423 0.026244035 0.054154679
0.58790869 0.027018331 0.054143056
0.58790308 0.027792625 0.054131433
0.58789754 0.028566919 0.05411981
0.58789194 0.029341215 0.054108184
0.58788639 0.030115508 0.054096561
0.58788079 0.030889804 0.054084938
0.58787525 0.0316641 0.054073315
0.58786964 0.032438394 0.054061692
0.5878641 0.033212688 0.054050066
0.5878585 0.033986982 0.054038443
0.58785295 0.034761276 0.05402682
0.58784741 0.03553557 0.054015197
0.58784181 0.036309864 0.05400357
0.58783627 0.037084159 0.053991947
0.58783066 0.037858453 0.053980324
0.58782512 0.038632751 0.053968702
0.58781952 0.039407045 0.053957075
0.58781397 0.040181339 0.053945452
0.58780837 0.040955629 0.053933829
0.58780283 0.041729927 0.053922206
0.58779722 0.042504221 0.05391058
0.58779168 0.043278515 0.053898957
0.58778608 0.044052809 0.053887334
0.58778054 0.044827104 0.053875711
0.58777493 0.045601401 0.053864084
0.58695412 0.046427906 0.053269859
0.58694851 0.047203794 0.053258214
0.58775824 0.04792428 0.053829215
0.58693737 0.048755571 0.053234916
0.58693177 0.049531456 0.053223271
0.58465636 0.25251257 0.049594257
0.58465075 0.25329006 0.049582586
0.58464515 0.25406754 0.049570914
0.58463955 0.25484502 0.049559243
0.58463401 0.25562251 0.049547572
0.5846284 0.25639999 0.0495359
0.58544117 0.25669348 0.050113328
0.58543563 0.25746939 0.050101679
0.58543003 0.25824526 0.05009003
0.58624285 0.2585324 0.050667539
0.58623731 0.2593067 0.050655913
0.5870502 0.25958908 0.051233508
0.5861038 0.0052357041 0.052113246
0.58609819 0.0060147778 0.052101552
0.58609259 0.006793852 0.052089855
0.58608699 0.0075729266 0.052078161
0.58689511 0.008377865 0.052649144
0.58688951 0.0091553461 0.052637473
0.58769768 0.0099555058 0.053208545
0.58769208 0.010731394 0.053196896
0.58768654 0.011507282 0.053185247
0.58768094 0.01228317 0.053173602
0.58848917 0.013075363 0.053744774
0.58848357 0.013849658 0.053733151
0.58847803 0.014623952 0.053721529
0.58847243 0.015398247 0.053709902
0.58846688 0.016172541 0.053698279
0.58846128 0.016946835 0.053686656
0.58845574 0.01772113 0.053675033
0.58926404 0.018500578 0.054246414
0.58844459 0.01926972 0.053651784
0.58843899 0.020044014 0.053640161
0.58843344 0.02081831 0.053628538
0.5884279 0.021592604 0.053616911
0.5884223 0.022366898 0.053605288
0.58841676 0.023141192 0.053593665
0.58922511 0.023909489 0.054165214
0.58840561 0.024689782 0.053570416
0.58840001 0.025464077 0.053558793
0.58839446 0.026238371 0.05354717
0.58838886 0.027012665 0.053535547
0.58838332 0.027786959 0.05352392
0.58837771 0.028561255 0.053512298
0.58837217 0.029335551 0.053500675
0.58836657 0.030109843 0.053489052
0.58917511 0.030863799 0.054060817
0.58916956 0.031636499 0.054049216
0.58916396 0.032409202 0.054037616
0.58915842 0.033181902 0.054026019
0.58915287 0.033954605 0.054014418
0.58914733 0.034727305 0.054002818
0.58914173 0.035500009 0.053991217
0.58913618 0.036272712 0.053979617
0.58913064 0.037045412 0.053968016
0.58912504 0.037818111 0.053956419
0.58911949 0.038590815 0.053944819
0.58911395 0.039363515 0.053933218
0.58910841 0.040136214 0.053921618
0.58828861 0.040949967 0.053326316
0.588283 0.041724261 0.053314693
0.58827746 0.042498559 0.05330307
0.58827186 0.043272849 0.053291447
0.58826631 0.044047147 0.053279821
0.58826071 0.044821441 0.053268198
0.58825517 0.045595735 0.053256575
0.58824956 0.046370029 0.053244952
0.58824402 0.047144324 0.053233325
0.58823848 0.047918618 0.053221703
0.58823287 0.048692916 0.05321008
0.58741295 0.049525782 0.05261451
0.58740741 0.050301671 0.052602861
0.5851441 0.25172943 0.048995916
0.5843212 0.25298131 0.048394058
0.58513296 0.25328436 0.048972573
0.58512735 0.25406185 0.048960902
0.58512175 0.25483933 0.04894923
0.58511615 0.25561681 0.048937559
0.58511055 0.2563943 0.048925888
0.58510494 0.25717178 0.048914216
0.58591682 0.25746369 0.049492918
0.58591121 0.25823957 0.049481273
0.58590567 0.25901547 0.049469624
0.58671749 0.25930104 0.050048403
0.58752942 0.25958341 0.05062725
0.58739966 0.0052622533 0.052085821
0.58739406 0.006039734 0.052074149
0.58738846 0.0068172151 0.052062478
0.58738285 0.0075946958 0.052050807
0.58737731 0.0083721774 0.052039135
0.58818448 0.0091739418 0.052611433
0.58817887 0.0099498294 0.052599784
0.58817327 0.010725718 0.052588139
0.58816773 0.011501606 0.05257649
0.58897495 0.012295404 0.053148892
0.58896935 0.013069699 0.053137265
0.58896381 0.013843993 0.053125642
0.5889582 0.014618287 0.053114019
0.58895266 0.015392582 0.053102396
0.58975995 0.016176822 0.053674955
0.5897544 0.016949523 0.053663354
0.58974886 0.017722225 0.053651758
0.58974326 0.018494925 0.053640157
0.58973771 0.019267628 0.053628556
0.58973217 0.020040328 0.053616956
0.58972663 0.020813029 0.053605355
0.58972102 0.021585731 0.053593758
0.58971548 0.022358432 0.053582158
0.58970994 0.023131134 0.053570557
0.58970433 0.023903836 0.053558957
0.58969879 0.024676535 0.053547356
0.58969325 0.025449239 0.053535756
0.58968771 0.026221938 0.053524159
0.5896821 0.02699464 0.053512558
0.58967656 0.027767342 0.053500958
0.58967102 0.028540043 0.053489357
0.58966541 0.029312745 0.053477757
0.58965987 0.030085446 0.05346616
0.58965433 0.030858146 0.053454559
0.58964878 0.031630848 0.053442959
0.58964318 0.032403551 0.053431358
0.58963764 0.033176251 0.053419758
0.59044522 0.033922251 0.053992875
0.59043968 0.03469336 0.0539813
0.59043407 0.035464473 0.053969726
0.59042853 0.036235578 0.053958148
0.59042299 0.037006687 0.053946573
0.59041744 0.037777796 0.053934995
0.5904119 0.038548902 0.053923421
0.58959317 0.039357863 0.053326961
0.58958763 0.040130563 0.05331536
0.58958203 0.040903263 0.05330376
0.58957648 0.041675966 0.053292159
0.58957094 0.04244867 0.053280558
0.58956534 0.043221369 0.053268962
0.58955979 0.043994069 0.053257361
0.58955425 0.044766773 0.053245761
0.58873534 0.045590069 0.052649066
0.5887298 0.046364367 0.052637443
0.58872426 0.047138661 0.05262582
0.58871865 0.047912952 0.052614193
0.58871311 0.048687249 0.052602571
0.58870751 0.049461544 0.052590948
0.58870196 0.050235841 0.052579325
0.5856263 0.25172374 0.048385911
0.5856207 0.25250122 0.048374239
0.5856151 0.25327867 0.048362564
0.58560956 0.25405616 0.048350893
0.58560395 0.25483364 0.048339222
0.58559835 0.25561112 0.04832755
0.58559275 0.2563886 0.048315879
0.58558714 0.25716609 0.048304208
0.58558154 0.25794357 0.048292536
0.5863924 0.2582339 0.048872512
0.58638686 0.25900978 0.048860863
0.58719772 0.25929537 0.049440894
0.58719212 0.26006967 0.049429271
0.58788747 0.0044790842 0.051487483
0.58788186 0.0052565653 0.051475812
0.58787626 0.0060340459 0.05146414
0.58787066 0.0068115271 0.051452469
0.58867681 0.0076164901 0.05202597
0.58867127 0.0083923778 0.052014321
0.58866566 0.0091682654 0.052002672
0.58947188 0.0099668549 0.052576251
0.58946627 0.01074115 0.052564628
0.58946073 0.011515444 0.052553006
0.58945513 0.012289738 0.052541379
0.58944958 0.013064033 0.052529756
0.59025586 0.013853064 0.053103495
0.59025031 0.014625765 0.053091899
0.59024471 0.015398467 0.053080298
0.59023917 0.016171169 0.053068697
0.59023362 0.01694387 0.053057097
0.59022808 0.017716572 0.053045496
0.59022248 0.018489271 0.053033896
0.59021693 0.019261975 0.053022299
0.59021139 0.020034675 0.053010698
0.59020579 0.020807376 0.052999098
0.59020025 0.021580078 0.052987497
0.5901947 0.022352779 0.052975897
0.59018916 0.023125481 0.0529643
0.59099555 0.023892205 0.053538356
0.59017801 0.024670882 0.052941099
0.59017247 0.025443586 0.052929498
0.59016693 0.026216285 0.052917898
0.59097338 0.026976639 0.053492051
0.59096783 0.027747747 0.053480476
0.59096229 0.028518856 0.053468898
0.59095675 0.029289965 0.053457323
0.59095114 0.030061072 0.053445745
0.5909456 0.030832181 0.053434171
0.59094006 0.031603288 0.053422596
0.59093451 0.032374397 0.053411018
0.59092897 0.033145506 0.053399444
0.59092343 0.033916611 0.053387865
0.59091789 0.03468772 0.053376291
0.59091234 0.035458829 0.053364716
0.5909068 0.036229938 0.053353138
0.59090126 0.037001044 0.053341564
0.59089571 0.037772153 0.053329986
0.59089017 0.038543262 0.053318411
0.59088457 0.039314371 0.053306837
0.59087902 0.040085476 0.053295258
0.59087348 0.040856585 0.053283684
0.59086794 0.041627694 0.053272106
0.59086239 0.042398803 0.053260531
0.59004456 0.043215714 0.0526627
0.59003901 0.043988418 0.0526511
0.59003347 0.044761118 0.052639499
0.59002793 0.045533817 0.052627902
0.59002233 0.046306521 0.052616302
0.59001678 0.047079224 0.052604701
0.58919889 0.047907285 0.052006684
0.58919328 0.048681587 0.051995061
0.59000009 0.049397327 0.052569903
0.58918214 0.050230175 0.051971812
0.58610851 0.25171804 0.047775898
0.5861029 0.25249553 0.047764227
0.5860973 0.25327301 0.047752555
0.5860917 0.25405049 0.047740884
0.58608609 0.25482795 0.047729213
0.58608055 0.25560543 0.047717541
0.58607495 0.25638291 0.04770587
0.58606935 0.25716043 0.047694199
0.58687919 0.25745234 0.0482754
0.58687359 0.25822824 0.048263755
0.58686805 0.25900412 0.048252106
0.5876779 0.25928971 0.048833385
0.58767235 0.26006401 0.048821762
0.58836961 0.0044733956 0.050877474
0.58836401 0.0052508772 0.050865803
0.5883584 0.0060283579 0.050854132
0.5891636 0.0068349261 0.051428858
0.589158 0.0076108137 0.051417209
0.58915246 0.0083867013 0.05140556
0.58995765 0.0091868956 0.051980369
0.58995205 0.0099611897 0.051968742
0.58994651 0.010735485 0.051957119
0.58994091 0.01150978 0.051945496
0.59074616 0.012302008 0.052520439
0.59074062 0.01307471 0.052508838
0.59073508 0.013847411 0.052497238
0.59072953 0.014620112 0.052485637
0.59072393 0.015392814 0.052474037
0.59071839 0.016165515 0.05246244
0.59071285 0.016938217 0.052450839
0.59151816 0.017717699 0.053025953
0.59151262 0.018488808 0.053014375
0.59150708 0.019259917 0.053002801
0.59150153 0.020031024 0.052991226
0.59149599 0.020802133 0.052979648
0.59149045 0.02157324 0.052968074
0.5914849 0.022344349 0.052956495
0.59147936 0.023115456 0.052944921
0.59147382 0.023886565 0.052933346
0.59146821 0.024657672 0.052921768
0.59146267 0.025428781 0.052910194
0.59145713 0.026199888 0.052898616
0.59145159 0.026970997 0.052887041
0.59144604 0.027742105 0.052875467
0.5914405 0.028513214 0.052863888
0.59143496 0.029284323 0.052852314
0.59142941 0.03005543 0.052840736
0.59142387 0.030826539 0.052829161
0.59141833 0.031597644 0.052817587
0.59141278 0.032368757 0.052806009
0.59140724 0.033139862 0.052794434
0.59140164 0.033910971 0.052782856
0.59139609 0.03468208 0.052771281
0.59139055 0.035453189 0.052759707
0.59138501 0.036224294 0.052748129
0.59137946 0.036995403 0.052736554
0.59137392 0.037766512 0.052724976
0.59136838 0.038537621 0.052713402
0.59136283 0.039308727 0.052701827
0.59135729 0.040079836 0.052690249
0.59135175 0.040850945 0.052678674
0.5913462 0.041622054 0.052667096
0.5913406 0.042393159 0.052655522
0.59133506 0.043164268 0.052643947
0.59132951 0.043935377 0.052632369
0.59132397 0.044706486 0.052620795
0.59131843 0.045477595 0.052609216
0.59050155 0.046300869 0.052010041
0.590496 0.047073569 0.051998444
0.59049046 0.047846269 0.051986843
0.59048486 0.048618976 0.051975243
0.59047931 0.049391676 0.051963642
0.58966237 0.050224509 0.051364306
0.48767775 0.13561665 -0.023270722
0.48767075 0.13659009 -0.023285335
0.48766375 0.13756353 -0.023299949
0.48765674 0.13853697 -0.023314562
0.58659071 0.25171235 0.047165889
0.58739948 0.25201544 0.047748175
0.58739388 0.25279135 0.047736529
0.5865739 0.2540448 0.047130875
0.5865683 0.25482228 0.047119204
0.58656269 0.25559974 0.047107533
0.58655709 0.25637722 0.047095861
0.58655155 0.25715473 0.04708419
0.58654594 0.25793222 0.047072519
0.58735484 0.25822255 0.047654994
0.58734924 0.25899842 0.047643345
0.58815813 0.25928402 0.048225876
0.58815253 0.26005834 0.048214253
0.58884621 0.0052451892 0.05025579
0.5888406 0.0060226698 0.050244119
0.58964479 0.0068292497 0.050820097
0.58963919 0.0076051373 0.050808448
0.59044343 0.0084069362 0.051384479
0.59043783 0.0091812313 0.051372856
0.59043229 0.0099555254 0.051361233
0.59123653 0.010750952 0.051937375
0.59123099 0.011523654 0.051925775
0.59122539 0.012296355 0.051914174
0.59121984 0.013069057 0.051902577
0.5912143 0.013841758 0.051890977
0.5920186 0.014627625 0.052467246
0.59201306 0.015398733 0.052455671
0.59200752 0.01616984 0.052444097
0.59200197 0.016940949 0.052432518
0.59199643 0.017712058 0.052420944
0.59199083 0.018483166 0.052409366
0.59198529 0.019254275 0.052397791
0.59197974 0.020025382 0.052386217
0.5919742 0.020796491 0.052374639
0.59196866 0.021567598 0.052363064
0.59196311 0.022338707 0.052351486
0.59195757 0.023109814 0.052339911
0.59195203 0.023880923 0.052328337
0.59194648 0.024652032 0.052316759
0.59194094 0.025423139 0.052305184
0.5919354 0.026194246 0.052293606
0.59192985 0.026965356 0.052282032
0.59192425 0.027736465 0.052270457
