# .PCD v0.7 - Point Cloud Data file format
VERSION 0.7
FIELDS x y z
SIZE 4 4 4
TYPE F F F
COUNT 1 1 1
WIDTH 1336
HEIGHT 1
VIEWPOINT 0 0 0 1 0 0 0
POINTS 1336
DATA ascii
0.64949095 -0.044086844 0.050517794
0.64948589 -0.043384239 0.050507244
0.65023935 -0.042537238 0.051146358
0.65023434 -0.041836228 0.051135834
0.65022928 -0.041135225 0.05112531
0.65022427 -0.040434215 0.051114786
0.6502192 -0.039733209 0.051104262
0.65021414 -0.039032202 0.051093739
0.65096772 -0.038196348 0.051733036
0.65096271 -0.037496936 0.051722538
0.65095764 -0.036797516 0.051712036
0.65095264 -0.036098104 0.051701538
0.65170628 -0.035270222 0.052340936
0.65170121 -0.034572404 0.05233046
0.65169621 -0.033874582 0.052319985
0.6516912 -0.033176761 0.052309509
0.65168619 -0.032478936 0.052299034
0.65168113 -0.031781118 0.052288558
0.65091741 -0.031202205 0.051628038
0.6509124 -0.030502789 0.05161754
0.65090734 -0.029803379 0.051607039
0.65014356 -0.029218098 0.050946407
0.6501385 -0.028517092 0.050935883
0.64937466 -0.027927028 0.050275199
0.6493696 -0.027224429 0.050264653
0.64860576 -0.026629588 0.049603876
0.6486007 -0.025925392 0.049593303
0.6478368 -0.025325768 0.048932474
0.64707285 -0.024722964 0.048271582
0.6463089 -0.024116969 0.047610659
0.64554495 -0.023507787 0.046949685
0.64553982 -0.022797223 0.046939019
0.64477581 -0.022183266 0.046277955
0.6440118 -0.021566117 0.045616865
0.64324772 -0.020945784 0.044955704
0.64248365 -0.020322263 0.044294517
0.64171958 -0.019695561 0.043633264
0.64095545 -0.019065669 0.04297198
0.64019132 -0.018432589 0.042310651
0.64018613 -0.017710868 0.042299815
0.63942194 -0.017073015 0.041638393
0.63865775 -0.016431971 0.040976945
0.63789356 -0.015787737 0.040315427
0.63712931 -0.015140321 0.039653879
0.636365 -0.014489718 0.038992267
0.63635975 -0.013760035 0.038981315
0.6355955 -0.01310465 0.038319647
0.63483113 -0.012446081 0.037657935
0.63406682 -0.011784324 0.036996156
0.63330245 -0.011119382 0.036334347
0.63253802 -0.010451256 0.035672467
0.63177365 -0.0097799394 0.035010565
0.63100916 -0.0091054384 0.034348592
0.63100386 -0.0083646011 0.034337472
0.63023937 -0.0076853205 0.033675447
0.62947488 -0.0070028533 0.033013374
0.62871039 -0.0063171983 0.032351237
0.62794584 -0.0056283581 0.031689066
0.62718123 -0.0049363337 0.031026833
0.62717587 -0.004187529 0.031015592
0.62641126 -0.0034907216 0.030353304
0.62564665 -0.0027907318 0.029690949
0.62488198 -0.0020875512 0.029028567
0.62411731 -0.0013811864 0.028366117
0.62335265 -0.00067163457 0.027703639
0.62258792 4.1103787e-05 0.027041111
0.62182319 0.00075702823 0.026378518
0.6210584 0.0014761387 0.025715897
0.62029362 0.0021984363 0.025053207
0.61952883 0.0029239198 0.024390489
0.61952335 0.003688656 0.024379008
0.6187585 0.0044189179 0.023716198
0.61799365 0.005152368 0.023053361
0.61798811 0.00592029 0.023041833
0.6172232 0.0066585192 0.022378925
0.6164583 0.0073999348 0.021715948
0.61645275 0.0081710424 0.021704372
0.61568779 0.0089172386 0.021041343
0.61492282 0.0096666198 0.020378247
0.6141578 0.010419188 0.019715123
0.61415225 0.011195076 0.019703476
0.61338717 0.011952423 0.01904026
0.64092451 -0.058132406 0.042340294
0.64167666 -0.057237603 0.042979933
0.64242887 -0.056345981 0.043619629
0.64318109 -0.055457547 0.044259388
0.6431759 -0.0547406 0.044248622
0.64392817 -0.05385695 0.044888433
0.64468044 -0.05297647 0.045528315
0.64543271 -0.052099187 0.046168219
0.64618504 -0.051225085 0.046808194
0.64693737 -0.050354172 0.047448196
0.64693224 -0.0496452 0.047437552
0.64768463 -0.048779067 0.048077628
0.64843702 -0.047916122 0.048717771
0.6484319 -0.047210328 0.048707176
0.64918435 -0.04635217 0.049347367
0.64917928 -0.045647971 0.049336798
0.64993173 -0.044794578 0.049977083
0.64992666 -0.044091981 0.049966533
0.65067917 -0.043243375 0.050606873
0.6506741 -0.042542368 0.050596349
0.6506691 -0.041841358 0.050585825
0.65066403 -0.041140355 0.050575301
0.65065902 -0.040439345 0.050564777
0.65141159 -0.039600294 0.051205277
0.65140653 -0.038900882 0.05119478
0.65140152 -0.038201466 0.051184278
0.65139645 -0.037502054 0.05117378
0.65139145 -0.036802635 0.051163279
0.65214407 -0.035973147 0.051803906
0.65213901 -0.035275325 0.05179343
0.652134 -0.034577508 0.051782954
0.65212899 -0.033879686 0.051772479
0.65212399 -0.033181865 0.051762
0.65211898 -0.032484043 0.051751524
0.65135622 -0.031906739 0.051089782
0.65135115 -0.031207323 0.051079281
0.65134615 -0.030507907 0.051068783
0.65134114 -0.029808495 0.051058281
0.65057832 -0.029223226 0.050396401
0.65057325 -0.02852222 0.050385877
0.64981043 -0.027932169 0.049723942
0.64980537 -0.027229568 0.049713392
0.64904249 -0.026634738 0.049051367
0.64827961 -0.026036721 0.048389316
0.64751667 -0.025435517 0.04772719
0.64675373 -0.024831129 0.047065042
0.6467486 -0.024122156 0.047054399
0.6459856 -0.023512986 0.046392176
0.6452226 -0.022900634 0.045729887
0.64445961 -0.022285091 0.045067571
0.64369655 -0.021666367 0.044405185
0.64293349 -0.021044446 0.043742772
0.64217037 -0.02041935 0.043080293
0.64140725 -0.019791063 0.042417783
0.64140207 -0.019070938 0.042406972
0.64063895 -0.018437868 0.041744392
0.63987577 -0.01780162 0.041081741
0.63911253 -0.017162178 0.040419068
0.63834929 -0.016519554 0.039756324
0.63834411 -0.015793053 0.039745416
0.63758087 -0.015145648 0.03908262
0.63681757 -0.014495056 0.038419757
0.63605428 -0.013841278 0.037756868
0.63529092 -0.013184313 0.037093926
0.63452756 -0.012524164 0.036430921
0.63452232 -0.011789698 0.036419895
0.6337589 -0.011124767 0.035756838
0.63299549 -0.010456653 0.03509371
0.63223207 -0.0097853476 0.034430556
0.63146865 -0.0091108577 0.033767335
0.63070518 -0.0084331818 0.033104084
0.6299417 -0.0077523203 0.032440785
0.62917817 -0.0070682727 0.031777419
0.6291728 -0.006322653 0.031766228
0.62840921 -0.0056338245 0.031102808
0.62764567 -0.0049418118 0.030439323
0.62688208 -0.0042466084 0.029775811
0.62611842 -0.0035482226 0.029112229
0.62535477 -0.0028466478 0.028448621
0.62459111 -0.0021418887 0.027784945
0.6238274 -0.00143394 0.02712124
0.62306374 -0.00072280661 0.026457489
0.62229997 -8.4880421e-06 0.025793666
0.6215362 0.00070901943 0.025129819
0.62153071 0.0014705672 0.025118386
0.62076694 0.002192853 0.024454448
0.6200031 0.0029183251 0.023790479
0.61923927 0.0036469831 0.023126444
0.61847544 0.0043788282 0.022462381
0.61846989 0.0051467498 0.022450853
0.617706 0.0058833747 0.021786718
0.61694205 0.0066231848 0.021122515
0.6169365 0.0073942933 0.021110939
0.61617255 0.0081388839 0.020446684
0.6154086 0.0088866604 0.019782363
0.615403 0.0096609546 0.019770738
0.61463898 0.010413512 0.019106364
0.61387497 0.011169254 0.018441923
0.61386937 0.011946735 0.01843025
0.6131053 0.012707258 0.017765757
0.64287966 -0.057069767 0.043066654
0.64363086 -0.056179721 0.043707639
0.64362574 -0.055462793 0.043696877
0.64437693 -0.054577526 0.044337913
0.64512306 -0.052981693 0.044968303
0.64587438 -0.052104399 0.045609459
0.64738214 -0.051068332 0.046902582
0.64737707 -0.050359361 0.046891939
0.64812839 -0.049491622 0.04753324
0.64812332 -0.048784245 0.047522619
0.6488747 -0.047921285 0.04816401
0.64886963 -0.047215492 0.048153415
0.64962107 -0.046357322 0.048794862
0.65037256 -0.045502324 0.049436372
0.6503675 -0.044799719 0.049425822
0.65036243 -0.044097122 0.049415275
0.65111393 -0.043248501 0.050056864
0.65110886 -0.042547494 0.05004634
0.65110385 -0.041846484 0.050035816
0.65185541 -0.041004241 0.050677519
0.65185034 -0.040304825 0.050667018
0.65184534 -0.039605409 0.05065652
0.65184033 -0.038905997 0.050646022
0.65183526 -0.038206581 0.05063552
0.65183026 -0.037507169 0.050625023
0.65182519 -0.036807749 0.050614521
0.65257686 -0.035978254 0.051256396
0.6525718 -0.035280433 0.05124592
0.65256679 -0.034582615 0.051235445
0.65256178 -0.03388479 0.051224969
0.65255678 -0.033186968 0.051214494
0.65179503 -0.03261127 0.050551523
0.65178996 -0.031911854 0.050541025
0.65178496 -0.03121244 0.050530523
0.65177989 -0.030513024 0.050520025
0.65101808 -0.02992936 0.049856916
0.65101308 -0.029228356 0.049846392
0.65025121 -0.028639909 0.049183231
0.65024614 -0.02793731 0.049172681
0.64948428 -0.027344085 0.04850943
0.64872235 -0.026747672 0.04784615
0.64871728 -0.026041884 0.047835555
0.64795536 -0.025440693 0.047172185
0.64719337 -0.024836317 0.046508782
0.64643145 -0.024228752 0.045845333
0.6456694 -0.023618003 0.045181818
0.64490741 -0.023004064 0.044518277
0.64414531 -0.022386948 0.043854665
0.64338326 -0.021766637 0.043191027
0.64337808 -0.021049691 0.043180265
0.64261597 -0.020424606 0.042516533
0.64185387 -0.019796332 0.041852776
0.6410917 -0.01916487 0.041188966
0.64032954 -0.018530222 0.040525094
0.63956738 -0.017892385 0.039861191
0.63880509 -0.017251369 0.039197221
0.63879991 -0.016524868 0.039186317
0.63803762 -0.015879065 0.038522292
0.63727534 -0.01523008 0.037858203
0.63651305 -0.014577906 0.037194088
0.63650781 -0.013846628 0.03718311
0.63574547 -0.013189675 0.03651892
0.63498306 -0.012529537 0.03585466
0.63422072 -0.011866209 0.035190377
0.63345832 -0.011199701 0.034526024
0.63269585 -0.010530001 0.033861645
0.63193339 -0.0098571172 0.033197194
0.63117093 -0.0091810441 0.032532718
0.63116562 -0.0084386133 0.032521576
0.6304031 -0.0077577634 0.031857025
0.62964058 -0.0070737279 0.031192413
0.628878 -0.0063865012 0.030527769
0.62811542 -0.0056960927 0.029863056
0.62735283 -0.0050024968 0.029198317
0.62659019 -0.0043057133 0.028533509
0.62658477 -0.0035537241 0.028522221
0.62582213 -0.0028521609 0.027857361
0.62505943 -0.0021474138 0.027192436
0.62429678 -0.0014394766 0.026527481
0.62353402 -0.00072835485 0.02586248
0.62277126 -1.4047948e-05 0.025197409
0.6220085 0.00070344785 0.024532311
0.62124568 0.0014241269 0.023867145
0.62048292 0.0021479949 0.02320195
0.61972004 0.002875048 0.022536689
0.61895716 0.0036052882 0.021871401
0.61895168 0.00437321 0.021859873
0.6181888 0.0051082298 0.021194512
0.61742586 0.0058464352 0.020529082
0.61742032 0.0066175433 0.020517506
0.61665738 0.0073605292 0.019852025
0.61589438 0.0081067001 0.019186476
0.61588877 0.0088809952 0.019174853
0.61588323 0.0096552894 0.019163229
0.61512017 0.010407835 0.018497605
0.61435711 0.011163566 0.017831914
0.61359406 0.011922483 0.017166194
0.61358845 0.012701558 0.017154498
0.61282539 0.013465255 0.016488707
0.64332527 -0.057075027 0.042502899
0.64407551 -0.056184966 0.043145131
0.64482576 -0.055298109 0.043787394
0.645576 -0.054414418 0.044429727
0.64557087 -0.053700671 0.044419009
0.64632118 -0.052821763 0.045061395
0.64707148 -0.051946051 0.045703843
0.64782184 -0.051073521 0.046346322
0.64857221 -0.050204176 0.046988849
0.64856708 -0.0494968 0.046978232
0.6493175 -0.048632231 0.047620848
0.64931244 -0.047926448 0.047610253
0.65006286 -0.047066662 0.048252922
0.65005779 -0.046362475 0.048242353
0.65080827 -0.045507465 0.048885114
0.65080321 -0.04480486 0.048874564
0.65155375 -0.043954641 0.049517378
0.65154868 -0.04325363 0.049506854
0.65154362 -0.042552624 0.04949633
0.65229422 -0.041708771 0.05013926
0.65228915 -0.041009359 0.050128762
0.65228415 -0.040309943 0.05011826
0.65227908 -0.039610527 0.050107762
0.65227407 -0.038911115 0.050097261
0.65226907 -0.0382117 0.050086763
0.65301967 -0.037379 0.050729841
0.65301466 -0.036681179 0.050719365
0.65300959 -0.035983358 0.050708886
0.65300459 -0.035285536 0.050698411
0.65299958 -0.034587719 0.050687935
0.65299457 -0.033889897 0.05067746
0.65223384 -0.0333158 0.050013263
0.65222877 -0.032616388 0.050002765
0.65222377 -0.031916972 0.049992263
0.6522187 -0.031217556 0.049981765
0.65145791 -0.030635497 0.049317431
0.65145284 -0.02993449 0.049306907
0.65069199 -0.029347647 0.04864252
0.65068698 -0.02864505 0.048631974
0.64992607 -0.028053433 0.047967494
0.64916515 -0.027458621 0.047302987
0.64916009 -0.026752837 0.047292393
0.64839917 -0.026153252 0.046627793
0.6476382 -0.025550477 0.045963168
0.64687723 -0.024944518 0.045298494
0.6461162 -0.024335375 0.044633754
0.64535517 -0.02372304 0.043968983
0.64535004 -0.023009287 0.043958269
0.64458901 -0.02239218 0.043293405
0.64382792 -0.021771882 0.042628519
0.64306676 -0.021148395 0.041963562
0.64230567 -0.020521725 0.041298576
0.64154452 -0.019891869 0.040633544
0.64078331 -0.019258827 0.039968446
0.64077812 -0.018535513 0.039957587
0.64001691 -0.01789769 0.039292432
0.6392557 -0.017256685 0.038627215
0.63849443 -0.016612487 0.037961967
0.63773316 -0.015965104 0.037296649
0.63772786 -0.015235418 0.037285697
0.63696659 -0.014583256 0.036620326
0.63620526 -0.013927909 0.035954911
0.63544387 -0.013269375 0.035289429
0.63468248 -0.012607655 0.034623917
0.63467723 -0.011871594 0.034612868
0.63391578 -0.011205097 0.033947267
0.63315433 -0.010535409 0.033281635
0.63239288 -0.0098625375 0.032615937
0.63163137 -0.0091864765 0.031950213
0.63086993 -0.0085072285 0.031284437
0.63010836 -0.007824799 0.030618595
0.62934679 -0.0071391803 0.029952725
0.62934142 -0.0063919681 0.029941509
0.62857985 -0.0057015712 0.029275548
0.62781823 -0.0050079869 0.028609557
0.6270566 -0.0043112147 0.027943501
0.62629491 -0.0036112575 0.027277416
0.62553322 -0.0029081143 0.026611263
0.62477154 -0.0022017839 0.025945082
0.62400985 -0.0014922653 0.025278855
0.62324804 -0.00077956333 0.024612557
0.62248629 -6.367336e-05 0.023946233
0.62172449 0.00065540173 0.023279842
0.62096268 0.0013776647 0.022613421
0.6209572 0.0021424 0.022601942
0.62019533 0.0028694414 0.021935429
0.61943346 0.00359967 0.021268891
0.61867154 0.0043330849 0.020602303
0.61866599 0.0051026 0.020590751
0.61790407 0.0058407937 0.019924073
0.61789852 0.0066119018 0.019912496
0.61713654 0.007354876 0.019245766
0.61637455 0.0081010358 0.018578969
0.61561257 0.0088503826 0.01791214
0.61560696 0.0096262703 0.017900493
0.61484492 0.010380397 0.017233575
0.61408287 0.01113771 0.01656663
0.61407727 0.011916784 0.016554935
0.61331517 0.012678877 0.015887916
0.612553 0.013444155 0.01522083
0.6117909 0.01421262 0.014553717
0.64453048 -0.057624094 0.042604148
0.64452529 -0.056907155 0.042593386
0.64527452 -0.05601868 0.043236874
0.64602381 -0.055133399 0.043880429
0.64601868 -0.05441964 0.043869715
0.64676797 -0.053539142 0.044513326
0.64676285 -0.052826975 0.044502635
0.6475122 -0.051951248 0.045146335
0.64826155 -0.051078707 0.045790065
0.6490109 -0.050209355 0.04643384
0.64900583 -0.049501974 0.046423223
0.64975524 -0.048637394 0.047067087
0.64975017 -0.047931612 0.047056492
0.65049958 -0.047071815 0.047700413
0.65124911 -0.046215206 0.0483444
0.65124404 -0.045512605 0.048333853
0.65123898 -0.044810001 0.048323307
0.65198851 -0.04395977 0.048967369
0.65198344 -0.04325876 0.048956845
0.65197837 -0.042557754 0.048946325
0.65272796 -0.041713886 0.049590502
0.65272295 -0.041014474 0.04958
0.65271789 -0.040315058 0.049569502
0.65271288 -0.039615642 0.049559001
0.65270782 -0.03891623 0.049548503
0.65345746 -0.038081929 0.050192803
0.65345246 -0.037384108 0.050182328
0.65344739 -0.036686286 0.050171852
0.65344238 -0.035988465 0.050161377
0.65343738 -0.03529064 0.050150901
0.65343237 -0.034592822 0.050140426
0.65267259 -0.034020331 0.049475003
0.65266758 -0.033320919 0.049464505
0.65266258 -0.032621507 0.049454004
0.65265751 -0.031922091 0.049443506
0.65189767 -0.031341631 0.048777945
0.65189266 -0.030640624 0.048767421
0.6518876 -0.029939618 0.048756897
0.65112776 -0.029352786 0.048091259
0.65036786 -0.028762775 0.047425557
0.65036279 -0.028058585 0.047414985
0.64960289 -0.027463784 0.046749227
0.64884293 -0.02686581 0.046083406
0.64808297 -0.026264638 0.045417551
0.64807791 -0.025555665 0.045406908
0.64731789 -0.024949716 0.044740986
0.64655787 -0.024340585 0.044074994
0.64579785 -0.023728261 0.043408971
0.64503777 -0.023112757 0.042742886
0.64427769 -0.022494063 0.04207677
0.64351755 -0.021872189 0.041410588
0.64275748 -0.021247119 0.040744375
0.64275229 -0.020526994 0.040733565
0.64199209 -0.019897148 0.040067282
0.64123189 -0.019264119 0.039400935
0.6404717 -0.018627897 0.038734555
0.63971144 -0.017988494 0.038068108
0.63970625 -0.017261999 0.038057204
0.638946 -0.016617814 0.037390705
0.63818568 -0.015970442 0.036724139
0.63742536 -0.015319885 0.036057547
0.63666505 -0.01466614 0.035390906
0.63665974 -0.01393327 0.035379902
0.63589936 -0.013274748 0.034713168
0.63513899 -0.012613039 0.034046408
0.63437855 -0.011948144 0.033379581
0.63361812 -0.011280061 0.032712724
0.63285768 -0.010608794 0.0320458
0.63209718 -0.0099343397 0.031378847
0.63209182 -0.0091919079 0.031367701
0.63133132 -0.008512672 0.030700678
0.63057077 -0.0078302538 0.030033585
0.62981021 -0.0071446467 0.029366465
0.6290496 -0.0064558517 0.028699277
0.62828898 -0.0057638716 0.028032063
0.62752837 -0.0050687073 0.027364779
0.62676769 -0.0043703523 0.026697468
0.62676227 -0.003616771 0.026686156
0.6260016 -0.0029136392 0.026018752
0.62524086 -0.0022073206 0.025351323
0.62448013 -0.0014978136 0.024683844
0.62371939 -0.00078512321 0.024016298
0.6229586 -6.9244947e-05 0.023348723
0.62219781 0.00064981851 0.022681082
0.62143695 0.0013720698 0.022013413
0.6206761 0.0020975063 0.021345675
0.61991525 0.00282613 0.020677909
0.6199097 0.0035940518 0.020666379
0.61914879 0.0043274551 0.019998543
0.61838788 0.0050640446 0.019330639
0.61838228 0.0058351522 0.019319063
0.61762136 0.0065765218 0.018651105
0.61686033 0.0073210765 0.017983081
0.61685479 0.0080953706 0.017971458
0.61609375 0.0088447062 0.017303381
0.61533272 0.0095972279 0.016635237
0.61532712 0.010374709 0.016623566
0.61456603 0.01113201 0.01595537
0.61380494 0.011892498 0.015287125
0.61379933 0.012673165 0.015275406
0.61303818 0.013438432 0.01460707
0.61227703 0.014206885 0.013938706
0.61076027 0.014966311 0.012613632
0.64572334 -0.056739263 0.042686354
0.64647162 -0.055852368 0.043331139
0.64721477 -0.054256506 0.043965258
0.64720964 -0.053544354 0.043954566
0.64795798 -0.052667007 0.044599496
0.64870632 -0.051792867 0.045244448
0.64945471 -0.050921906 0.045889452
0.64944959 -0.050214529 0.045878831
0.65019804 -0.049348351 0.046523925
0.65019298 -0.048642557 0.04651333
0.65094137 -0.047781162 0.047158476
0.65093631 -0.047076967 0.047147907
0.65168482 -0.046220344 0.047793142
0.65167975 -0.045517746 0.047782596
0.65242827 -0.044665899 0.048427884
0.65242326 -0.043964896 0.04841736
0.6524182 -0.043263886 0.048406836
0.65316677 -0.04241842 0.049052242
0.6531617 -0.041719005 0.049041744
0.6531567 -0.041019592 0.049031243
0.65315169 -0.040320177 0.049020745
0.65390027 -0.039482675 0.049666248
0.65389526 -0.038784854 0.049655773
0.65389025 -0.038087033 0.049645297
0.65388519 -0.037389211 0.049634822
0.65388018 -0.03669139 0.049624346
0.65387517 -0.035993569 0.049613871
0.65387017 -0.035295747 0.049603395
0.65386516 -0.03459793 0.04959292
0.65310639 -0.034025449 0.048926245
0.65310133 -0.033326034 0.048915748
0.65309632 -0.032626621 0.048905246
0.65309125 -0.031927206 0.048894748
0.65233243 -0.031346761 0.048227936
0.65232742 -0.030645754 0.048217412
0.65156853 -0.030060528 0.047550548
0.65156353 -0.029357927 0.047540002
0.65080458 -0.028767927 0.046873048
0.65004569 -0.028174737 0.046206065
0.65004063 -0.027468948 0.04619547
0.64928168 -0.026870985 0.045528397
0.64852268 -0.026269823 0.044861294
0.64776373 -0.025665479 0.044194143
0.64700466 -0.025057953 0.043526925
0.64624566 -0.024447236 0.042859681
0.64548659 -0.023833336 0.042192366
0.64472747 -0.023216249 0.041525025
0.64472234 -0.022499308 0.041514263
0.64396322 -0.021877447 0.040846828
0.64320409 -0.021252388 0.040179368
0.64244491 -0.020624144 0.039511859
0.64168572 -0.01999272 0.038844284
0.64092648 -0.019358108 0.038176678
0.64092129 -0.0186332 0.038165797
0.64016205 -0.01799381 0.037498102
0.63940275 -0.017351234 0.036830377
0.63864344 -0.016705468 0.036162585
0.63788414 -0.016056513 0.035494767
0.63787889 -0.015325235 0.035483789
0.63711953 -0.014671502 0.034815896
0.63636017 -0.014014586 0.034147937
0.63560081 -0.01335448 0.033479951
0.63484138 -0.012691193 0.032811895
0.63483608 -0.011953541 0.03280082
0.6340766 -0.011285469 0.032132715
0.63331711 -0.010614214 0.031464539
0.63255763 -0.0099397711 0.030796338
0.63179809 -0.009262139 0.030128088
0.63103855 -0.0085813245 0.029459771
0.630279 -0.0078973221 0.028791424
0.6295194 -0.0072101345 0.02812301
0.62951404 -0.0064613302 0.028111769
0.62875438 -0.0057693617 0.027443305
0.62799472 -0.0050742091 0.026774772
0.62723505 -0.0043758657 0.026106209
0.62647539 -0.0036743397 0.02543758
0.62571567 -0.0029696252 0.024768924
0.62495595 -0.002261726 0.02410022
0.62419617 -0.0015506386 0.023431448
0.62343639 -0.00083636522 0.022762647
0.62267655 -0.00011890672 0.022093778
0.62191671 0.00060173974 0.021424884
0.62191123 0.001366475 0.021413403
0.62115139 0.0020918997 0.020744415
0.62039149 0.0028205118 0.020075399
0.61963159 0.0035523111 0.019406335
0.61962605 0.0043218252 0.019394783
0.61886609 0.0050584031 0.01872563
0.61810613 0.0057981671 0.018056447
0.61810058 0.0065708687 0.018044846
0.61734056 0.0073154117 0.017375572
0.61658055 0.0080631422 0.016706269
0.61657494 0.0088390298 0.016694622
0.61581486 0.0095915394 0.016025227
0.61505479 0.010347236 0.015355806
0.61504918 0.011126311 0.01534411
0.6142891 0.011886786 0.014674615
0.61352891 0.012650448 0.014005054
0.6135233 0.013432709 0.013993311
0.61200857 0.014187331 0.012665807
0.61049384 0.014948327 0.011338208
0.64691943 -0.056571346 0.042781845
0.64691424 -0.055857588 0.042771131
0.64766157 -0.054973878 0.043417189
0.64765644 -0.054261718 0.043406501
0.64840376 -0.05338278 0.044052653
0.6483987 -0.052672207 0.044041988
0.64914602 -0.051798053 0.044688191
0.6498934 -0.050927084 0.045334443
0.65064085 -0.050059292 0.045980763
0.65063578 -0.049353514 0.045970168
0.65063065 -0.04864772 0.045959573
0.65137815 -0.047786314 0.046605967
0.6521256 -0.046928085 0.047252432
0.65212059 -0.046225484 0.047241885
0.65211552 -0.045522884 0.047231335
0.65286303 -0.044671029 0.047877878
0.65285796 -0.043970026 0.047867354
0.65360558 -0.043122947 0.048513982
0.65360051 -0.042423535 0.048503485
0.65359551 -0.041724119 0.048492983
0.65359044 -0.041024711 0.048482485
0.65433806 -0.040185601 0.049129214
0.65433306 -0.039487783 0.049118739
0.65432805 -0.038789961 0.049108263
0.65432304 -0.03809214 0.049097788
0.65431798 -0.037394319 0.049087312
0.65431297 -0.036696494 0.049076837
0.65430796 -0.035998672 0.049066361
0.65430295 -0.035300851 0.049055886
0.65429789 -0.034603033 0.04904541
0.65354013 -0.034030568 0.048377488
0.65353513 -0.033331152 0.048366986
0.65353006 -0.03263174 0.048356488
0.65352505 -0.031932324 0.048345987
0.65276718 -0.031351887 0.047677927
0.65200937 -0.030768268 0.047009841
0.6520043 -0.030065669 0.046999291
0.65124637 -0.029477274 0.046331111
0.6504885 -0.028885687 0.045662902
0.65048343 -0.028179901 0.045652308
0.64972544 -0.027583539 0.044984005
0.6489675 -0.026983984 0.044315677
0.64820951 -0.026381245 0.043647304
0.64745146 -0.025775323 0.042978857
0.64669347 -0.02516621 0.042310387
0.64668828 -0.024452457 0.042299673
0.64593023 -0.02383857 0.04163111
0.64517212 -0.023221495 0.040962517
0.64441401 -0.022601234 0.040293857
0.64365584 -0.021977786 0.039625172
0.64289773 -0.021351146 0.038956437
0.64213949 -0.020721324 0.038287632
0.64213431 -0.019998012 0.038276777
0.64137608 -0.019363413 0.037607919
0.64061785 -0.018725622 0.036938999
0.63985956 -0.018084649 0.036270048
0.63985431 -0.01735656 0.036259118
0.63909602 -0.016710807 0.035590075
0.63833767 -0.016061863 0.034921009
0.63757932 -0.015409735 0.034251891
0.63757408 -0.014676863 0.034240887
0.63681567 -0.014019959 0.033571679
0.63605726 -0.013359866 0.032902442
0.63529885 -0.01269659 0.032233138
0.63454038 -0.012030122 0.031563804
0.63378191 -0.011360471 0.030894404
0.63302344 -0.010687632 0.030224975
0.63301808 -0.0099452026 0.030213829
0.63225955 -0.0092675826 0.029544329
0.63150096 -0.0085867802 0.02887476
0.63074243 -0.0079027889 0.028205166
0.62998378 -0.007215613 0.027535502
0.62922519 -0.0065252483 0.02686581
0.62846655 -0.0058316998 0.026196051
0.62770784 -0.0051349639 0.025526265
0.62770241 -0.0043813791 0.025514951
0.62619042 -0.0037319316 0.024186527
0.626185 -0.0029751619 0.024175165
0.62542623 -0.0022672741 0.023505211
0.62466747 -0.0015561985 0.022835188
0.6239087 -0.0008419368 0.022165136
0.62314987 -0.00012448993 0.02149502
0.62239105 0.00059614482 0.020824874
0.62163216 0.0013199638 0.020154661
0.62087327 0.0020469727 0.019484419
0.62086773 0.0028148936 0.019472891
0.62010884 0.0035466813 0.018802578
0.61934984 0.0042816531 0.018132195
0.61934429 0.0050527616 0.01812062
0.61858535 0.005792514 0.017450187
0.61782634 0.0065354523 0.016779687
0.61782074 0.0073097469 0.016768062
0.61706173 0.0080574658 0.01609751
0.61630267 0.0088083707 0.015426891
0.61629707 0.0095858518 0.015415219
0.615538 0.010341536 0.014744546
0.61477888 0.011100408 0.014073826
0.61401969 0.011862464 0.013403038
0.61401409 0.012644725 0.013391295
0.6132549 0.013411562 0.012720456
0.61174214 0.014167755 0.011390428
0.61022937 0.01493032 0.010060305
0.64736205 -0.056576569 0.042221837
0.64810836 -0.055691242 0.042869125
0.64810324 -0.05497909 0.042858433
0.64884961 -0.054098539 0.04350581
0.64884448 -0.053387981 0.043495145
0.64959085 -0.052512214 0.044142574
0.65033722 -0.051639646 0.044790056
0.65033209 -0.050932258 0.044779435
0.65107858 -0.050064456 0.045427006
0.65107346 -0.049358677 0.045416411
0.65181994 -0.048495658 0.04606403
0.65181488 -0.047791466 0.046053462
0.65256137 -0.046933226 0.046701174
0.6525563 -0.046230625 0.046690624
0.65330285 -0.045377169 0.047338393
0.65329778 -0.044676159 0.047327869
0.65329272 -0.043975156 0.047317345
0.65403932 -0.043128066 0.047965225
0.65403432 -0.042428654 0.047954727
0.65402925 -0.041729238 0.047944225
0.65477586 -0.040888529 0.048592184
0.65477085 -0.040190704 0.048581708
0.65476584 -0.039492887 0.048571233
0.65476084 -0.038795065 0.048560757
0.6555075 -0.037962317 0.049208853
0.6555025 -0.037266091 0.0491984
0.65474576 -0.036701601 0.048529331
0.65474075 -0.03600378 0.048518855
0.65473568 -0.035305958 0.04850838
0.65473068 -0.034608141 0.0484979
0.65472567 -0.033910319 0.048487425
0.65396887 -0.033336267 0.047818229
0.65396386 -0.032636855 0.047807731
0.653207 -0.03205803 0.047138441
0.65320194 -0.031357016 0.047127917
0.65244508 -0.030773409 0.04645858
0.65244001 -0.030070808 0.046448033
0.65168315 -0.029482426 0.045778602
0.65092623 -0.02889085 0.045109145
0.65016925 -0.028296094 0.044439618
0.64941227 -0.027698144 0.043770064
0.6486553 -0.027097011 0.043100461
0.64865017 -0.026386444 0.043089792
0.64789313 -0.025780533 0.0424201
0.64713609 -0.025171433 0.041750379
0.64637899 -0.024559151 0.04108059
0.6456219 -0.023943678 0.040410772
0.6448648 -0.023325022 0.039740887
0.64485961 -0.022606492 0.039730098
0.64410245 -0.021983054 0.039060164
0.6433453 -0.021356424 0.038390178
0.64258808 -0.020726616 0.037720125
0.64183086 -0.02009362 0.037050046
0.64107358 -0.019457437 0.036379896
0.6410684 -0.018730938 0.036368988
0.64031112 -0.018089976 0.03569879
0.63955379 -0.017445829 0.035028521
0.63879651 -0.016798494 0.034358226
0.6387912 -0.016067212 0.034347247
0.63803387 -0.015415097 0.033676881
0.63727647 -0.014759797 0.033006445
0.63651907 -0.014101309 0.032335982
0.63576162 -0.013439638 0.031665452
0.63500416 -0.012774775 0.030994892
0.63424671 -0.012106729 0.030324267
0.63424134 -0.011365891 0.030313145
0.63348389 -0.010693064 0.029642465
0.63272631 -0.010017051 0.028971739
0.63196874 -0.0093378508 0.028300945
0.63121122 -0.0086554652 0.027630124
0.63045359 -0.0079698954 0.026959235
0.62969595 -0.0072811372 0.026288318
0.62969059 -0.0065307384 0.026277052
0.62893289 -0.0058372011 0.025606044
0.6281752 -0.0051404773 0.024935005
0.6274175 -0.0044405651 0.0242639
0.62665981 -0.0037374683 0.023592766
0.62590206 -0.0030311844 0.022921586
0.62514424 -0.0023217148 0.022250338
0.62438649 -0.0016090571 0.021579061
0.62362862 -0.00089321512 0.020907717
0.6228708 -0.00017418622 0.020236345
0.62286532 0.00059054996 0.020224866
0.62210739 0.0013143573 0.019553401
0.62134951 0.0020413545 0.01888191
0.62059158 0.0027715354 0.01821037
0.61983365 0.0035049033 0.017538764
0.6198281 0.0042760116 0.017527187
0.61907011 0.0050141597 0.016855527
0.61831212 0.005755493 0.016183801
0.61830652 0.0065297876 0.016172176
0.61754853 0.0072759017 0.015500398
0.61754292 0.0080517894 0.01548875
0.61678481 0.0088026822 0.01481688
0.61602676 0.0095567619 0.014144983
0.61602116 0.010335837 0.014133287
0.61526304 0.011094696 0.013461317
0.61450487 0.011856741 0.01278928
0.6137467 0.012621974 0.012117213
0.61374104 0.013405827 0.012105445
0.61147767 0.014148154 0.010112529
0.60996687 0.01491229 0.008779902
0.60770339 0.015672144 0.0067867409
0.64929026 -0.05410374 0.042948302
0.65003562 -0.053226374 0.043596957
0.65003049 -0.052517403 0.043586314
0.65077591 -0.051644821 0.044235043
0.65152133 -0.050775412 0.04488384
0.65151626 -0.050069619 0.044873245
0.65151119 -0.04936384 0.04486265
0.65225667 -0.04850081 0.045511521
0.6522516 -0.047796618 0.045500949
0.65299714 -0.046938367 0.046149913
0.65299207 -0.046235766 0.046139367
0.6537376 -0.045382295 0.046788383
0.65373254 -0.044681285 0.046777859
0.65447813 -0.0438326 0.047426965
0.65447313 -0.043133184 0.047416467
0.65446806 -0.042433772 0.047405966
0.65521365 -0.041591454 0.04805515
0.65520865 -0.040893637 0.048044674
0.65520364 -0.040195812 0.048034199
0.65594929 -0.039359864 0.048683498
0.65594429 -0.038663637 0.048673045
0.65593928 -0.03796741 0.048662592
0.65593427 -0.037271183 0.048652142
0.65592927 -0.036574952 0.048641689
0.65517354 -0.036008883 0.047971342
0.65516847 -0.035311062 0.047960866
0.65516347 -0.034613244 0.047950391
0.65440768 -0.034040801 0.047279973
0.65440267 -0.033341385 0.047269471
0.65439761 -0.032641973 0.047258973
0.65364176 -0.03206316 0.046588432
0.65363669 -0.031362146 0.046577912
0.65288085 -0.03077855 0.045907319
0.65212494 -0.030191772 0.045236666
0.65136898 -0.029601803 0.044565979
0.65136391 -0.028896013 0.044555385
0.65060794 -0.028301269 0.043884609
0.64985198 -0.027703332 0.043213803
0.64909595 -0.02710221 0.042542949
0.64833993 -0.026497904 0.041872032
0.6475839 -0.02589041 0.041201085
0.64682782 -0.025279731 0.040530067
0.64607173 -0.024665862 0.039859023
0.64606655 -0.023948923 0.039848261
0.6453104 -0.023330281 0.039177127
0.64455426 -0.022708444 0.038505964
0.64379811 -0.022083428 0.037834752
0.64304191 -0.021455221 0.037163474
0.64228565 -0.020823827 0.036492169
0.64228046 -0.020098923 0.036481284
0.6415242 -0.019462751 0.035809886
0.64076793 -0.018823396 0.035138462
0.64001161 -0.018180851 0.034466967
0.64000636 -0.017451167 0.034456011
0.63924998 -0.016803844 0.033784464
0.63849366 -0.01615333 0.033112872
0.63773727 -0.015499636 0.03244121
0.63773197 -0.014765169 0.032430187
0.63697559 -0.014106695 0.031758472
0.63621908 -0.013445035 0.031086691
0.63546264 -0.012780184 0.030414881
0.63470614 -0.012112149 0.029743006
0.63394964 -0.011440927 0.029071102
0.63319314 -0.010766518 0.028399149
0.63318777 -0.010022495 0.028387979
0.63243121 -0.0093433056 0.027715936
0.63167459 -0.0086609321 0.027043862
0.63091797 -0.0079753743 0.026371725
0.63016135 -0.0072866268 0.025699556
0.62940466 -0.0065946919 0.02502732
0.62864798 -0.0058995723 0.024355058
0.62864256 -0.0051459908 0.024343746
0.62713456 -0.0044997726 0.023010368
0.62712914 -0.0037430048 0.022999007
0.62637234 -0.0030367328 0.022326576
0.6256156 -0.0023272748 0.021654077
0.62485874 -0.0016146286 0.020981552
0.62410194 -0.0008987984 0.020308957
0.62334508 -0.00017978111 0.019636335
0.62258816 0.00054242316 0.018963646
0.6218313 0.0012678135 0.018290928
0.62182575 0.0020357363 0.0182794
0.62106884 0.0027659056 0.01760661
0.62031186 0.0034992618 0.016933752
0.62030631 0.0042703701 0.016922176
0.61954933 0.0050085066 0.016249267
0.6187923 0.0057498282 0.015576291
0.61878675 0.0065241228 0.015564667
0.61802971 0.0072702253 0.014891637
0.61727262 0.0080195125 0.014218543
0.61726701 0.0087969946 0.01420687
0.61650991 0.0095510622 0.013533722
0.61575282 0.010308317 0.012860525
0.61574715 0.011088984 0.012848806
0.61499 0.011851018 0.012175519
0.61423284 0.012616239 0.011502203
0.61347562 0.013384645 0.010828819
0.61121523 0.014128531 0.0088321483
0.60970634 0.014894237 0.0074969768
0.65047532 -0.053231563 0.0430407
0.6504702 -0.052522589 0.043030057
0.6512146 -0.051649995 0.043680035
0.65120953 -0.050942607 0.043669418
0.651954 -0.050074782 0.044319484
0.65194893 -0.049369004 0.04430889
0.65269339 -0.048505962 0.044959016
0.65268832 -0.04780177 0.044948444
0.65343285 -0.046943508 0.045598656
0.65342778 -0.046240907 0.04558811
0.65417236 -0.045387425 0.046238374
0.65416729 -0.044686414 0.04622785
0.65491188 -0.043837715 0.046878207
0.65490687 -0.043138299 0.04686771
0.65490186 -0.042438887 0.046857208
0.65564644 -0.041596558 0.047507644
0.65564144 -0.04089874 0.047497164
0.65563643 -0.040200915 0.047486689
0.65638113 -0.03936496 0.04813724
0.65637612 -0.038668733 0.048126787
0.65637112 -0.037972502 0.048116334
0.65636605 -0.037276275 0.048105884
0.65636104 -0.036580045 0.048095431
0.65560627 -0.036013991 0.047423836
0.65560126 -0.035316169 0.04741336
0.65559626 -0.034618352 0.047402885
0.65484142 -0.034045916 0.046731211
0.65483642 -0.0333465 0.046720713
0.65483135 -0.032647088 0.046710212
0.65407652 -0.032068286 0.046038426
0.65332162 -0.031486291 0.045366611
0.65331656 -0.030783689 0.045356065
0.65256166 -0.030196924 0.044684157
0.65180671 -0.029606966 0.044012219
0.65105176 -0.029013824 0.043340217
0.65029675 -0.028417492 0.042668186
0.6495418 -0.027817978 0.04199611
0.64878672 -0.027215276 0.041323964
0.64803171 -0.026609384 0.040651791
0.64802653 -0.025895631 0.040641073
0.64727145 -0.025284965 0.039968811
0.64651632 -0.024671108 0.039296515
0.64576119 -0.024054067 0.038624156
0.64500606 -0.023433838 0.037951767
0.64425087 -0.022810424 0.03727933
0.64424568 -0.022088708 0.037268493
0.64349049 -0.021460513 0.036595967
0.64273524 -0.020829132 0.035923406
0.64197999 -0.020194566 0.035250783
0.64122468 -0.019556811 0.03457813
0.64121944 -0.018828722 0.0345672
0.64046413 -0.018186189 0.033894457
0.63970882 -0.017540472 0.033221684
0.63895345 -0.016891565 0.032548867
0.63894814 -0.016158693 0.032537863
0.63819277 -0.015505009 0.031864952
0.63743734 -0.014848135 0.031192014
0.63668191 -0.014188082 0.030519007
0.63592643 -0.013524837 0.029845972
0.63517094 -0.012858408 0.029172869
0.63441545 -0.012188788 0.028499739
0.63441008 -0.011446359 0.028488593
0.63365453 -0.010771962 0.02781539
0.63289899 -0.010094381 0.027142121
0.63214338 -0.0094136093 0.026468821
0.63138777 -0.0087296544 0.025795456
0.63063216 -0.0080425115 0.025122061
0.63062674 -0.007292117 0.025110796
0.62987107 -0.0066001937 0.024437312
0.62911534 -0.0059050852 0.023763798
0.62835962 -0.0052067926 0.023090217
0.62760389 -0.0045053093 0.022416608
0.62684816 -0.0038006431 0.021742951
0.62609237 -0.003092791 0.021069227
0.62533653 -0.0023817499 0.020395475
0.62458068 -0.0016675235 0.019721655
0.62382483 -0.00095011032 0.019047806
0.62381935 -0.00018537599 0.019036327
0.62306345 0.00053681666 0.018362386
0.62230754 0.0012621953 0.017688418
0.62155163 0.0019907616 0.017014403
0.62079567 0.002722512 0.016340319
0.62079012 0.0034936203 0.016328743
0.6200341 0.0042301519 0.015654609
0.61927807 0.0049698697 0.014980405
0.61927253 0.0057441634 0.014968781
0.6185165 0.0064886608 0.014294527
0.6185109 0.0072645489 0.014282878
0.61775482 0.0080138249 0.013608533
0.61699867 0.0087662889 0.012934159
0.61699307 0.0095453626 0.012922463
0.61623698 0.010302606 0.012248017
0.61548078 0.011063035 0.011573503
0.61472458 0.01182665 0.010898962
0.61321783 0.0125764 0.0095615294
0.61246157 0.013347981 0.0088868486
0.6102041 0.014095019 0.0068863779
0.60794657 0.014851615 0.0048857457
0.6509099 -0.052527774 0.0424738
0.65165335 -0.05165517 0.043125026
0.65164822 -0.050947785 0.043114409
0.65164316 -0.050240405 0.043103788
0.65238661 -0.049374167 0.043755133
0.65313011 -0.048511114 0.044406503
0.65312505 -0.047806922 0.044395935
0.65386862 -0.046948645 0.045047399
0.65386355 -0.046246048 0.045036852
0.65460712 -0.045392554 0.045688365
0.65460205 -0.044691544 0.045677841
0.65534568 -0.043842833 0.04632945
0.65534061 -0.043143418 0.046318952
0.65533561 -0.042444006 0.04630845
0.65607923 -0.041601665 0.046960134
0.65607423 -0.040903848 0.046949659
0.65606922 -0.040206023 0.046939183
0.65681291 -0.039370053 0.047590982
0.6568079 -0.038673826 0.047580529
0.65680289 -0.037977599 0.047570076
0.65679789 -0.037281372 0.047559626
0.65679288 -0.036585141 0.047549173
0.65603906 -0.036019094 0.046876326
0.65603405 -0.035321273 0.046865851
0.65602905 -0.034623455 0.046855375
0.65527523 -0.034051035 0.046182454
0.65527016 -0.033351619 0.046171956
0.65451628 -0.032774422 0.045498941
0.65451127 -0.032073416 0.045488417
0.65375739 -0.031491429 0.044815354
0.65300345 -0.030906267 0.04414222
0.65224952 -0.030317914 0.04346906
0.65224445 -0.02961213 0.043458462
0.65074158 -0.029131653 0.042122573
0.65073645 -0.02842268 0.04211193
0.64998245 -0.027823174 0.041438602
0.64922839 -0.027220488 0.040765204
0.64847434 -0.026614606 0.040091783
0.64772028 -0.026005544 0.039418288
0.64696616 -0.02539329 0.03874477
0.64696097 -0.024676353 0.038734008
0.64620686 -0.024059325 0.038060397
0.64545268 -0.023439107 0.037386756
0.6446985 -0.022815704 0.036713071
0.64394426 -0.022189118 0.036039315
0.64319003 -0.021559339 0.035365533
0.64243579 -0.020926379 0.034691684
0.64243054 -0.020199882 0.034680776
0.64167625 -0.019562138 0.034006871
0.64092189 -0.018921215 0.033332903
0.64016759 -0.018277099 0.032658905
0.64016235 -0.017545821 0.032647926
0.63940793 -0.016896928 0.031973857
0.63865358 -0.016244847 0.031299721
0.63789916 -0.015589579 0.030625554
0.63789386 -0.01485352 0.030614505
0.63713938 -0.014193478 0.029940248
0.6363849 -0.013530245 0.029265963
0.63563037 -0.012863828 0.02859161
0.63487589 -0.01219422 0.027917229
0.63412136 -0.011521429 0.0272428
0.63336676 -0.010845452 0.026568305
0.6333614 -0.010099836 0.02655711
0.6326068 -0.0094190752 0.025882563
0.63185215 -0.0087351333 0.025207946
0.6310975 -0.0080480017 0.024533303
0.63034284 -0.0073576863 0.023858592
0.62958813 -0.0066641821 0.023183852
0.6295827 -0.0059105987 0.023172541
0.62882799 -0.0052123177 0.022497708
0.62807322 -0.004510846 0.021822849
0.6273185 -0.0038061915 0.021147942
0.62656367 -0.0030983509 0.020472968
0.62580884 -0.0023873213 0.019797966
0.625054 -0.0016731068 0.019122895
0.62429911 -0.00095570518 0.018447798
0.62354422 -0.00023511935 0.017772632
0.62278932 0.00048865628 0.017097438
0.62278378 0.0012565772 0.01708591
0.62202889 0.0019851318 0.016410643
0.62127388 0.0027168705 0.015735311
0.62126833 0.0034879788 0.015723735
0.62051332 0.0042244988 0.015048349
0.61975831 0.004964205 0.014372896
0.61975271 0.0057384986 0.014361273
0.61899769 0.0064829844 0.013685768
0.61824256 0.0072306558 0.013010195
0.61823696 0.0080081364 0.012998524
0.61748189 0.0087605892 0.012322899
0.61672676 0.0095162261 0.011647226
0.61597157 0.010275051 0.010971487
0.61521637 0.011037062 0.010295719
0.61446112 0.011802259 0.0096198833
0.61295635 0.012553578 0.008279928
0.61220109 0.013326742 0.0076039918
0.60919696 0.01406146 0.0049356287
0.607692 0.014833491 0.0035953422
0.60468769 0.015590514 0.00092662423
0.6513496 -0.052532963 0.04191754
0.65134448 -0.051823989 0.041906897
0.65208697 -0.05095296 0.0425594
0.65208185 -0.050245579 0.042548779
0.65282434 -0.049379334 0.043201376
0.65281928 -0.04867354 0.043190781
0.65356177 -0.047812074 0.043843426
0.6535567 -0.047107875 0.043832853
0.65429926 -0.046251185 0.044485591
0.65504187 -0.045397684 0.045138359
0.65503681 -0.044696674 0.045127835
0.65577942 -0.043847948 0.045780692
0.65577441 -0.043148533 0.045770191
0.65576935 -0.04244912 0.045759693
0.65651202 -0.041606769 0.046412624
0.65650702 -0.040908951 0.046402149
0.65650195 -0.040211126 0.046391673
0.65724468 -0.039375145 0.047044724
0.65723968 -0.038678918 0.047034271
0.65723467 -0.037982691 0.047023818
0.65722966 -0.037286464 0.047013368
0.65647686 -0.036722023 0.046339296
0.65647185 -0.036024202 0.04632882
0.65646684 -0.03532638 0.046318345
0.65646178 -0.034628563 0.046307869
0.65570897 -0.034056153 0.045633696
0.65570396 -0.033356737 0.045623194
0.65495104 -0.032779552 0.044948932
0.65419817 -0.032199174 0.044274643
0.6541931 -0.03149657 0.044264093
0.65344018 -0.03091142 0.043589711
0.65268725 -0.030323079 0.0429153
0.65193427 -0.029731553 0.042240821
0.65118128 -0.02913684 0.041566316
0.65042824 -0.028538939 0.040891759
0.64967519 -0.027937856 0.040217139
0.64892215 -0.027333584 0.039542489
0.64816904 -0.026726121 0.038867772
0.64816391 -0.026010778 0.038857032
0.64741081 -0.025398536 0.038182262
0.64665765 -0.024783112 0.037507426
0.64590448 -0.024164502 0.03683256
0.64515126 -0.023542704 0.036157645
0.64439803 -0.022917723 0.035482664
0.64439285 -0.02219441 0.035471808
0.64363962 -0.021564642 0.034796774
0.64288634 -0.020931695 0.034121674
0.64213306 -0.020295558 0.033446547
0.64137971 -0.019656237 0.032771349
0.64137447 -0.018926553 0.032760393
0.64062113 -0.018282449 0.032085147
0.63986772 -0.017635161 0.031409852
0.63911432 -0.016984688 0.030734487
0.63910908 -0.016250219 0.030723462
0.63835561 -0.015594964 0.030048046
0.63760215 -0.014936525 0.029372564
0.63684869 -0.014274896 0.028697051
0.63609517 -0.013610085 0.028021473
0.63534164 -0.012942084 0.027345866
0.63533634 -0.012199651 0.02733472
0.63458276 -0.011526872 0.026659042
0.63382918 -0.010850906 0.025983296
0.63307559 -0.010171754 0.025307521
0.63232195 -0.0094894143 0.024631679
0.63156831 -0.0088038882 0.023955809
0.63081461 -0.0081151789 0.023279872
0.63080919 -0.0073631881 0.023268582
0.63005549 -0.006669695 0.022592593
0.62930179 -0.0059730182 0.021916537
0.62854803 -0.0052731545 0.02124045
0.62779427 -0.0045701019 0.020564318
0.62704045 -0.0038638653 0.019888118
0.62628663 -0.0031544417 0.019211888
0.62553275 -0.002441834 0.018535594
0.62552726 -0.0016786901 0.018524136
0.62477338 -0.00096130004 0.017847788
0.6240195 -0.00024072589 0.017171372
0.62326556 0.00048303808 0.016494928
0.62251163 0.0012099867 0.015818436
0.62250608 0.0019795019 0.015806885
0.62175208 0.0027112288 0.015130301
0.62099808 0.0034461448 0.01445369
0.62024409 0.0041842442 0.013777011
0.62023848 0.0049585397 0.013765387
0.61948442 0.0057014204 0.013088656
0.61947888 0.006477308 0.013077009
0.61872476 0.0072249672 0.012400186
0.61797065 0.0079758149 0.011723335
0.61796504 0.0087548885 0.011711639
0.61721087 0.0095105153 0.011034718
0.61645669 0.010269328 0.010357727
0.61570251 0.011031327 0.0096807098
0.6141997 0.011777844 0.0083383257
0.61269683 0.012530734 0.0069958461
0.61119395 0.013289996 0.0056532705
0.60894239 0.014041743 0.0036452094
0.60669076 0.014803049 0.0016370446
0.65178931 -0.052538149 0.04136128
0.65178418 -0.051829174 0.041350637
0.65177912 -0.051120203 0.041339993
0.65252054 -0.050250754 0.041993771
0.65251547 -0.049543377 0.041983154
0.65325701 -0.048678704 0.04263702
0.65325195 -0.047972921 0.042626426
0.65399343 -0.047113027 0.043280344
0.65473503 -0.046256326 0.043934334
0.65472996 -0.045553725 0.043923784
0.65547156 -0.0447018 0.044577826
0.6554665 -0.044000797 0.044567302
0.65620816 -0.043153651 0.045221433
0.65620315 -0.042454239 0.045210931
0.65694481 -0.041611876 0.045865115
0.65693974 -0.040914055 0.045854639
0.65693474 -0.04021623 0.045844164
0.65692973 -0.039518412 0.045833688
0.65767145 -0.038684011 0.046488009
0.65766644 -0.037987784 0.04647756
0.65691465 -0.037424948 0.045802262
0.65690964 -0.036727127 0.045791786
0.65690464 -0.036029305 0.045781311
0.65689963 -0.035331484 0.045770831
0.65614778 -0.03476068 0.045095436
0.65614277 -0.034061268 0.045084935
0.65539086 -0.033485685 0.044409446
0.65538579 -0.032784682 0.044398922
0.65463394 -0.032204315 0.043723382
0.65388197 -0.031620767 0.043047775
0.65313005 -0.031034026 0.042372134
0.65237802 -0.030444108 0.041696433
0.65162605 -0.029851001 0.041020699
0.65087408 -0.029254705 0.040344916
0.65086895 -0.028544137 0.040334251
0.64936996 -0.028052559 0.038993195
0.64936483 -0.027338807 0.038982477
0.64861268 -0.026731355 0.038306508
0.64786059 -0.026120722 0.037630513
0.64710844 -0.025506904 0.036954451
0.64635628 -0.024889896 0.03627836
0.64560407 -0.024269704 0.035602219
0.64559889 -0.023547985 0.035591386
0.64484662 -0.022923015 0.034915157
0.64409441 -0.022294855 0.034238897
0.64334214 -0.021663509 0.033562571
0.64258981 -0.021028977 0.032886215
0.64258462 -0.020300884 0.032875285
0.64183223 -0.019661576 0.032198839
0.6410799 -0.019019077 0.031522363
0.64032751 -0.018373394 0.030845841
0.64032227 -0.017640522 0.030834841
0.63956982 -0.016990062 0.030158227
0.63881743 -0.016336408 0.029481584
0.63806498 -0.015679574 0.028804876
0.63731247 -0.015019549 0.02812814
0.63655996 -0.014356342 0.027451335
0.63655466 -0.013615505 0.027440213
0.63580209 -0.012947517 0.026763357
0.63504958 -0.012276337 0.026086451
0.63429695 -0.011601978 0.025409479
0.63354439 -0.01092443 0.024732478
0.63353902 -0.010177221 0.024721261
0.63278633 -0.0094948923 0.024044169
0.63203371 -0.0088093784 0.023367049
0.63128102 -0.0081206802 0.022689862
0.63052827 -0.0074287918 0.022012645
0.62977552 -0.0067337188 0.021335363
0.62902278 -0.0060354588 0.020658052
0.62901735 -0.0052786907 0.020646689
0.62826461 -0.0045756502 0.019969309
0.62751174 -0.0038694253 0.019291857
0.62675893 -0.0031600134 0.018614378
0.62600607 -0.002447417 0.017936833
0.6252532 -0.0017316302 0.017259257
0.62450027 -0.00101266 0.016581615
0.62374735 -0.00029050285 0.015903946
0.62374187 0.00047741988 0.015892418
0.62298888 0.0012043569 0.015214676
0.62223589 0.0019344799 0.014536866
0.62223035 0.0027055873 0.01452529
0.62147731 0.0034404916 0.013847429
0.62072426 0.0041785794 0.0131695
0.61997122 0.0049198568 0.012491543
0.61996567 0.005695744 0.012479896
0.61921251 0.0064417985 0.011801847
0.6184594 0.0071910406 0.01112377
0.6184538 0.0079701152 0.011112074
0.6177007 0.0087241363 0.010433927
0.61694747 0.0094813444 0.0097557101
0.61619431 0.010241739 0.009077467
0.61469346 0.010985046 0.0077326302
0.61394018 0.011753405 0.007054246
0.61243933 0.012507866 0.0057092621
0.61093837 0.013268698 0.0043641627
0.60794216 0.014008103 0.0016857088
0.65148348 -0.052708596 0.040139426
0.65222389 -0.051834363 0.04079438
0.65221882 -0.051125389 0.040783737
0.65221369 -0.050416417 0.040773094
0.65220857 -0.049707443 0.040762451
0.65294909 -0.048841171 0.041417524
0.65368962 -0.047978085 0.042072665
0.65368456 -0.047272291 0.04206207
0.65442508 -0.046413992 0.042717263
0.65516573 -0.045558866 0.043372527
0.65516067 -0.044856261 0.04336198
0.65590125 -0.044005927 0.044017293
0.65589625 -0.043304916 0.044006769
0.65663689 -0.042459358 0.044662174
0.65663189 -0.041759942 0.044651676
0.65737253 -0.040919162 0.045307133
0.65736753 -0.040221337 0.045296658
0.65736252 -0.03952352 0.045286179
0.65735751 -0.038825698 0.045275703
0.65735245 -0.038127877 0.045265228
0.65734744 -0.037430055 0.045254752
0.65734243 -0.036732234 0.045244277
0.65733743 -0.036034413 0.045233801
0.65658659 -0.035465211 0.044557177
0.65658152 -0.034765799 0.044546679
0.65657651 -0.034066387 0.044536177
0.65582561 -0.033490814 0.043859437
0.65507472 -0.032912057 0.043182671
0.65506965 -0.032209456 0.043172125
0.65431869 -0.031625919 0.042495266
0.65356773 -0.031039191 0.041818377
0.65281677 -0.030449282 0.041141421
0.65206575 -0.029856186 0.040464442
0.65131474 -0.029259903 0.039787412
0.65056366 -0.028660433 0.03911031
0.64981258 -0.02805778 0.038433187
0.6490615 -0.027451938 0.037755992
0.64831036 -0.026842903 0.037078768
0.64830524 -0.026125968 0.037068006
0.64755404 -0.025512161 0.036390692
0.64680284 -0.024895163 0.035713352
0.64605165 -0.024274984 0.03503596
0.64530045 -0.023651619 0.034358505
0.64454919 -0.023025062 0.03368102
0.64379793 -0.022395326 0.033003468
0.64379269 -0.021668823 0.03299256
0.64304137 -0.021034304 0.032314956
0.64229006 -0.020396598 0.031637285
0.64153868 -0.019755704 0.030959584
0.64153343 -0.019024428 0.030948607
0.64078206 -0.018378755 0.030270834
0.64003062 -0.017729897 0.029592995
0.63927919 -0.017077852 0.028915126
0.63927394 -0.016341792 0.028904077
0.63852245 -0.01568497 0.028226117
0.63777095 -0.015024958 0.027548131
0.6370194 -0.014361762 0.026870076
