# .PCD v0.7 - Point Cloud Data file format
VERSION 0.7
FIELDS x y z
SIZE 4 4 4
TYPE F F F
COUNT 1 1 1
WIDTH 1382
HEIGHT 1
VIEWPOINT 0 0 0 1 0 0 0
POINTS 1382
DATA ascii
0.68111122 -0.030951343 0.19245863
0.68110746 -0.030428777 0.19245079
0.68110365 -0.029906206 0.19244294
0.68109989 -0.029383639 0.1924351
0.68201965 -0.028709052 0.19286801
0.6820159 -0.02818808 0.1928602
0.68201214 -0.027667103 0.19285238
0.6829319 -0.026998883 0.19328541
0.6829282 -0.026479505 0.1932776
0.68292445 -0.025960121 0.1932698
0.68292069 -0.025440739 0.19326201
0.682917 -0.024921358 0.19325422
0.68383682 -0.024262706 0.19368736
0.68383306 -0.023744915 0.1936796
0.68382937 -0.023227125 0.19367182
0.68382561 -0.022709338 0.19366406
0.68382192 -0.022191549 0.19365628
0.68381816 -0.021673758 0.1936485
0.68381447 -0.021155966 0.19364074
0.6847344 -0.020510057 0.19407409
0.68473071 -0.019993862 0.19406635
0.68472695 -0.019477665 0.1940586
0.68472326 -0.018961471 0.19405085
0.68471956 -0.018445274 0.1940431
0.68471581 -0.017929079 0.19403535
0.68471211 -0.01741288 0.1940276
0.68470842 -0.016896684 0.19401985
0.68470466 -0.016380485 0.19401211
0.68470097 -0.015864292 0.19400436
0.68469727 -0.015348094 0.19399661
0.68469357 -0.0148319 0.19398886
0.68468982 -0.014315704 0.19398111
0.68468612 -0.013799507 0.19397336
0.68468243 -0.013283311 0.19396561
0.68560249 -0.012662894 0.19439934
0.68559879 -0.012148293 0.19439161
0.6855951 -0.011633689 0.19438389
0.6855914 -0.011119085 0.19437617
0.6855877 -0.010604483 0.19436844
0.68558401 -0.01008988 0.19436072
0.68558031 -0.0095752776 0.19435298
0.68557662 -0.0090606743 0.19434527
0.68464899 -0.0086375419 0.19389586
0.68464524 -0.0081213461 0.19388811
0.68464154 -0.0076051503 0.19388036
0.68463784 -0.0070889546 0.19387262
0.68463409 -0.0065727583 0.19386487
0.68463039 -0.0060565607 0.19385712
0.6846267 -0.0055403649 0.19384937
0.684623 -0.0050241686 0.19384162
0.68461925 -0.004507971 0.19383387
0.68461555 -0.0039917747 0.19382612
0.68461186 -0.003475579 0.19381838
0.6846081 -0.002959383 0.19381063
0.68368036 -0.0025155435 0.19336089
0.6836766 -0.0019977533 0.19335313
0.6836729 -0.0014799632 0.19334535
0.68366915 -0.0009621749 0.19333757
0.68366545 -0.00044438473 0.19332981
0.68273759 9.0146968e-06 0.19287996
0.68273383 0.00052839908 0.19287215
0.68273014 0.0010477816 0.19286436
0.68272638 0.0015671641 0.19285657
0.68179846 0.0020285286 0.19240658
0.6817947 0.0025495053 0.19239876
0.68086678 0.0030156518 0.19194871
0.68086302 0.0035382209 0.19194087
0.68085927 0.0040607909 0.19193302
0.67993128 0.0045333081 0.19148287
0.67992753 0.0050574695 0.191475
0.67899948 0.0055347681 0.1910248
0.67899573 0.0060605248 0.1910169
0.67899191 0.0065862802 0.191009
0.67806387 0.0070699495 0.19055869
0.67806005 0.0075972984 0.19055076
0.67713201 0.00808575 0.19010039
0.6771282 0.0086146919 0.19009244
0.67620003 0.0091079222 0.189642
0.67619622 0.0096384576 0.18963403
0.67526805 0.010136466 0.18918349
0.67433989 0.010637662 0.18873292
0.67433602 0.011171385 0.18872491
0.67340779 0.011677359 0.18827425
0.67247957 0.012186522 0.18782356
0.67155129 0.012698869 0.1873728
0.67154741 0.01323737 0.18736473
0.67061913 0.013754499 0.18691391
0.66969079 0.014274814 0.18646306
0.66968691 0.014816501 0.18645492
0.66875857 0.015341595 0.18600398
0.66783017 0.015869876 0.185553
0.66690177 0.016401341 0.18510197
0.66689783 0.01694781 0.18509376
0.66596937 0.017484056 0.18464267
0.66504091 0.018023489 0.18419151
0.66411245 0.018566107 0.18374032
0.66410846 0.019117353 0.18373203
0.66317999 0.019664753 0.18328078
0.66225141 0.020215338 0.18282945
0.66224742 0.020769771 0.18282112
0.66131884 0.021325136 0.18236974
0.66131485 0.021881163 0.18236139
0.66131085 0.022437189 0.18235305
0.66130686 0.022993214 0.1823447
0.66037822 0.023556547 0.18189318
0.66037416 0.024114165 0.18188481
0.6704945 -0.050731651 0.18701388
0.67049056 -0.050189964 0.18700574
0.67048669 -0.049648277 0.18699761
0.67048275 -0.04910659 0.18698949
0.67047888 -0.048564903 0.18698135
0.67047501 -0.048023216 0.18697321
0.67139322 -0.047280118 0.18740636
0.67138934 -0.046740018 0.18739825
0.67138547 -0.046199925 0.18739015
0.67138153 -0.045659833 0.18738204
0.67229986 -0.044924695 0.18781529
0.67229599 -0.044386197 0.18780722
0.67229211 -0.043847691 0.18779913
0.67321044 -0.043118928 0.1882325
0.67320663 -0.042582016 0.18822443
0.67320275 -0.042045113 0.18821637
0.67412114 -0.041322719 0.18864983
0.67411727 -0.040787403 0.18864179
0.67503572 -0.040069789 0.18907532
0.6750319 -0.039536066 0.18906732
0.67595035 -0.03882324 0.18950091
0.67594647 -0.038291108 0.18949293
0.67686504 -0.037583053 0.18992661
0.67686123 -0.03705252 0.18991864
0.67777973 -0.036349244 0.19035238
0.67777592 -0.035820305 0.19034444
0.67869449 -0.03512181 0.19077826
0.67869067 -0.034594461 0.19077034
0.6796093 -0.033900741 0.19120423
0.67960548 -0.033374991 0.19119634
0.67960173 -0.032849237 0.19118844
0.68052036 -0.032161895 0.19162242
0.6805166 -0.031637732 0.19161455
0.68051285 -0.031113567 0.19160669
0.68050903 -0.030589409 0.19159882
0.68142778 -0.029910028 0.19203293
0.68142402 -0.029387461 0.19202508
0.68142027 -0.02886489 0.19201724
0.68233901 -0.028191892 0.19245143
0.68233526 -0.027670914 0.19244361
0.6823315 -0.027149934 0.1924358
0.68232775 -0.026628962 0.19242798
0.68324655 -0.025963923 0.1928623
0.6832428 -0.025444539 0.19285451
0.6832391 -0.024925157 0.1928467
0.68323535 -0.024405774 0.19283891
0.68323159 -0.023886392 0.19283111
0.68415046 -0.023230914 0.19326557
0.68414676 -0.022713127 0.19325779
0.68414301 -0.022195337 0.19325003
0.68413931 -0.021677546 0.19324225
0.68413556 -0.021159753 0.19323447
0.68413186 -0.020641966 0.19322671
0.68412811 -0.020124177 0.19321893
0.68412441 -0.019606389 0.19321115
0.68504339 -0.018965248 0.19364585
0.6850397 -0.018449049 0.1936381
0.68503594 -0.017932856 0.19363035
0.68503225 -0.017416658 0.19362259
0.68502855 -0.016900459 0.19361484
0.6850248 -0.016384263 0.19360709
0.6850211 -0.015868068 0.19359934
0.68501741 -0.01535187 0.19359159
0.68501371 -0.014835676 0.19358385
0.68500996 -0.01431948 0.1935761
0.68500626 -0.013803285 0.19356835
0.68500257 -0.013287088 0.1935606
0.68499881 -0.012770888 0.19355285
0.68499511 -0.012254693 0.1935451
0.68499142 -0.011738497 0.19353735
0.68498766 -0.011222301 0.19352961
0.68498397 -0.010706104 0.19352186
0.68498027 -0.010189909 0.19351411
0.68497652 -0.0096737128 0.19350636
0.68497282 -0.009157517 0.19349861
0.68496913 -0.0086413184 0.19349086
0.68496537 -0.0081251226 0.19348311
0.68496168 -0.0076089269 0.19347537
0.68495798 -0.0070927311 0.19346762
0.68495423 -0.0065765348 0.19345987
0.68495053 -0.0060603372 0.19345212
0.68494684 -0.0055441414 0.19344437
0.68494314 -0.0050279452 0.19343662
0.68493938 -0.0045117475 0.19342886
0.68493569 -0.0039955513 0.19342111
0.6840089 -0.0035549102 0.19297019
0.6840052 -0.00303712 0.19296242
0.68400145 -0.0025193316 0.19295464
0.68399775 -0.0020015417 0.19294687
0.683994 -0.0014837515 0.1929391
0.6830672 -0.0010335502 0.19248804
0.68306345 -0.00051416765 0.19248025
0.68305969 5.2148407e-06 0.19247244
0.683056 0.00052459922 0.19246465
0.68212909 0.00098276546 0.19201346
0.68212533 0.0015037413 0.19200565
0.68212157 0.0020247169 0.19199783
0.68119466 0.0024892595 0.19154654
0.68119091 0.0030118285 0.19153871
0.68118715 0.0035343976 0.19153085
0.68026012 0.0040053111 0.19107948
0.68025637 0.0045294734 0.19107161
0.67932934 0.0050051659 0.19062017
0.67932558 0.0055309217 0.19061229
0.67932177 0.006056678 0.19060439
0.67839473 0.0065387436 0.19015284
0.67839092 0.0070660915 0.19014493
0.67746383 0.0075529381 0.18969332
0.67746001 0.0080818804 0.18968537
0.67653292 0.0085735051 0.18923369
0.67652911 0.0091040405 0.18922573
0.6756019 0.0096004447 0.18877397
0.67559808 0.010132573 0.18876599
0.67467088 0.010633758 0.18831415
0.67374367 0.011138128 0.18786228
0.6728164 0.011645685 0.18741037
0.67281258 0.012182593 0.18740231
0.67188525 0.01269493 0.18695031
0.67095798 0.013210453 0.18649827
0.67095411 0.013750548 0.18649016
0.67002678 0.01427085 0.18603805
0.66909939 0.014794339 0.18558589
0.668172 0.015321015 0.18513368
0.66816813 0.015865888 0.1851255
0.66724068 0.016397344 0.18467321
0.66631323 0.016931986 0.18422088
0.66538578 0.017469814 0.1837685
0.66538179 0.018019468 0.18376026
0.66445434 0.018562075 0.18330781
0.66352683 0.019107869 0.18285532
0.66352284 0.019660708 0.18284702
0.66259527 0.020211281 0.18239444
0.66259128 0.020765714 0.18238612
0.66166371 0.021321068 0.18193349
0.66165972 0.021877095 0.18192513
0.66165566 0.022433121 0.18191679
0.66072804 0.022994846 0.18146405
0.66072404 0.023552466 0.18145567
0.6699093 -0.050946612 0.18614648
0.66990542 -0.050403323 0.18613832
0.66990149 -0.049860049 0.18613017
0.66989762 -0.04931676 0.18612202
0.67081481 -0.048568867 0.18655634
0.67081094 -0.04802718 0.18654822
0.670807 -0.047485493 0.18654008
0.67080313 -0.046943802 0.18653195
0.67172039 -0.046203878 0.18696639
0.67171651 -0.045663781 0.18695828
0.67171264 -0.045123685 0.18695018
0.67262995 -0.044390138 0.18738471
0.67262608 -0.043851633 0.18737662
0.6726222 -0.043313134 0.18736854
0.67353958 -0.042585947 0.18780318
0.6735357 -0.042049043 0.18779512
0.67353189 -0.041512132 0.18778706
0.67444927 -0.040791322 0.18822178
0.67444539 -0.040256005 0.18821375
0.67536288 -0.03953997 0.18864857
0.67535907 -0.039006252 0.18864055
0.6762765 -0.038295001 0.18907543
0.67627269 -0.037762873 0.18906744
0.67719024 -0.037056401 0.18950239
0.67718643 -0.03652586 0.18949443
0.67810398 -0.035824172 0.18992944
0.67810017 -0.035295229 0.1899215
0.67901772 -0.034598321 0.19035658
0.67901391 -0.034070972 0.19034867
0.67901015 -0.033543624 0.19034074
0.67992777 -0.032853082 0.19077595
0.67992401 -0.032327328 0.19076805
0.6799202 -0.03180157 0.19076015
0.68083787 -0.0311174 0.19119544
0.68083411 -0.030593242 0.19118756
0.68083036 -0.030069077 0.19117969
0.68174809 -0.029391285 0.19161507
0.68174434 -0.028868714 0.19160724
0.68174058 -0.028346146 0.19159938
0.68173683 -0.027823575 0.19159155
0.68265462 -0.027153745 0.19202703
0.68265086 -0.026632773 0.19201922
0.68264711 -0.026111796 0.1920114
0.68356496 -0.025448339 0.19244699
0.68356121 -0.024928957 0.1924392
0.68355745 -0.024409574 0.19243141
0.68355376 -0.023890192 0.19242361
0.68355 -0.02337081 0.1924158
0.68354625 -0.022851426 0.19240801
0.68354249 -0.022332044 0.19240022
0.6844604 -0.021681335 0.192836
0.68445671 -0.021163542 0.19282822
0.68445295 -0.020645754 0.19282044
0.68444926 -0.020127965 0.19281268
0.6844455 -0.019610178 0.1928049
0.6844418 -0.019092385 0.19279712
0.68443805 -0.018574597 0.19278936
0.68443435 -0.018056808 0.19278158
0.6844306 -0.017539021 0.1927738
0.6844269 -0.017021228 0.19276604
0.68442315 -0.016503436 0.19275826
0.68441945 -0.015985647 0.19275048
0.6844157 -0.01546786 0.19274272
0.684412 -0.014950071 0.19273494
0.68440825 -0.014432281 0.19272718
0.6853264 -0.013807061 0.19316335
0.6853227 -0.013290864 0.1931556
0.68531895 -0.012774665 0.19314785
0.68531525 -0.012258469 0.1931401
0.68531156 -0.011742273 0.19313236
0.6853078 -0.011226078 0.19312461
0.68530411 -0.010709881 0.19311686
0.68530041 -0.010193685 0.19310911
0.68529665 -0.0096774893 0.19310135
0.68529296 -0.0091612935 0.1930936
0.68528926 -0.0086450959 0.19308585
0.68528551 -0.0081288991 0.1930781
0.68528181 -0.0076127034 0.19307035
0.68527812 -0.0070965076 0.1930626
0.68527436 -0.0065803113 0.19305485
0.68527067 -0.0060641137 0.19304711
0.68434495 -0.0056298571 0.19259503
0.68434119 -0.0051120687 0.19258726
0.6843375 -0.0045942771 0.19257948
0.68433374 -0.0040764888 0.19257171
0.68433005 -0.0035586983 0.19256394
0.68432629 -0.0030409084 0.19255616
0.6843226 -0.00252312 0.19254839
0.68339676 -0.002076115 0.19209613
0.68339306 -0.0015567326 0.19208834
0.68338931 -0.00103735 0.19208054
0.68338555 -0.00051796751 0.19207273
0.6833818 1.4149844e-06 0.19206494
0.6824559 0.0004579791 0.19161253
0.68245214 0.0009789539 0.1916047
0.68244845 0.0014999297 0.19159688
0.68152249 0.0019628664 0.19114439
0.68151873 0.0024854364 0.19113654
0.68151498 0.0030080054 0.1911287
0.68058896 0.0034773131 0.19067609
0.68058521 0.0040014763 0.19066823
0.67965919 0.0044755647 0.19021556
0.67965543 0.0050013196 0.19020768
0.67965162 0.0055270754 0.19019978
0.67872554 0.0060075363 0.18974701
0.67872179 0.0065348856 0.18973908
0.67871797 0.0070622335 0.18973117
0.67779189 0.007549068 0.1892783
0.67778808 0.0080780108 0.18927038
0.67686194 0.0085696243 0.18881744
0.67593575 0.0090644229 0.18836446
0.67593193 0.0095965518 0.18835647
0.67500573 0.010096131 0.18790342
0.67500192 0.010629853 0.1878954
0.67407566 0.011134212 0.18744227
0.67314941 0.011641758 0.18698911
0.67222309 0.012152489 0.18653588
0.67221922 0.01269099 0.1865278
0.67129296 0.013206501 0.18607451
0.67036659 0.0137252 0.18562117
0.67036271 0.014266888 0.18561305
0.66943634 0.014790365 0.18515962
0.66850996 0.015317029 0.18470618
0.66758353 0.015846878 0.18425266
0.66665709 0.016379915 0.1837991
0.66665316 0.016927976 0.18379088
0.66572666 0.017465793 0.18333724
0.66480017 0.018006794 0.18288358
0.66387367 0.018550985 0.18242987
0.66386968 0.019103823 0.18242157
0.66294312 0.019652793 0.18196777
0.66293913 0.020207226 0.18195944
0.66201252 0.020760974 0.18150558
0.66200852 0.021317 0.18149723
0.66200453 0.021873027 0.18148889
0.66107786 0.022433149 0.18103491
0.66107386 0.022990767 0.18102653
0.66106987 0.023548387 0.18101817
0.66932225 -0.050616704 0.1852684
0.66931832 -0.050071828 0.18526022
0.66931438 -0.049526956 0.18525206
0.67023063 -0.048777461 0.1856876
0.67022669 -0.048234176 0.18567944
0.67022282 -0.047690902 0.18567128
0.67113906 -0.046947762 0.18610694
0.67113519 -0.046406075 0.18609881
0.67205149 -0.045667734 0.18653452
0.67204762 -0.045127638 0.18652642
0.67204368 -0.044587545 0.1865183
0.67296004 -0.04385557 0.18695411
0.67295617 -0.043317072 0.18694603
0.67387259 -0.042589873 0.18738192
0.67386872 -0.042052969 0.18737386
0.67386484 -0.041516058 0.1873658
0.67386097 -0.040979147 0.18735775
0.67477739 -0.040259924 0.18779375
0.67477357 -0.039724607 0.1877857
0.67569005 -0.039010156 0.1882218
0.67568618 -0.038476434 0.18821378
0.67660272 -0.037766766 0.18864992
0.67659891 -0.037234638 0.18864194
0.67751545 -0.036529742 0.18907817
0.67751163 -0.035999209 0.18907019
0.67842817 -0.0352991 0.18950649
0.67842436 -0.034770161 0.18949854
0.6784206 -0.034241214 0.1894906
0.6793372 -0.033547483 0.18992698
0.67933339 -0.033020135 0.18991907
0.68025005 -0.032331172 0.19035554
0.68024629 -0.031805418 0.19034764
0.68024254 -0.031279657 0.19033976
0.6811592 -0.030597078 0.1907763
0.68115544 -0.030072913 0.19076844
0.68115169 -0.029548755 0.19076057
0.68114787 -0.02902459 0.1907527
0.68206465 -0.02834997 0.19118938
0.6820609 -0.027827399 0.19118154
0.68205714 -0.027304828 0.19117369
0.68297392 -0.026636584 0.19161046
0.68297017 -0.026115607 0.19160263
0.68296647 -0.025594635 0.19159482
0.68296272 -0.025073655 0.191587
0.68387955 -0.024413373 0.1920239
0.68387586 -0.023893991 0.19201609
0.6838721 -0.02337461 0.1920083
0.68386835 -0.022855226 0.19200051
0.68386465 -0.022335844 0.19199272
0.6838609 -0.021816462 0.19198491
0.68385714 -0.021297075 0.19197711
0.68385345 -0.020777693 0.19196932
0.68384969 -0.020258311 0.19196153
0.68476665 -0.019613964 0.19239864
0.68476295 -0.019096173 0.19239087
0.6847592 -0.018578384 0.1923831
0.6847555 -0.018060597 0.19237532
0.68475175 -0.017542807 0.19236755
0.68474805 -0.017025016 0.19235978
0.6847443 -0.016507225 0.192352
0.6847406 -0.015989436 0.19234423
0.68473685 -0.015471647 0.19233645
0.68473315 -0.014953859 0.19232868
0.6847294 -0.014436069 0.19232091
0.6847257 -0.013918279 0.19231313
0.68472195 -0.01340049 0.19230537
0.68471819 -0.012882698 0.19229759
0.6847145 -0.012364908 0.19228981
0.68471074 -0.01184712 0.19228205
0.68470705 -0.01132933 0.19227427
0.68470329 -0.010811541 0.19226649
0.68469959 -0.010293751 0.19225873
0.68469584 -0.0097759636 0.19225095
0.68469214 -0.0092581734 0.19224317
0.68468839 -0.0087403813 0.19223541
0.68468469 -0.008222593 0.19222763
0.68468094 -0.0077048023 0.19221985
0.68467724 -0.007187014 0.19221209
0.68467349 -0.0066692238 0.19220431
0.68466979 -0.0061514359 0.19219655
0.68466604 -0.0056336457 0.19218877
0.68466234 -0.0051158573 0.19218099
0.68465859 -0.0045980653 0.19217323
0.68465489 -0.0040802769 0.19216545
0.68465114 -0.0035624867 0.19215767
0.68372637 -0.0031186799 0.19170421
0.68372262 -0.0025992976 0.19169642
0.68371886 -0.002079915 0.19168863
0.68371516 -0.0015605324 0.19168083
0.68371141 -0.00104115 0.19167303
0.68370765 -0.00052176736 0.19166523
0.68278277 -6.6809138e-05 0.1912116
0.68277901 0.00045416757 0.19120377
0.68277526 0.00097514241 0.19119595
0.68185037 0.0014364742 0.19074222
0.68184662 0.0019590433 0.19073437
0.6818428 0.0024816133 0.19072653
0.6809178 0.0029493158 0.1902727
0.68091404 0.0034734781 0.19026484
0.68091029 0.0039976416 0.19025697
0.67998528 0.0044717183 0.18980305
0.67998147 0.0049974732 0.18979515
0.67905641 0.0054763285 0.18934116
0.67905259 0.0060036783 0.18933325
0.67904884 0.0065310271 0.18932532
0.67812371 0.007016256 0.18887125
0.6781199 0.0075451983 0.18886331
0.67719477 0.0080352072 0.18840915
0.67719096 0.0085657425 0.18840119
0.67626578 0.00906053 0.18794695
0.67626196 0.0095926588 0.18793896
0.67533672 0.010092227 0.18748467
0.67441148 0.010594981 0.1870303
0.67440766 0.011130296 0.18702227
0.67348236 0.011637829 0.18656786
0.67255706 0.012148549 0.18611337
0.67255318 0.012687051 0.1861053
0.67162788 0.013202551 0.18565075
0.67070258 0.013721237 0.18519618
0.66977715 0.014243109 0.18474153
0.66885179 0.014768168 0.18428685
0.66884786 0.015313042 0.18427867
0.66792244 0.015842881 0.1838239
0.66699696 0.016375907 0.1833691
0.66607147 0.016912118 0.18291424
0.66514599 0.017451515 0.18245934
0.66514206 0.018002762 0.18245107
0.66421652 0.018546939 0.18199611
0.66329092 0.019094303 0.18154107
0.66328692 0.019648736 0.18153276
0.66236138 0.02020088 0.18107766
0.66235739 0.020756906 0.18106931
0.6623534 0.021312932 0.18106097
0.66142774 0.021871449 0.18060577
0.66142368 0.022429068 0.18059741
0.66141969 0.022986688 0.18058904
0.6614157 0.023544308 0.18058066
0.66874105 -0.050830111 0.18439598
0.66873711 -0.050283648 0.18438779
0.66873318 -0.049737178 0.18437958
0.66964841 -0.048986074 0.18481636
0.66964447 -0.04844119 0.18480818
0.66964054 -0.047896322 0.1848
0.67055583 -0.047151588 0.18523687
0.6705519 -0.046608306 0.18522872
0.67146724 -0.045868352 0.18566567
0.67146331 -0.045326669 0.18565753
0.67237866 -0.044591498 0.18609455
0.67237478 -0.044051401 0.18608645
0.67329013 -0.043321013 0.18652353
0.67328626 -0.042782512 0.18651544
0.67328238 -0.042244013 0.18650736
0.67419785 -0.041519988 0.18694454
0.67419398 -0.040983077 0.18693648
0.67510939 -0.040263839 0.18737373
0.67510557 -0.039728522 0.1873657
0.6751017 -0.039193213 0.18735766
0.67601722 -0.038480338 0.18779503
0.67601335 -0.037946619 0.18778701
0.67692888 -0.037238531 0.18822442
0.67692506 -0.036706399 0.18821643
0.67784065 -0.03600309 0.18865395
0.67783684 -0.035472557 0.18864597
0.67875242 -0.034774028 0.18908353
0.67874861 -0.034245085 0.1890756
0.67874479 -0.03371615 0.18906766
0.67966044 -0.033023991 0.18950532
0.67965668 -0.032496646 0.1894974
0.68057239 -0.031809263 0.18993513
0.68056858 -0.031283505 0.18992725
0.68056482 -0.030757753 0.18991935
0.68056101 -0.030231994 0.18991145
0.68147671 -0.02955259 0.19034931
0.68147296 -0.029028425 0.19034144
0.6814692 -0.028504264 0.19033358
0.68238503 -0.027831221 0.19077154
0.68238121 -0.02730865 0.19076368
0.68237746 -0.026786083 0.19075584
0.6823737 -0.026263513 0.19074799
0.68328953 -0.025598446 0.19118606
0.68328577 -0.025077466 0.19117823
0.68328208 -0.024556493 0.19117042
0.68327832 -0.024035515 0.1911626
0.68419421 -0.023378409 0.19160078
0.68419051 -0.022859026 0.19159299
0.68418676 -0.022339644 0.1915852
0.684183 -0.021820262 0.1915774
0.68417925 -0.021300875 0.1915696
0.68417555 -0.020781493 0.1915618
0.6841718 -0.020262111 0.19155401
0.68416804 -0.019742727 0.19154622
0.68416435 -0.019223345 0.19153841
0.68416059 -0.018703964 0.19153062
0.68415684 -0.01818458 0.19152282
0.68415314 -0.017665198 0.19151503
0.68414938 -0.017145814 0.19150722
0.68506545 -0.016511012 0.19194575
0.68506169 -0.015993224 0.19193797
0.685058 -0.015475436 0.1919302
0.68505424 -0.014957648 0.19192243
0.68505055 -0.014439858 0.19191465
0.68504679 -0.013922067 0.19190688
0.6850431 -0.013404279 0.19189911
0.68503934 -0.012886487 0.19189134
0.68503565 -0.012368697 0.19188356
0.68503189 -0.011850908 0.19187579
0.6850282 -0.011333118 0.19186802
0.68502444 -0.01081533 0.19186024
0.68502074 -0.01029754 0.19185247
0.68501699 -0.0097797513 0.1918447
0.68501329 -0.0092619611 0.19183692
0.68500954 -0.008744169 0.19182914
0.68500584 -0.0082263807 0.19182138
0.68500209 -0.0077085905 0.1918136
0.68499839 -0.0071908021 0.19180582
0.68499464 -0.0066730124 0.19179806
0.68499094 -0.0061552241 0.19179028
0.68498719 -0.0056374338 0.19178252
0.68498349 -0.0051196455 0.19177474
0.68405968 -0.0046806275 0.19132009
0.68405592 -0.0041612447 0.1913123
0.68405223 -0.0036418624 0.1913045
0.68404847 -0.0031224799 0.19129671
0.68404472 -0.0026030974 0.1912889
0.68404102 -0.0020837148 0.19128111
0.68311709 -0.001633549 0.1908263
0.6831134 -0.0011125723 0.19081847
0.68310964 -0.0005915974 0.19081065
0.68310589 -7.0620656e-05 0.19080283
0.68310213 0.00045035605 0.19079502
0.6821782 0.0009100819 0.19034006
0.68217444 0.001432651 0.19033222
0.68217069 0.00195522 0.19032437
0.6812467 0.0024213186 0.18986931
0.68124288 0.0029454809 0.18986145
0.68123913 0.0034696434 0.18985358
0.68031514 0.0039421162 0.18939844
0.68031132 0.004467872 0.18939054
0.68030757 0.0049936264 0.18938264
0.67938346 0.0054724705 0.1889274
0.67937964 0.0059998203 0.18891948
0.67845559 0.006483444 0.18846418
0.67845178 0.0070123863 0.18845624
0.67752761 0.007500791 0.18800086
0.67752379 0.0080313254 0.1879929
0.67659962 0.0085245091 0.18753743
0.67659581 0.0090566371 0.18752944
0.67567158 0.0095546003 0.18707392
0.67474735 0.01005575 0.18661833
0.67474347 0.010591065 0.1866103
0.67381924 0.011096993 0.18615465
0.67381537 0.011633901 0.18614659
0.67289108 0.012144609 0.18569086
0.67196673 0.012658505 0.1852351
0.67196286 0.013198599 0.18522699
0.67103851 0.013717274 0.18477117
0.6701141 0.014239135 0.18431526
0.66918969 0.014764182 0.18385933
0.66826528 0.015292415 0.18340334
0.66734082 0.015823836 0.18294732
0.66733688 0.016371896 0.1829391
0.66641235 0.016908096 0.18248299
0.66548789 0.017447483 0.18202683
0.66456336 0.017990055 0.18157065
0.66363877 0.018535813 0.18111439
0.66363478 0.019090246 0.18110606
0.66271019 0.019640785 0.18064976
0.6627062 0.020196812 0.18064141
0.6627022 0.020752838 0.18063307
0.66177756 0.02130975 0.18017663
0.66177356 0.021867368 0.18016827
0.66176957 0.022424988 0.1801599
0.66176552 0.022982609 0.18015152
0.66176152 0.023540229 0.18014315
0.66816574 -0.051591594 0.1835293
0.66816181 -0.051043529 0.18352108
0.66815788 -0.050495476 0.18351285
0.66815394 -0.049947411 0.18350463
0.66906816 -0.049194708 0.18394262
0.66906422 -0.048648238 0.18393442
0.66906029 -0.048101775 0.18392621
0.66997457 -0.047355436 0.18436432
0.67088884 -0.046612281 0.18480246
0.67088497 -0.046069 0.18479431
0.6717993 -0.045330629 0.18523254
0.67271364 -0.044595446 0.18567079
0.67270976 -0.044055354 0.18566269
0.6736241 -0.043324951 0.18610102
0.67362022 -0.042786449 0.18609293
0.67361635 -0.042247951 0.18608485
0.6745308 -0.041523915 0.18652329
0.67452693 -0.040987004 0.18651523
0.67452306 -0.0404501 0.18650718
0.67543757 -0.039732438 0.18694569
0.6754337 -0.039197128 0.18693766
0.67542982 -0.038661812 0.18692963
0.67634439 -0.037950523 0.18736826
0.67634052 -0.037416801 0.18736024
0.67725509 -0.036710292 0.18779893
0.67725128 -0.036178168 0.18779095
0.67816585 -0.035476439 0.18822972
0.67816204 -0.034945901 0.18822175
0.67815822 -0.034415368 0.1882138
0.67907286 -0.03372002 0.18865265
0.67906904 -0.03319107 0.18864471
0.67998374 -0.032500505 0.18908365
0.67997992 -0.03197315 0.18907572
0.67997611 -0.031445801 0.18906781
0.68089086 -0.0307616 0.18950684
0.6808871 -0.03023584 0.18949896
0.68088329 -0.029710088 0.18949106
0.68179804 -0.02903226 0.18993019
0.68179429 -0.028508099 0.18992232
0.68179053 -0.027983934 0.18991445
0.68178672 -0.027459772 0.18990658
0.68270159 -0.026789907 0.19034584
0.68269783 -0.026267337 0.19033799
0.68269402 -0.025744768 0.19033015
0.68269026 -0.025222197 0.19032231
0.68360513 -0.024560304 0.19076166
0.68360138 -0.024039328 0.19075385
0.68359768 -0.023518352 0.19074602
0.68359393 -0.022997374 0.1907382
0.68359017 -0.022476401 0.19073038
0.68358642 -0.021955425 0.19072255
0.68450141 -0.021304674 0.19116211
0.68449765 -0.020785293 0.1911543
0.6844939 -0.020265911 0.19114651
0.68449014 -0.019746527 0.19113871
0.68448645 -0.019227145 0.19113092
0.68448269 -0.018707763 0.19112311
0.68447894 -0.01818838 0.19111532
0.68447524 -0.017668998 0.19110753
0.68447149 -0.017149614 0.19109973
0.68446773 -0.016630232 0.19109192
0.68446404 -0.01611085 0.19108413
0.68446028 -0.015591468 0.19107634
0.68445653 -0.015072085 0.19106854
0.68445283 -0.0145527 0.19106074
0.68444908 -0.014033318 0.19105294
0.68444532 -0.013513936 0.19104515
0.68444157 -0.012994551 0.19103736
0.68443787 -0.012475168 0.19102955
0.68443412 -0.011955786 0.19102176
0.68443036 -0.011436404 0.19101396
0.68534559 -0.010819118 0.19145399
0.68534184 -0.010301328 0.19144621
0.68533814 -0.0097835399 0.19143844
0.68533438 -0.0092657497 0.19143067
0.68533069 -0.0087479576 0.19142289
0.68532693 -0.0082301693 0.19141512
0.68532324 -0.0077123786 0.19140735
0.68531948 -0.0071945908 0.19139957
0.68531579 -0.0066768005 0.1913918
0.68439299 -0.0062425765 0.19093598
0.68438929 -0.0057231942 0.19092819
0.68438554 -0.0052038115 0.1909204
0.68438178 -0.0046844273 0.1909126
0.68437809 -0.0041650445 0.1909048
0.68437433 -0.0036456622 0.190897
0.68437058 -0.0031262797 0.19088921
0.68344772 -0.0026793121 0.19043317
0.68344396 -0.0021583373 0.19042537
0.68344021 -0.0016373604 0.19041754
0.68343645 -0.0011163837 0.19040972
0.6834327 -0.0005954089 0.1904019
0.68250978 -0.00013887933 0.18994574
0.68250602 0.00038368974 0.1899379
0.68250227 0.00090625876 0.18993005
0.68249851 0.0014288279 0.18992221
0.68157554 0.0018933206 0.18946593
0.68157178 0.0024174838 0.18945806
0.68156797 0.0029416461 0.18945019
0.68064499 0.0034125133 0.18899383
0.68064117 0.0039382698 0.18898593
0.68063742 0.0044640256 0.18897803
0.67971432 0.0049412642 0.18852156
0.67971051 0.0054686121 0.18851365
0.67878741 0.0059506334 0.18805711
0.6787836 0.0064795744 0.18804917
0.6778605 0.0069663743 0.18759257
0.67785668 0.0074969097 0.18758461
0.67693347 0.0079884874 0.18712792
0.67692965 0.0085206162 0.18711993
0.67600644 0.0090169739 0.18666317
0.67600262 0.0095506962 0.18665516
0.67507935 0.010051833 0.18619832
0.67507547 0.010587147 0.18619029
0.6741522 0.011093065 0.18573341
0.67322892 0.011602168 0.18527645
0.67322505 0.01214067 0.18526836
0.67230171 0.012654553 0.18481135
0.67137831 0.013171623 0.18435429
0.67137444 0.013713311 0.18434615
0.67045105 0.01423516 0.18388902
0.66952765 0.014760196 0.18343183
0.6686042 0.015288417 0.18297459
0.66768074 0.015819827 0.18251732
0.66675723 0.016354421 0.18205997
0.66675323 0.016904075 0.18205173
0.66582978 0.017443448 0.18159433
0.6649062 0.017986011 0.18113689
0.66398263 0.018531756 0.18067938
0.66397864 0.01908619 0.18067107
0.66305506 0.019636717 0.1802135
0.66305107 0.020192744 0.18020515
0.66304708 0.02074877 0.18019681
0.66212338 0.021305671 0.17973913
0.66211939 0.021863289 0.17973076
0.66211534 0.022420909 0.1797224
0.66211134 0.022978527 0.17971402
0.66210735 0.023536148 0.17970565
0.66759247 -0.052356299 0.18266015
0.66758853 -0.05180664 0.18265191
0.66758454 -0.051256988 0.18264365
0.6675806 -0.05070734 0.1826354
0.66757667 -0.050157681 0.18262716
0.66848987 -0.049403366 0.18306638
0.66848594 -0.048855301 0.18305816
0.6693992 -0.048105776 0.18349746
0.66939527 -0.047559306 0.18348925
0.67030859 -0.046814546 0.18392864
0.67030466 -0.04626967 0.18392046
0.67121798 -0.045529697 0.18435989
0.67213136 -0.044792905 0.18479939
0.67304468 -0.044059303 0.18523893
0.67304081 -0.04351921 0.18523082
0.67395419 -0.042790391 0.18567042
0.67395031 -0.042251892 0.18566234
0.67394644 -0.041713387 0.18565425
0.67485994 -0.04099093 0.18609397
0.67485607 -0.040454026 0.18608591
0.67485219 -0.039917115 0.18607785
0.67576569 -0.039201047 0.18651766
0.67576182 -0.038665727 0.18650961
0.675758 -0.038130414 0.18650158
0.67667156 -0.037420705 0.18694149
0.67666769 -0.036886983 0.18693347
0.67758131 -0.036182061 0.18737343
0.67757744 -0.035649933 0.18736544
0.67849106 -0.034949783 0.1878055
0.67848724 -0.03441925 0.18779753
0.67848343 -0.033888716 0.18778957
0.67939711 -0.033194941 0.18822971
0.67939329 -0.032666005 0.18822177
0.68030697 -0.031977009 0.18866196
0.68030316 -0.031449657 0.18865405
0.6802994 -0.030922312 0.18864614
0.68121314 -0.030239686 0.18908645
0.68120939 -0.029713934 0.18907855
0.68120557 -0.029188178 0.18907066
0.68120182 -0.028662423 0.18906277
0.68211555 -0.027987769 0.18950319
0.6821118 -0.027463607 0.18949533
0.68210804 -0.026939446 0.18948746
0.6830219 -0.026271159 0.18992798
0.68301815 -0.025748592 0.18992014
0.68301439 -0.025226021 0.18991229
0.68301064 -0.024703454 0.18990445
0.68300688 -0.024180884 0.1898966
0.68392074 -0.023522163 0.19033727
0.68391699 -0.023001187 0.19032945
0.68391329 -0.022480212 0.19032162
0.68390954 -0.021959236 0.1903138
0.68390578 -0.02143826 0.19030598
0.68390203 -0.020917283 0.19029815
0.68389827 -0.020396305 0.19029033
0.68389452 -0.019875329 0.19028252
0.68480855 -0.019230945 0.1907234
0.6848048 -0.018711563 0.19071561
0.6848011 -0.01819218 0.1907078
0.68479735 -0.017672798 0.19070001
0.68479359 -0.017153416 0.19069222
0.6847899 -0.016634032 0.19068442
0.68478614 -0.01611465 0.19067661
0.68478239 -0.015595268 0.19066882
0.68477863 -0.015075885 0.19066103
0.68477494 -0.0145565 0.19065323
0.68477118 -0.014037118 0.19064543
0.68476743 -0.013517736 0.19063763
0.68476373 -0.012998351 0.19062984
0.68475997 -0.012478968 0.19062205
0.68475622 -0.011959586 0.19061424
0.68475252 -0.011440204 0.19060645
0.68474877 -0.010920821 0.19059865
0.68474501 -0.010401439 0.19059086
0.68474126 -0.0098820562 0.19058305
0.68473756 -0.0093626734 0.19057526
0.68473381 -0.0088432888 0.19056746
0.68473005 -0.0083239069 0.19055967
0.68472636 -0.0078045242 0.19055186
0.6847226 -0.0072851414 0.19054407
0.68471885 -0.0067657591 0.19053628
0.68471515 -0.0062463763 0.19052848
0.6847114 -0.005726994 0.19052067
0.68470764 -0.0052076117 0.19051288
0.68470389 -0.0046882271 0.19050509
0.68470019 -0.0041688448 0.19049729
0.68469644 -0.003649462 0.19048949
0.68377459 -0.0032041003 0.19003224
0.68377084 -0.0026831236 0.19002442
0.68376708 -0.0021621487 0.1900166
0.68376333 -0.001641172 0.19000879
0.68375957 -0.0011201953 0.19000097
0.68283767 -0.00066527154 0.18954359
0.68283391 -0.00014270251 0.18953574
0.68283015 0.00037986654 0.1895279
0.6828264 0.00090243563 0.18952005
0.68190438 0.0013653244 0.18906254
0.68190062 0.0018894857 0.18905467
0.68189681 0.0024136491 0.1890468
0.68097484 0.0028829121 0.1885892
0.68097103 0.0034086667 0.18858132
0.68096727 0.0039344234 0.18857342
0.68004519 0.0044100573 0.18811572
0.68004137 0.0049374062 0.1881078
0.67911929 0.0054178205 0.18765004
0.67911547 0.0059467633 0.18764211
0.67819333 0.0064319572 0.18718427
0.67818952 0.0069624931 0.18717632
0.6781857 0.0074930284 0.18716834
0.6772635 0.0079845944 0.1867104
0.67725968 0.0085167224 0.18670242
0.67633742 0.0090130689 0.18624441
0.67541516 0.0095126014 0.18578635
0.67541134 0.010047916 0.18577832
0.67448908 0.010552229 0.1853202
0.67448521 0.011089138 0.18531214
0.67356288 0.011598228 0.18485394
0.67264056 0.012110507 0.1843957
0.67263663 0.012650602 0.18438759
0.67171431 0.013167661 0.18392928
0.67079186 0.013687904 0.1834709
0.66986948 0.014211335 0.1830125
0.66894704 0.014737953 0.18255404
0.66894311 0.01528442 0.18254583
0.66802061 0.015815817 0.1820873
0.6670981 0.0163504 0.18162872
0.6661756 0.01688817 0.18117011
0.66525304 0.017429126 0.18071143
0.66524911 0.017981965 0.18070313
0.66432649 0.018527701 0.18024437
0.66340387 0.019076623 0.17978559
0.66339988 0.019632649 0.17977723
0.66339588 0.020188676 0.17976889
0.6624732 0.020743972 0.17930999
0.66246921 0.02130159 0.17930163
0.66246521 0.02185921 0.17929326
0.66246122 0.02241683 0.17928489
0.66245717 0.022974448 0.17927651
0.66792941 -0.051810659 0.18222065
0.66792542 -0.051261012 0.1822124
0.66792148 -0.05071136 0.18220414
0.66791755 -0.050161704 0.1821959
0.66791356 -0.049612053 0.18218765
0.66790962 -0.049062397 0.18217939
0.66882187 -0.048311256 0.18261993
0.66973418 -0.047563303 0.1830605
0.66973025 -0.047016837 0.18305229
0.67064255 -0.04627366 0.18349294
0.67155492 -0.045533668 0.18393363
0.67246729 -0.044796869 0.18437439
0.67246336 -0.044255178 0.18436626
0.67337579 -0.043523163 0.18480706
0.67337191 -0.042983066 0.18479896
0.67428428 -0.042255834 0.18523984
0.67428041 -0.041717328 0.18523175
0.67427653 -0.041178826 0.18522367
0.67518902 -0.040457956 0.18566465
0.6751852 -0.039921045 0.18565661
0.67518133 -0.039384142 0.18564855
0.67609382 -0.038669646 0.18608962
0.67609 -0.038134333 0.18608157
0.67608613 -0.037599016 0.18607354
0.67699873 -0.036890887 0.18651472
0.67699486 -0.036357168 0.1865067
0.67790747 -0.035653826 0.18694794
0.67790365 -0.035121698 0.18693995
0.67881632 -0.034423131 0.18738128
0.6788125 -0.033892598 0.18737333
0.67880863 -0.033362057 0.18736535
0.67972136 -0.032669872 0.18780676
0.67971754 -0.032140929 0.18779881
0.68063021 -0.031453516 0.1882403
0.68062645 -0.030926172 0.18823238
0.68062264 -0.030398821 0.18822446
0.68061882 -0.029871475 0.18821655
0.68153167 -0.029192025 0.18865816
0.68152785 -0.028666269 0.18865027
0.6815241 -0.028140513 0.18864237
0.68243688 -0.027467441 0.18908407
0.68243313 -0.026943279 0.1890762
0.68242937 -0.026419114 0.18906833
0.68242556 -0.025894957 0.18906046
0.68333846 -0.025229843 0.1895023
0.68333471 -0.024707276 0.18949445
0.68333095 -0.024184706 0.18948661
0.6833272 -0.023662139 0.18947875
0.68332344 -0.023139568 0.18947092
0.68423635 -0.022484025 0.18991287
0.68423259 -0.021963047 0.18990505
0.68422884 -0.021442071 0.18989722
0.68422514 -0.020921094 0.1898894
0.68422139 -0.020400118 0.18988159
0.68421763 -0.01987914 0.18987377
0.68421388 -0.019358167 0.18986595
0.68421012 -0.018837191 0.18985812
0.68420637 -0.018316215 0.1898503
0.68420261 -0.017795241 0.18984248
0.68419886 -0.017274261 0.18983465
0.6841951 -0.016753284 0.18982685
0.68419141 -0.016232312 0.18981902
0.68418765 -0.015711334 0.1898112
0.68510079 -0.015079685 0.19025353
0.68509704 -0.0145603 0.19024573
0.68509328 -0.014040918 0.19023792
0.68508953 -0.013521535 0.19023013
0.68508583 -0.013002151 0.19022234
0.68508208 -0.012482768 0.19021454
0.68507832 -0.011963386 0.19020674
0.68507463 -0.011444003 0.19019894
0.68507087 -0.010924621 0.19019115
0.68506712 -0.010405239 0.19018336
0.68506342 -0.009885856 0.19017555
0.68505967 -0.0093664732 0.19016775
0.68505591 -0.0088470886 0.19015996
0.68505216 -0.0083277067 0.19015217
0.68504846 -0.0078083239 0.19014436
0.68504471 -0.0072889412 0.19013657
0.68504095 -0.0067695589 0.19012877
0.68503726 -0.0062501761 0.19012098
0.6850335 -0.0057307938 0.19011317
0.68502975 -0.0052114115 0.19010538
0.68410891 -0.0047708382 0.18964696
0.68410516 -0.0042498633 0.18963914
0.6841014 -0.0037288866 0.18963131
0.68409765 -0.0032079117 0.18962349
0.68409389 -0.002686935 0.18961567
0.6840902 -0.0021659601 0.18960786
0.68316925 -0.0017142328 0.18914928
0.68316549 -0.0011916638 0.18914142
0.68316174 -0.00066909468 0.18913358
0.68315798 -0.00014652564 0.18912573
0.68223703 0.00031316484 0.18866701
0.68223321 0.00083732622 0.18865915
0.68222946 0.0013614895 0.18865128
0.6822257 0.0018856509 0.18864341
0.68130469 0.0023533101 0.18818459
0.68130088 0.0028790657 0.18817671
0.68129712 0.0034048203 0.18816881
0.68037599 0.0038788503 0.18770988
0.68037224 0.0044061993 0.18770197
0.67945111 0.0048850095 0.18724298
0.67944729 0.0054139504 0.18723504
0.67852616 0.0058975415 0.18677598
0.67852235 0.006428076 0.18676803
0.67851853 0.0069586113 0.18676005
0.67759734 0.0074485731 0.18630089
0.67759353 0.0079807006 0.1862929
0.67667228 0.0084754433 0.18583368
0.67575103 0.0089733703 0.18537439
0.67574716 0.0095086852 0.18536635
0.67482591 0.010011394 0.184907
0.67482203 0.010548301 0.18489894
0.67390072 0.011055788 0.18443951
0.67389685 0.011594289 0.18443143
0.67297548 0.012106556 0.18397194
0.67205411 0.01262201 0.1835124
0.67205024 0.013163697 0.18350427
0.67112881 0.01368393 0.18304466
0.67020738 0.014207349 0.182585
0.66928595 0.014733954 0.18212529
0.66836447 0.015263746 0.18166552
0.66744292 0.015796725 0.18120572
0.66743898 0.016346378 0.18119746
0.6665175 0.016884137 0.1807376
0.66559595 0.017425081 0.18027768
0.66467434 0.017969212 0.17981769
0.66467035 0.018523645 0.17980938
0.66374874 0.019072555 0.17934933
0.66374475 0.019628581 0.17934099
0.66282308 0.020182272 0.17888086
0.66281909 0.020739891 0.1788725
0.66281503 0.021297511 0.17886412
0.66281104 0.021855131 0.17885575
0.66280705 0.022412749 0.17884737
0.66280299 0.022970369 0.17883901
0.66827029 -0.051814683 0.18178938
0.66735119 -0.051474489 0.18133123
0.66734719 -0.050923247 0.18132296
0.66825843 -0.050165724 0.18176463
0.66733927 -0.049820758 0.18130641
0.6682505 -0.049066417 0.18174814
0.66824657 -0.048516769 0.18173988
0.66915786 -0.047767203 0.18218169
0.66915393 -0.047219139 0.18217346
0.67006522 -0.046474364 0.18261532
0.67097658 -0.04573277 0.18305726
0.67188793 -0.044994369 0.18349922
0.67279935 -0.044259142 0.18394125
0.6737107 -0.043527115 0.1843833
0.67370683 -0.042987019 0.1843752
0.67461824 -0.042259771 0.18481733
0.67461437 -0.041721266 0.18480925
0.6746105 -0.041182764 0.18480116
0.67460662 -0.040644266 0.18479308
0.67551816 -0.039924972 0.18523534
0.67551428 -0.039388068 0.18522727
0.67551047 -0.038851157 0.18521923
0.676422 -0.038138248 0.18566157
0.67641813 -0.037602931 0.18565354
0.67641425 -0.037067614 0.18564549
0.6773259 -0.036361072 0.18608795
0.67732203 -0.03582735 0.18607993
0.67823368 -0.035125595 0.18652245
0.67822981 -0.034593459 0.18651447
0.67914152 -0.033896476 0.18695706
0.67913771 -0.033365939 0.1869491
0.67913389 -0.032835409 0.18694113
0.68004555 -0.0321448 0.18738382
0.68004179 -0.031615857 0.18737587
0.68003798 -0.031086916 0.18736793
0.68094969 -0.030402679 0.1878107
0.68094593 -0.029875332 0.18780279
0.68094212 -0.02934798 0.18779486
0.68185395 -0.028670115 0.18823776
0.68185014 -0.02814436 0.18822986
0.68184638 -0.027618602 0.18822198
0.68184257 -0.02709285 0.18821408
0.6827544 -0.02642295 0.18865708
0.68275064 -0.025898792 0.18864921
0.68274689 -0.025374627 0.18864134
0.68274313 -0.024850465 0.18863347
0.68365502 -0.02418853 0.18907659
0.68365127 -0.023665963 0.18906875
0.68364751 -0.023143392 0.1890609
0.68364376 -0.022620823 0.18905306
0.68364 -0.022098253 0.18904521
0.68363625 -0.021575682 0.18903737
0.68363249 -0.021053115 0.18902951
0.6845445 -0.020403929 0.18947282
0.68454075 -0.019882953 0.189465
0.68453699 -0.019361978 0.18945718
0.68453324 -0.018841002 0.18944936
0.68452948 -0.018320026 0.18944155
0.68452573 -0.017799053 0.18943372
0.68452197 -0.017278071 0.1894259
0.68451822 -0.016757095 0.18941808
0.68451446 -0.016236123 0.18941025
0.68451071 -0.015715146 0.18940243
0.68450701 -0.015194169 0.18939461
0.68450326 -0.014673196 0.1893868
0.6844995 -0.01415222 0.18937898
0.68449575 -0.013631242 0.18937115
0.68449199 -0.013110266 0.18936333
0.68448824 -0.012589289 0.18935551
0.68448448 -0.012068314 0.18934768
0.68448073 -0.011547338 0.18933986
0.68539298 -0.01092842 0.18978363
0.68538928 -0.010409039 0.18977584
0.68538553 -0.0098896557 0.18976805
0.68538177 -0.009370273 0.18976025
0.68537802 -0.0088508883 0.18975244
0.68537432 -0.0083315065 0.18974465
0.68537056 -0.0078121237 0.18973686
0.68536681 -0.0072927414 0.18972906
0.68444699 -0.0068585547 0.18926948
0.68444324 -0.0063375798 0.18926166
0.68443954 -0.0058166031 0.18925384
0.68443578 -0.0052956282 0.18924601
0.68443203 -0.0047746496 0.18923819
0.68442827 -0.0042536748 0.18923037
0.68442452 -0.0037326983 0.18922256
0.68442076 -0.0032117234 0.18921474
0.68350089 -0.0027631943 0.18875495
0.68349713 -0.0022406252 0.18874711
0.68349338 -0.001718056 0.18873926
0.68348962 -0.001195487 0.18873142
0.68348587 -0.00067291793 0.18872356
0.68256587 -0.00021483327 0.18826362
0.68256205 0.00030933 0.18825576
0.6825583 0.00083349139 0.18824789
0.68255454 0.0013576547 0.18824002
0.68163455 0.001823707 0.18777998
0.68163073 0.0023494635 0.18777208
0.68071067 0.0028202944 0.18731196
0.68070686 0.0033476423 0.18730403
0.68070304 0.003874992 0.18729612
0.67978299 0.0043521975 0.18683591
0.67977917 0.0048811394 0.18682797
0.678859 0.005363124 0.18636769
0.67885518 0.0058936602 0.18635973
0.67885137 0.0064241947 0.18635176
0.67793119 0.0069125514 0.18589137
0.67792737 0.0074446802 0.18588339
0.67700714 0.0079378169 0.18542293
0.67700332 0.0084715383 0.18541491
0.67608303 0.0089694541 0.18495438
0.67607915 0.009504769 0.18494634
0.67515892 0.010007465 0.18448575
0.67515504 0.010544374 0.18447769
0.67423469 0.011051848 0.184017
0.67331433 0.01156251 0.18355629
0.67331046 0.012102605 0.18354818
0.6723901 0.012618047 0.18308739
0.67146969 0.013136674 0.18262655
0.67054921 0.013658489 0.18216567
0.67054534 0.014203363 0.18215749
0.66962487 0.014729956 0.18169652
0.66870439 0.015259737 0.18123552
0.66778386 0.015792703 0.18077447
0.66686332 0.016328856 0.18031336
0.66594279 0.016868196 0.17985222
0.66593879 0.017421037 0.17984392
0.6650182 0.017965155 0.17938268
0.66409761 0.018512461 0.17892142
0.66409355 0.019068487 0.17891307
0.66408956 0.019624513 0.17890473
0.66316891 0.020178191 0.17844336
0.66316491 0.020735811 0.17843498
0.66316086 0.021293432 0.17842661
0.66315687 0.02185105 0.17841823
0.66315287 0.02240867 0.17840987
0.66769701 -0.052029774 0.18090701
0.66769302 -0.051478524 0.18089873
0.66768909 -0.050927278 0.18089046
0.66768509 -0.050376028 0.18088217
0.66768116 -0.049824789 0.1808739
0.66767716 -0.049273539 0.18086563
0.66767323 -0.048722293 0.18085735
0.66858351 -0.047971129 0.18130037
0.66857952 -0.047421474 0.18129212
0.6713106 -0.045191884 0.18262157
0.67222095 -0.044455059 0.1830648
0.67313141 -0.043721423 0.18350811
0.67404181 -0.042990968 0.18395144
0.67403793 -0.042450879 0.18394333
0.67494839 -0.041725207 0.18438675
0.67494452 -0.041186705 0.18437865
0.67494065 -0.040648207 0.18437058
0.67493677 -0.040109701 0.18436249
0.67584729 -0.039391998 0.18480603
0.67584342 -0.038855087 0.18479797
0.67583954 -0.038318183 0.18478991
0.67675012 -0.037606847 0.18523352
0.67674625 -0.03707153 0.18522549
0.67674243 -0.03653622 0.18521746
0.67765307 -0.035831254 0.18566118
0.6776492 -0.035297535 0.18565316
0.67855984 -0.034597352 0.18609695
0.67855603 -0.034065228 0.18608896
0.67946672 -0.033369821 0.18653284
0.67946291 -0.032839291 0.18652488
0.6794591 -0.032308754 0.18651691
0.68036979 -0.031619724 0.18696088
0.68036598 -0.031090785 0.18695293
0.68036216 -0.03056184 0.18694499
0.68127298 -0.029879192 0.18738903
0.68126917 -0.029351838 0.18738112
0.68126535 -0.028824491 0.18737321
0.6812616 -0.028297141 0.18736528
0.68217242 -0.027622448 0.18780947
0.68216866 -0.027096696 0.18780157
0.68216485 -0.026570937 0.18779369
0.68216109 -0.026045185 0.18778579
0.68307197 -0.025378462 0.18823008
0.68306816 -0.024854301 0.18822221
0.6830644 -0.024330135 0.18821435
0.68306065 -0.023805974 0.18820648
0.68397158 -0.023147214 0.18865089
0.68396783 -0.022624647 0.18864305
0.68396407 -0.022102077 0.18863522
0.68396032 -0.021579506 0.18862736
0.68395656 -0.021056939 0.18861952
0.68395281 -0.020534366 0.18861167
0.68394905 -0.020011799 0.18860383
0.6839453 -0.019489229 0.18859598
0.68394154 -0.018966662 0.18858814
0.68393779 -0.018444095 0.18858029
0.68393403 -0.017921524 0.18857245
0.68484509 -0.017281884 0.18901715
0.68484133 -0.016760906 0.18900932
0.68483758 -0.016239934 0.1890015
0.68483382 -0.015718957 0.18899368
0.68483007 -0.01519798 0.18898587
0.68482631 -0.014677008 0.18897805
0.68482262 -0.01415603 0.18897022
0.68481886 -0.013635054 0.1889624
0.68481511 -0.013114078 0.18895458
0.68481135 -0.012593101 0.18894675
0.6848076 -0.012072126 0.18893893
0.68480384 -0.011551149 0.18893112
0.68480009 -0.011030175 0.1889233
0.68479633 -0.010509198 0.18891548
0.68479258 -0.0099882232 0.18890765
0.68478882 -0.0094672479 0.18889983
0.68478513 -0.0089462698 0.18889201
0.68478137 -0.0084252926 0.18888418
0.68477762 -0.0079043182 0.18887638
0.68477386 -0.007383341 0.18886855
0.68477011 -0.0068623661 0.18886073
0.68476635 -0.0063413912 0.18885291
0.6847626 -0.0058204145 0.18884508
0.68475884 -0.0052994397 0.18883726
0.68475509 -0.0047784611 0.18882944
0.68383622 -0.0043347245 0.18836848
0.68383247 -0.0038121555 0.18836063
0.68382871 -0.0032895864 0.18835279
0.68382496 -0.0027670173 0.18834494
0.6838212 -0.0022444483 0.1883371
0.68381745 -0.0017218792 0.18832926
0.68289846 -0.0012669928 0.18786812
0.68289471 -0.00074282946 0.18786025
0.68289095 -0.00021866805 0.18785238
0.68288714 0.0003054952 0.18784451
0.68196815 0.00076834933 0.18738326
0.68196434 0.001294105 0.18737537
0.68196058 0.0018198605 0.18736747
0.68104148 0.0022890873 0.18690611
0.68103772 0.0028164363 0.1868982
0.68103391 0.0033437843 0.18689029
0.68011481 0.0038193865 0.18642886
0.68011099 0.0043483279 0.18642092
0.67919189 0.0048287078 0.1859594
0.67918807 0.0053592422 0.18595144
0.67918426 0.0058897785 0.18594347
0.67826504 0.0063765296 0.18548185
0.67826122 0.0069086584 0.18547386
0.677342 0.0074001905 0.18501219
0.67733812 0.0079339128 0.18500417
0.6764189 0.008430223 0.1845424
0.67641503 0.0089655379 0.18453437
0.67549574 0.0094666295 0.18407255
0.67549187 0.010003537 0.18406449
0.67457253 0.010509407 0.18360259
0.67456865 0.011047908 0.18359451
0.67364931 0.011558559 0.18313254
0.67272991 0.012072396 0.18267052
0.67272604 0.012614083 0.1826624
0.67180657 0.0131327 0.1822003
0.67088717 0.013654502 0.18173817
0.66996771 0.014179491 0.18127596
0.66904819 0.014707667 0.18081374
0.66812867 0.015239028 0.18035145
0.66812474 0.015788682 0.18034321
0.66720521 0.016324824 0.17988086
0.66628563 0.016864153 0.17941846
0.66536599 0.017406667 0.178956
0.66444641 0.017952368 0.17849351
0.66444242 0.018508393 0.17848517
0.66352272 0.019058874 0.17802259
0.66351873 0.019616492 0.17801422
0.66351473 0.020174112 0.17800584
0.66351074 0.020731732 0.17799748
0.66350669 0.021289352 0.17798911
0.66258699 0.02184939 0.1775264
0.6634987 0.022404591 0.17797236
0.66712177 -0.051692046 0.18001382
0.66711777 -0.051139206 0.18000552
0.66711378 -0.050586361 0.17999722
0.66710186 -0.048927844 0.17997232
0.66709787 -0.048375007 0.17996402
0.66800714 -0.047623832 0.18040828
0.66891646 -0.046875846 0.18085261
0.66982585 -0.046131037 0.18129699
0.67164457 -0.044650994 0.18218589
0.67255396 -0.043915756 0.1826304
0.6734634 -0.043183696 0.18307497
0.67437285 -0.042454828 0.18351957
0.67436898 -0.041914731 0.18351147
0.67527848 -0.041190643 0.18395615
0.67527461 -0.040652145 0.18394807
0.67527074 -0.040113639 0.18393998
0.67526686 -0.039575141 0.1839319
0.67617643 -0.038859013 0.1843767
0.67617255 -0.03832211 0.18436866
0.67616868 -0.037785199 0.18436059
0.67707825 -0.037075445 0.18480548
0.67707443 -0.036540136 0.18479744
0.67707056 -0.036004819 0.1847894
0.67798024 -0.035301439 0.18523441
0.67797637 -0.034767713 0.1852264
0.67888606 -0.034069121 0.18567146
0.67888218 -0.033536989 0.18566348
0.67979193 -0.032843173 0.18610862
0.67978811 -0.032312632 0.18610066
0.6797843 -0.031782094 0.18609269
0.68069404 -0.031094655 0.18653792
0.68069023 -0.030565711 0.18652998
0.68068641 -0.03003677 0.18652204
0.68159622 -0.029355695 0.18696736
0.6815924 -0.028828349 0.18695945
0.68158865 -0.028301001 0.18695153
0.68158484 -0.02777365 0.18694362
0.6824947 -0.027100543 0.18738908
0.68249094 -0.026574783 0.18738118
0.68248713 -0.026049031 0.18737328
0.68248338 -0.025523275 0.1873654
0.68247956 -0.024997519 0.1873575
0.68338948 -0.024333971 0.18780309
