# .PCD v0.7 - Point Cloud Data file format
VERSION 0.7
FIELDS x y z
SIZE 4 4 4
TYPE F F F
COUNT 1 1 1
WIDTH 1360
HEIGHT 1
VIEWPOINT 0 0 0 1 0 0 0
POINTS 1360
DATA ascii
0.47223428 0.00024854936 0.025343912
0.47222745 0.0011965015 0.025329681
0.47222063 0.0021444557 0.025315451
0.4722138 0.0030924079 0.02530122
0.47220698 0.0040403609 0.025286989
0.47220016 0.0049883141 0.025272757
0.47219333 0.0059362673 0.025258526
0.47218651 0.006884221 0.025244296
0.47217971 0.0078321742 0.025230065
0.47217289 0.0087801274 0.025215834
0.47216606 0.0097280806 0.025201604
0.47215924 0.010676034 0.025187373
0.47215241 0.011623987 0.025173143
0.47214559 0.01257194 0.025158912
0.47213876 0.013519893 0.025144681
0.47213197 0.014467847 0.025130449
0.47212514 0.0154158 0.025116218
0.47125801 0.016355962 0.024577796
0.47125119 0.017305506 0.024563542
0.47124436 0.018255053 0.024549287
0.47123751 0.0192046 0.024535032
0.47123069 0.020154146 0.024520777
0.47122386 0.021103693 0.024506524
0.47121704 0.02205324 0.024492269
0.47121018 0.023002787 0.024478015
0.47120336 0.023952333 0.02446376
0.47205693 0.024895333 0.02497391
0.4720501 0.025843285 0.02495968
0.47204328 0.026791239 0.024945449
0.47203645 0.027739191 0.024931218
0.47202966 0.028687144 0.024916988
0.47202283 0.029635098 0.024902757
0.47201601 0.03058305 0.024888527
0.47200918 0.031531006 0.024874296
0.47286284 0.032459665 0.025384663
0.47285604 0.033406027 0.025370456
0.47284922 0.034352385 0.025356248
0.47284243 0.035298746 0.025342042
0.4728356 0.036245108 0.025327835
0.47282881 0.037191465 0.025313629
0.47282198 0.038137823 0.025299421
0.47281519 0.039084189 0.025285214
0.47280836 0.040030546 0.025271008
0.47280157 0.040976904 0.025256801
0.47279477 0.041923266 0.025242593
0.47278795 0.042869627 0.025228387
0.47278115 0.043815985 0.02521418
0.47277433 0.044762343 0.025199972
0.47276753 0.045708705 0.025185766
0.47276071 0.046655066 0.025171559
0.47275391 0.047601428 0.025157353
0.47274709 0.048547789 0.025143145
0.47187957 0.049542118 0.024603911
0.47187278 0.05049007 0.02458968
0.47186595 0.051438022 0.02457545
0.47185913 0.052385975 0.024561217
0.4718523 0.053333927 0.024546986
0.47098473 0.054337814 0.024007609
0.4709779 0.055287365 0.023993354
0.4701103 0.056296032 0.023453902
0.47010344 0.057247173 0.023439625
0.46923575 0.058260623 0.022900071
0.46750727 0.059341159 0.021835234
0.46577871 0.060428068 0.020770263
0.46405014 0.061521348 0.019705234
0.46318236 0.062552318 0.019165449
0.46145368 0.063656762 0.018100223
0.46058583 0.064695701 0.017560316
0.45885712 0.065811284 0.016494954
0.45712829 0.066933244 0.015429462
0.45626038 0.067984931 0.014889367
0.45539242 0.069039799 0.014349222
0.45280257 0.070257522 0.01275798
0.44849077 0.071647666 0.01011554
0.43815216 0.073634878 0.0037939404
0.43039617 0.075406484 -0.00095149106
0.46089917 -0.01480069 0.01746805
0.4608922 -0.013830432 0.017453484
0.46260315 -0.012748975 0.018488368
0.46431419 -0.011673889 0.019523378
0.46516624 -0.01065759 0.02003368
0.4668704 -0.0086345552 0.021054428
0.46772256 -0.0076278145 0.021564905
0.46943372 -0.0065782201 0.022600267
0.47028592 -0.0055794474 0.023110827
0.47113818 -0.0045838603 0.023621472
0.47113132 -0.0036327206 0.023607193
0.47112447 -0.0026815808 0.023592914
0.47197673 -0.0016923668 0.024103623
0.4719699 -0.00074282126 0.024089368
0.47196305 0.00020672614 0.024075113
0.47195622 0.0011562717 0.024060858
0.4719494 0.0021058191 0.024046604
0.47280172 0.0030854726 0.024557456
0.47279489 0.0040334258 0.024543226
0.47278807 0.004981379 0.024528995
0.47278124 0.0059293322 0.024514765
0.47277442 0.0068772859 0.024500534
0.47276762 0.0078252386 0.024486301
0.4727608 0.0087731928 0.024472071
0.47275397 0.009721145 0.02445784
0.47274715 0.010669098 0.02444361
0.47274032 0.011617051 0.024429379
0.4727335 0.012565005 0.024415148
0.47186741 0.013500375 0.023875548
0.47186059 0.014449921 0.023861293
0.47185373 0.015399468 0.023847038
0.47184691 0.016349014 0.023832783
0.47184008 0.017298561 0.023818528
0.47183326 0.018248107 0.023804273
0.4718264 0.019197654 0.023790019
0.47181958 0.020147201 0.023775764
0.47181275 0.021096747 0.023761509
0.47180593 0.022046292 0.023747254
0.47179908 0.022995839 0.023732999
0.47179225 0.023945386 0.023718745
0.47178543 0.024894932 0.023704492
0.4717786 0.025844479 0.023690237
0.47177175 0.026794024 0.023675982
0.47176492 0.027743571 0.023661727
0.4717581 0.028693119 0.023647472
0.47261074 0.029628163 0.024158994
0.47260392 0.030576115 0.024144763
0.47259709 0.03152407 0.024130533
0.47259027 0.032472022 0.024116302
0.47258344 0.033419974 0.024102071
0.47257662 0.034367926 0.024087841
0.47256979 0.035315882 0.024073608
0.472563 0.036263835 0.024059378
0.47255617 0.037211787 0.024045147
0.47254935 0.038159739 0.024030916
0.47254252 0.039107695 0.024016686
0.4725357 0.040055647 0.024002455
0.47252887 0.0410036 0.023988225
0.47252205 0.041951552 0.023973994
0.47251523 0.042899508 0.023959763
0.47250843 0.04384746 0.023945533
0.47250161 0.044795413 0.023931302
0.47249478 0.045743369 0.02391707
0.47248796 0.046691325 0.023902839
0.47248113 0.047639273 0.023888608
0.47247431 0.048587225 0.023874378
0.47246748 0.049535181 0.023860147
0.47246069 0.050483137 0.023845917
0.47245386 0.051431086 0.023831686
0.4715873 0.052431777 0.023291104
0.47158045 0.053381324 0.023276849
0.47157362 0.054330867 0.023262594
0.4715668 0.055280417 0.023248339
0.47070017 0.056289073 0.022707639
0.47069332 0.057240214 0.02269336
0.46982664 0.058253653 0.022152556
0.46810013 0.059334163 0.021085223
0.46637353 0.06042105 0.020017756
0.46550679 0.061447233 0.019476792
0.46464002 0.062476598 0.018935779
0.46291336 0.063579418 0.017868105
0.46204647 0.064616755 0.017326944
0.46117961 0.06565728 0.016785763
0.45945287 0.06677603 0.015717851
0.45772597 0.067901149 0.01464981
0.45685905 0.068954416 0.014108445
0.42845154 0.075652801 -0.0033357707
0.46236584 -0.015717657 0.017247256
0.46235886 -0.014748992 0.017232714
0.46235189 -0.013780326 0.017218173
0.46406093 -0.012700438 0.018255612
0.46491197 -0.011680941 0.018767118
0.46576303 -0.01066463 0.019278666
0.46661413 -0.0096515091 0.019790266
0.46746522 -0.0086415727 0.020301916
0.46831641 -0.00763482 0.020813644
0.46916756 -0.0066312547 0.021325387
0.47001874 -0.0056308778 0.021837175
0.47086993 -0.0046336856 0.022349015
0.4717212 -0.0036396792 0.022860933
0.47171438 -0.0026885394 0.022846654
0.47170752 -0.0017373997 0.022832377
0.47170067 -0.00078626006 0.022818098
0.47255194 0.0001997792 0.023330105
0.47254512 0.0011493247 0.023315851
0.47253829 0.0020988721 0.023301596
0.47253147 0.0030484176 0.023287341
0.47252461 0.0039979639 0.023273086
0.47251779 0.0049475105 0.023258831
0.47251096 0.0058970568 0.023244577
0.47250414 0.0068466035 0.023230322
0.47249728 0.0077961497 0.023216067
0.47249046 0.0087456964 0.023201812
0.47248363 0.0096952431 0.023187557
0.47247681 0.010644789 0.023173304
0.47246996 0.011594336 0.023159049
0.47246313 0.012543882 0.023144795
0.47245631 0.013493428 0.02313054
0.47244948 0.014442975 0.023116285
0.47244263 0.015392521 0.02310203
0.4724358 0.016342068 0.023087775
0.47157064 0.017285392 0.022546804
0.47156382 0.018236531 0.022532525
0.47155696 0.019187672 0.022518246
0.47155011 0.020138811 0.022503968
0.47154328 0.021089951 0.022489689
0.47153643 0.02204109 0.02247541
0.47152957 0.022992229 0.022461131
0.47152275 0.023943368 0.022446854
0.47151589 0.024894508 0.022432575
0.47150904 0.025845647 0.022418296
0.47150221 0.026796788 0.022404017
0.47149536 0.027747927 0.022389738
0.47234699 0.028686171 0.022902464
0.47234017 0.029635716 0.02288821
0.47233331 0.030585265 0.022873955
0.47232649 0.03153481 0.0228597
0.47231966 0.032484356 0.022845445
0.47231284 0.033433903 0.02283119
0.47230598 0.03438345 0.022816936
0.47229916 0.035332996 0.022802681
0.47229233 0.036282543 0.022788426
0.47228551 0.03723209 0.022774171
0.47227865 0.038181633 0.022759916
0.47227183 0.039131183 0.022745661
0.47226501 0.040080726 0.022731407
0.47225818 0.041030273 0.022717152
0.47225133 0.04197982 0.022702897
0.4722445 0.042929366 0.022688642
0.47223768 0.043878913 0.022674389
0.47223085 0.04482846 0.022660134
0.472224 0.045778003 0.02264588
0.47221717 0.046727553 0.022631625
0.47221035 0.0476771 0.02261737
0.47220352 0.048626643 0.022603115
0.47219667 0.049576189 0.02258886
0.47218984 0.05052574 0.022574605
0.47218302 0.051475283 0.022560351
0.47217619 0.052424829 0.022546096
0.47216934 0.053374376 0.022531841
0.47130373 0.054379832 0.021989938
0.47129691 0.055330977 0.021975659
0.47129005 0.056282114 0.02196138
0.47128323 0.057233255 0.021947101
0.46955869 0.058308966 0.020877302
0.46869296 0.05932717 0.02033521
0.46782726 0.060348563 0.019793067
0.46696144 0.061373141 0.019250846
0.46609569 0.0624009 0.018708607
0.464371 0.063502103 0.01763846
0.46350518 0.064537831 0.017096102
0.46263927 0.065576755 0.016553665
0.46091449 0.066693887 0.015483273
0.46004859 0.067740768 0.014940753
0.45832366 0.068869054 0.013870164
0.4646875 -0.016569413 0.017556079
0.46382356 -0.015664341 0.017014399
0.46381658 -0.01469727 0.016999882
0.46380964 -0.013730196 0.016985362
0.46465969 -0.012707501 0.017498102
0.46550977 -0.011687993 0.018010853
0.46635982 -0.010671671 0.018523658
0.46720994 -0.0096585378 0.019036509
0.46806005 -0.0086485893 0.019549403
0.46891025 -0.0076418249 0.020062381
0.46976042 -0.006638248 0.020575376
0.47061059 -0.0056378599 0.021088414
0.47146082 -0.0046406561 0.021601506
0.47145393 -0.0036879238 0.021587202
0.47230425 -0.0026954981 0.022100396
0.4722974 -0.0017443583 0.022086117
0.47229055 -0.00079321867 0.022071838
0.47228372 0.00015792105 0.022057559
0.47227687 0.0011090598 0.022043282
0.47227001 0.0020602006 0.022029003
0.47226319 0.0030113393 0.022014724
0.47311354 0.0039910171 0.022528073
0.47310668 0.0049405633 0.022513818
0.47309986 0.00589011 0.022499563
0.47309303 0.0068396563 0.022485308
0.47308621 0.007789203 0.022471054
0.47307935 0.0087387497 0.022456799
0.47307253 0.0096882954 0.022442544
0.4730657 0.010637842 0.022428289
0.47305888 0.011587388 0.022414034
0.47219473 0.012522736 0.021871937
0.47218791 0.013473875 0.021857658
0.47218105 0.014425014 0.021843381
0.47217423 0.015376154 0.021829102
0.47216737 0.016327294 0.021814823
0.47216052 0.017278433 0.021800544
0.47215369 0.018229572 0.021786267
0.47214684 0.019180713 0.021771988
0.47213998 0.020131852 0.021757709
0.47213316 0.021082992 0.02174343
0.47212631 0.022034131 0.021729151
0.47211948 0.02298527 0.021714874
0.47211263 0.02393641 0.021700595
0.47210577 0.024887551 0.021686316
0.47209895 0.025838688 0.021672036
0.47209209 0.026789829 0.021657759
0.47208524 0.027740968 0.02164348
0.47207841 0.02869211 0.021629201
0.47207156 0.029643247 0.021614922
0.4720647 0.030594388 0.021600643
0.47205788 0.031545527 0.021586366
0.47205102 0.032496665 0.021572087
0.4720442 0.033447806 0.021557808
0.47289491 0.034376502 0.022071922
0.47288805 0.035326049 0.022057667
0.47288123 0.036275595 0.022043413
0.4728744 0.037225142 0.022029158
0.47286758 0.038174689 0.022014903
0.47286072 0.039124236 0.022000648
0.4728539 0.040073778 0.021986393
0.47284707 0.041023325 0.021972138
0.47284025 0.041972872 0.021957884
0.4728334 0.042922419 0.021943629
0.47282657 0.043871965 0.021929374
0.47281975 0.044821512 0.021915119
0.47281292 0.045771059 0.021900864
0.47280607 0.046720605 0.021886609
0.47279924 0.047670152 0.021872357
0.47279242 0.048619699 0.021858102
0.47278559 0.049569242 0.021843847
0.47277874 0.050518792 0.021829592
0.47191414 0.051519457 0.021286514
0.47190732 0.052470598 0.021272235
0.47190046 0.053421739 0.021257957
0.47189364 0.054372873 0.021243678
0.47188678 0.055324018 0.021229399
0.47187993 0.056275155 0.02121512
0.47101521 0.057286978 0.020671839
0.47015053 0.058301985 0.020128541
0.46928582 0.059320178 0.0195852
0.46842107 0.060341556 0.019041806
0.46755627 0.061366122 0.018498333
0.46669149 0.062393874 0.017954849
0.46582669 0.063424811 0.01741131
0.46496186 0.064458936 0.016867725
0.46409702 0.065496244 0.016324097
0.46237415 0.066611767 0.015251198
0.46150926 0.067657046 0.014707451
0.46064433 0.068705507 0.01416365
0.45977938 0.069757149 0.013619801
0.45634043 0.071056165 0.011488036
0.45587772 -0.018241564 0.011001067
0.46527931 -0.015610999 0.016784068
0.46527237 -0.014645522 0.016769575
0.46526542 -0.013680041 0.01675508
0.46611449 -0.012658929 0.017269064
0.46610755 -0.011695045 0.017254593
0.46695665 -0.01067871 0.017768642
0.46780574 -0.0096655656 0.018282745
0.46779883 -0.0087048663 0.018268323
0.46864796 -0.007696501 0.018782491
0.47035325 -0.0066452418 0.019825365
0.47120246 -0.0056448416 0.020339653
0.47119558 -0.0046905153 0.020325327
0.47204483 -0.003694894 0.020839693
0.47203797 -0.002742161 0.02082539
0.47203112 -0.0017894282 0.020811088
0.47202426 -0.00083669514 0.020796785
0.4728736 0.0001509624 0.021311296
0.47286674 0.0011021012 0.021297017
0.47285992 0.0020532417 0.021282738
0.47285306 0.0030043805 0.021268459
0.47284621 0.0039555202 0.021254182
0.47283939 0.0049066595 0.021239903
0.47283253 0.0058577992 0.021225624
0.47282571 0.0068089389 0.021211345
0.47281885 0.0077600786 0.021197066
0.472812 0.0087112188 0.021182789
0.47280517 0.0096623581 0.021168509
0.47279832 0.010613497 0.02115423
0.47279146 0.011564637 0.021139951
0.47278464 0.012515777 0.021125672
0.47277778 0.013466916 0.021111395
0.47277096 0.014418056 0.021097116
0.4727641 0.015369195 0.021082837
0.47275725 0.016320335 0.021068558
0.47275043 0.017271474 0.021054281
0.47274357 0.018222613 0.021040002
0.47273672 0.019173754 0.021025723
0.47272989 0.020124894 0.021011444
0.47272304 0.021076033 0.020997165
0.47271618 0.022027172 0.020982888
0.47270936 0.022978311 0.020968609
0.4727025 0.023929451 0.02095433
0.47269568 0.024880592 0.02094005
0.47268882 0.025831729 0.020925773
0.47268197 0.02678287 0.020911494
0.47267514 0.02773401 0.020897215
0.47266829 0.028685151 0.020882936
0.47266144 0.029636288 0.020868657
0.47265461 0.030587429 0.02085438
0.47264776 0.031538568 0.020840101
0.4726409 0.032489706 0.020825822
0.47263408 0.033440847 0.020811543
0.47262722 0.034391988 0.020797266
0.4726204 0.035343125 0.020782987
0.47261354 0.036294267 0.020768708
0.47260669 0.037245404 0.020754429
0.47259986 0.038196545 0.02074015
0.47259301 0.039147686 0.020725872
0.47258615 0.040098824 0.020711593
0.47257933 0.041049961 0.020697314
0.47257248 0.042001102 0.020683035
0.47256562 0.042952243 0.020668756
0.4725588 0.043903381 0.020654479
0.47255194 0.044854522 0.0206402
0.47254512 0.045805663 0.020625921
0.47253826 0.0467568 0.020611642
0.47253141 0.047707941 0.020597365
0.47252458 0.048659079 0.020583086
0.47251773 0.04961022 0.020568807
0.47251087 0.050561361 0.020554528
0.47250405 0.051512498 0.020540249
0.4724972 0.05246364 0.020525971
0.47249034 0.053414781 0.020511692
0.47248352 0.054365914 0.020497413
0.47247666 0.055317059 0.020483134
0.47161296 0.056327276 0.019938633
0.47160611 0.057280008 0.01992433
0.4707424 0.058295004 0.01937978
0.46987867 0.059313182 0.018835189
0.46901491 0.060334552 0.018290544
0.46815109 0.061359107 0.017745819
0.46814421 0.06231821 0.017731421
0.46728039 0.063347548 0.017186662
0.46641657 0.064380065 0.01664185
0.46555272 0.06541577 0.016096996
0.46468884 0.066454664 0.015552088
0.4638249 0.067496747 0.015007107
0.46210402 0.068620205 0.013931623
0.46124005 0.069670245 0.013386547
0.45951906 0.070804864 0.012310864
0.46673307 -0.015557638 0.016556209
0.46587116 -0.014652585 0.016012063
0.46671921 -0.013629867 0.016527267
0.46756729 -0.012610336 0.01704252
0.46756035 -0.011648044 0.017028075
0.46755344 -0.01068575 0.017013628
0.46840155 -0.0096725943 0.017528981
0.4692497 -0.0086626234 0.018044377
0.46924278 -0.007703518 0.018029978
0.47009102 -0.0066983211 0.018545482
0.47093922 -0.0056963167 0.019060997
0.47178745 -0.0046974975 0.019576561
0.4717806 -0.0037431712 0.019562233
0.47177371 -0.002788845 0.019547908
0.47262198 -0.0017963984 0.020063572
0.47261512 -0.0008436655 0.02004927
0.47260827 0.00010906749 0.020034967
0.47260141 0.0010617996 0.020020664
0.47259456 0.0020145334 0.020006362
0.4725877 0.0029672654 0.019992059
0.47258085 0.0039199986 0.019977756
0.47342926 0.0048997011 0.020493638
0.47342244 0.0058508408 0.020479359
0.47341558 0.0068019805 0.02046508
0.47340873 0.0077531203 0.020450803
0.4734019 0.00870426 0.020436523
0.47339505 0.0096553992 0.020422244
0.4733882 0.010606539 0.020407965
0.47338137 0.011557679 0.020393686
0.47337452 0.012508818 0.020379409
0.47336766 0.013459957 0.02036513
0.47336084 0.014411097 0.020350851
0.47335398 0.015362237 0.020336572
0.47334716 0.016313376 0.020322295
0.47248489 0.017258259 0.019777521
0.47247803 0.01821099 0.019763218
0.47247118 0.019163724 0.019748915
0.47246432 0.020116458 0.019734614
0.47245747 0.02106919 0.01972031
0.47245061 0.022021923 0.019706009
0.47244376 0.022974655 0.019691706
0.4724369 0.023927389 0.019677402
0.47243005 0.024880121 0.019663101
0.4724232 0.025832854 0.019648798
0.47241634 0.026785588 0.019634496
0.47240949 0.02773832 0.019620193
0.47240263 0.028691053 0.01960589
0.47239578 0.029643785 0.019591589
0.47238892 0.030596519 0.019577285
0.47238207 0.031549253 0.019562982
0.47237518 0.032501984 0.019548681
0.47236833 0.033454716 0.019534377
0.47236148 0.034407448 0.019520076
0.47235462 0.035360184 0.019505773
0.47234777 0.036312915 0.019491469
0.47234091 0.037265647 0.019477168
0.47233406 0.038218379 0.019462865
0.4723272 0.039171115 0.019448562
0.47232035 0.040123846 0.01943426
0.47316921 0.041043006 0.019951049
0.47316235 0.041994143 0.01993677
0.47315553 0.042945284 0.019922493
0.47314867 0.043896422 0.019908214
0.47314182 0.044847563 0.019893935
0.47313499 0.045798704 0.019879656
0.47312814 0.046749841 0.019865379
0.47312132 0.047700983 0.0198511
0.47311446 0.04865212 0.019836821
0.47310761 0.049603261 0.019822542
0.47310078 0.050554402 0.019808263
0.47309393 0.05150554 0.019793985
0.47223124 0.052509371 0.019248327
0.47222438 0.053462107 0.019234024
0.47221753 0.054414839 0.019219721
0.47221068 0.055367574 0.019205419
0.47220382 0.056320306 0.019191116
0.47134113 0.057333697 0.018645341
0.47133425 0.058288019 0.018631013
0.47047153 0.059306189 0.018085172
0.46960875 0.060327545 0.017539281
0.46960187 0.061285056 0.017524907
0.46873903 0.062311191 0.016978908
0.4678762 0.063340522 0.016432898
0.46701336 0.064373024 0.015886836
0.46700644 0.065335318 0.015872389
0.46614358 0.066372603 0.015326261
0.46528068 0.067413077 0.014780084
0.4644177 0.068456739 0.014233822
0.46441075 0.06942381 0.014219304
0.4618358 0.070634991 0.012609444
0.45412463 0.072353497 0.0078085503
0.44384515 0.074354351 0.0014117035
0.46733779 -0.016528575 0.015814418
0.46733087 -0.01556469 0.015799949
0.46732393 -0.014600805 0.015785478
0.46731699 -0.013636919 0.015771009
0.46816409 -0.012617377 0.016287511
0.46815714 -0.011655085 0.016273065
0.46900427 -0.01064032 0.016789639
0.46899736 -0.0096796229 0.016775217
0.46984452 -0.0086696399 0.017291864
0.46983761 -0.0077105351 0.017277466
0.47068486 -0.006705326 0.01779422
0.47153208 -0.0057033105 0.018310986
0.47152519 -0.0047473917 0.018296637
0.47237244 -0.0037501531 0.018813474
0.47236559 -0.0027958269 0.018799147
0.4723587 -0.0018415005 0.018784821
0.47235185 -0.00088717521 0.018770494
0.47234496 6.7151035e-05 0.018756168
0.47233811 0.0010214773 0.01874184
0.47318545 0.0020075631 0.019258846
0.4731786 0.0029602952 0.019244544
0.47317174 0.0039130282 0.019230241
0.47316489 0.0048657609 0.01921594
0.473158 0.0058184937 0.019201636
0.47315115 0.0067712269 0.019187333
0.47314429 0.0077239592 0.019173032
0.47313744 0.0086766928 0.019158728
0.47313058 0.0096294256 0.019144425
0.47312373 0.010582158 0.019130124
0.47311687 0.011534891 0.019115821
0.47311002 0.012487624 0.019101519
0.47310317 0.013440357 0.019087216
0.47309631 0.014393089 0.019072913
0.47308946 0.015345822 0.019058611
0.4730826 0.016298555 0.019044308
0.47307575 0.017251289 0.019030005
0.47306889 0.01820402 0.019015703
0.47306204 0.019156754 0.0190014
0.47305518 0.020109488 0.018987099
0.47304833 0.02106222 0.018972795
0.47304147 0.022014951 0.018958492
0.47303462 0.022967685 0.018944191
0.4721733 0.023925301 0.018398006
0.47216645 0.024879629 0.01838368
0.47215956 0.025833953 0.018369352
0.47215271 0.026788279 0.018355027
0.47214586 0.027742606 0.018340699
0.47213897 0.028696932 0.018326374
0.47213212 0.029651256 0.018312048
0.47212523 0.030605584 0.018297721
0.47211838 0.031559911 0.018283395
0.47211152 0.032514237 0.018269068
0.47295922 0.033447746 0.018786862
0.47295237 0.034400478 0.018772559
0.47294551 0.035353214 0.018758258
0.47293866 0.036305945 0.018743955
0.4729318 0.037258677 0.018729651
0.47292495 0.038211409 0.01871535
0.47291809 0.039164145 0.018701047
0.47291124 0.040116876 0.018686743
0.47290438 0.041069608 0.018672442
0.47289753 0.04202234 0.018658139
0.47289068 0.042975076 0.018643837
0.47288382 0.043927807 0.018629534
0.47287697 0.044880543 0.018615231
0.47287011 0.045833271 0.01860093
0.47286326 0.046786007 0.018586626
0.4728564 0.047738738 0.018572325
0.47284955 0.048691474 0.018558022
0.47284269 0.049644202 0.018543718
0.47283584 0.050596938 0.018529417
0.47282898 0.051549669 0.018515114
0.47282213 0.052502401 0.01850081
0.47281525 0.053455137 0.018486509
0.47195357 0.054463733 0.01793956
0.47194672 0.055418063 0.017925233
0.47193983 0.056372385 0.017910907
0.47193298 0.057326715 0.01789658
0.47192612 0.058281038 0.017882254
0.47106436 0.059299197 0.01733516
0.47020259 0.060320541 0.016788019
0.47019571 0.061278049 0.016773645
0.46933386 0.062304176 0.016226396
0.46932694 0.06326329 0.016211998
0.46846512 0.064294189 0.015664713
0.46760324 0.065328278 0.015117381
0.46759632 0.066290565 0.015102935
0.46587944 0.067406014 0.014022567
0.4658725 0.06837149 0.014008074
0.46501049 0.069416732 0.013460543
0.46243852 0.070627876 0.011846931
0.45730132 0.072097436 0.0086339517
0.46878856 -0.016473586 0.015590281
0.46878165 -0.015511293 0.015575835
0.46877474 -0.014549002 0.015561389
0.46876779 -0.013586708 0.015546943
0.46961391 -0.012568748 0.016064726
0.469607 -0.01160805 0.016050303
0.46960008 -0.010647349 0.016035883
0.46959317 -0.0096866516 0.01602146
0.47043934 -0.0086766575 0.016539358
0.47043243 -0.0077175517 0.016524959
0.4712787 -0.0067123314 0.017042959
0.47127181 -0.0057548205 0.017028585
0.47211805 -0.0047543854 0.017546624
0.47211117 -0.003798465 0.017532274
0.47210428 -0.0028425464 0.017517924
0.4720974 -0.0018866268 0.017503574
0.47209054 -0.00093070825 0.017489223
0.47293684 6.0169103e-05 0.018007407
0.47292995 0.0010144954 0.017993081
0.4729231 0.0019688215 0.017978754
0.47291625 0.0029231471 0.017964428
0.47290936 0.0038774733 0.017950101
0.47290251 0.0048317988 0.017935775
0.47289562 0.0057861246 0.017921448
0.47288877 0.0067404509 0.017907122
0.47288191 0.0076947766 0.017892797
0.47287503 0.0086491033 0.017878469
0.47286817 0.0096034296 0.017864143
0.47286129 0.010557755 0.017849816
0.47285444 0.011512081 0.01783549
0.47284758 0.012466407 0.017821163
0.4728407 0.013420734 0.017806837
0.47283384 0.01437506 0.01779251
0.47282696 0.015329385 0.017778184
0.4728201 0.016283711 0.017763857
0.47281325 0.017238038 0.017749531
0.47280636 0.018192364 0.017735204
0.47279951 0.01914669 0.017720878
0.47279263 0.020101016 0.017706551
0.47278577 0.021055343 0.017692225
0.47277892 0.022009667 0.017677899
0.47277203 0.022963993 0.017663572
0.47276518 0.023918319 0.017649246
0.47275829 0.024872646 0.017634919
0.47275144 0.025826972 0.017620593
0.47274458 0.026781298 0.017606266
0.4727377 0.027735623 0.01759194
0.47273085 0.028689951 0.017577613
0.47272396 0.029644275 0.017563287
0.47271711 0.030598603 0.01754896
0.47271022 0.031552929 0.017534634
0.47270337 0.032507252 0.017520307
0.47269651 0.033461578 0.017505981
0.47268963 0.034415904 0.017491655
0.47268277 0.035370231 0.017477328
0.47267589 0.036324557 0.017463002
0.47266904 0.037278883 0.017448675
0.47266218 0.038233209 0.017434349
0.4726553 0.039187536 0.017420022
0.47264844 0.040141862 0.017405696
0.47264156 0.041096188 0.017391369
0.4726347 0.042050511 0.017377043
0.47262785 0.043004841 0.017362716
0.47262096 0.043959163 0.01734839
0.47261411 0.044913493 0.017334063
0.47260723 0.045867816 0.017319737
0.47260037 0.046822146 0.017305411
0.47259352 0.047776472 0.017291084
0.47258663 0.048730794 0.017276758
0.47257978 0.049685124 0.017262431
0.47257289 0.050639451 0.017248105
0.47256604 0.051593777 0.017233778
0.47255918 0.052548099 0.017219452
0.4725523 0.053502426 0.017205125
0.47254544 0.054456752 0.017190799
0.47253856 0.055411082 0.017176472
0.47253171 0.056365404 0.017162146
0.47167096 0.057380363 0.01661385
0.4716641 0.058336284 0.016599499
0.47165722 0.059292201 0.016585149
0.47079644 0.060313534 0.016036758
0.47078955 0.061271045 0.016022384
0.46992868 0.062297158 0.015473889
0.46992177 0.063256271 0.015459491
0.46906093 0.064287163 0.014910955
0.46820006 0.065321237 0.014362367
0.46819311 0.066283531 0.01434792
0.46733221 0.067322388 0.013799266
0.46647128 0.068364426 0.013250563
0.46646434 0.069329903 0.013236069
0.46389526 0.070539422 0.011618704
0.45961809 0.071924381 0.0089325793
0.45277861 0.073578857 0.0046432
0.46938539 -0.016480625 0.014835273
0.46937844 -0.015518334 0.014820826
0.46937153 -0.014556042 0.01480638
0.47021663 -0.013536474 0.015325385
0.47020972 -0.012575776 0.015310963
0.4702028 -0.011615079 0.01529654
0.47104797 -0.010601884 0.01581564
0.47104105 -0.0096427789 0.015801242
0.47103417 -0.008683674 0.015786843
0.47102726 -0.0077245687 0.015772445
0.47187254 -0.0067193368 0.016291697
0.47186565 -0.0057618259 0.016277323
0.47185874 -0.0048043132 0.016262949
0.47270402 -0.0038054585 0.016782263
0.47269714 -0.00284954 0.016767913
0.47269025 -0.0018936205 0.016753562
0.47268337 -0.00093770184 0.016739212
0.47267649 1.821864e-05 0.016724862
0.47266963 0.00097413722 0.01671051
0.47266275 0.0019300567 0.016696161
0.47265586 0.0028859754 0.016681811
0.47264898 0.0038418949 0.016667461
0.47264209 0.0047978139 0.016653109
0.4734875 0.005779143 0.017172689
0.47348061 0.0067334692 0.017158361
0.47347376 0.007687795 0.017144036
0.4734669 0.0086421212 0.017129708
0.47346002 0.0095964475 0.017115382
0.47345316 0.010550773 0.017101055
0.47344628 0.011505099 0.017086729
0.47343943 0.012459425 0.017072404
0.47343257 0.013413751 0.017058076
0.47342569 0.014368078 0.017043751
0.47341883 0.015322404 0.017029423
0.47341195 0.01627673 0.017015098
0.47340509 0.017231055 0.01700077
0.47339824 0.018185381 0.016986445
0.47339135 0.019139707 0.016972117
0.4733845 0.020094033 0.016957792
0.47337762 0.02104836 0.016943464
0.4725183 0.02200436 0.016394803
0.47251141 0.022960279 0.016380452
0.47250456 0.023916198 0.016366102
0.47249767 0.024872117 0.016351752
0.47249079 0.025828036 0.016337402
0.4724839 0.026783956 0.01632305
0.47247705 0.027739875 0.016308701
0.47247016 0.028695794 0.016294351
0.47246328 0.029651713 0.016279999
0.4724564 0.030607633 0.016265649
0.47244951 0.03156355 0.0162513
0.47244266 0.032519471 0.016236948
0.47243577 0.033475388 0.016222598
0.47242889 0.034431309 0.016208248
0.472422 0.035387229 0.016193898
0.47241512 0.03634315 0.016179547
0.47326091 0.037271902 0.016699914
0.47325402 0.038226228 0.016685588
0.47324717 0.039180554 0.016671263
0.47324029 0.040134881 0.016656935
0.47323343 0.041089207 0.01664261
0.47322658 0.042043529 0.016628282
0.47321969 0.042997859 0.016613957
0.47321284 0.043952182 0.016599629
0.47320595 0.044906512 0.016585303
0.4731991 0.045860834 0.016570976
0.47319221 0.046815164 0.01655665
0.47318536 0.047769487 0.016542323
0.47317851 0.048723813 0.016527997
0.47317162 0.049678139 0.01651367
0.47316477 0.050632469 0.016499344
0.47315788 0.051586792 0.016485019
0.4722982 0.052593775 0.01593559
0.47229132 0.053549692 0.015921241
0.47228444 0.054505613 0.015906889
0.47227758 0.055461533 0.015892539
0.4722707 0.056417454 0.015878189
0.47226381 0.057373371 0.01586384
0.47225693 0.058329288 0.015849488
0.47139716 0.059349015 0.01529987
0.47139028 0.06030653 0.015285496
0.47138336 0.061264038 0.015271122
0.47052351 0.062290143 0.014721376
0.47051659 0.063249253 0.014706978
0.46965674 0.06428013 0.014157192
0.46964982 0.06524083 0.014142769
0.46878991 0.066276491 0.013592912
0.46792999 0.067315333 0.013043007
0.46792307 0.068279214 0.013028537
0.4670631 0.069322839 0.012478559
0.464497 0.070532322 0.010857441
0.46193084 0.071751371 0.0092361784
0.44912067 0.074993141 0.001172766
0.44228876 0.076693729 -0.0031273074
0.46913809 -0.017513614 0.013560104
0.47083318 -0.0164256 0.014614888
0.46997523 -0.015525374 0.014065818
0.47081935 -0.014504204 0.014586044
0.47081244 -0.013543502 0.014571621
0.47080553 -0.012582805 0.014557199
0.47079861 -0.011622108 0.014542777
0.47164279 -0.010608901 0.015063128
0.47163588 -0.0096497964 0.015048729
0.47162899 -0.0086906906 0.015034331
0.47162208 -0.0077315858 0.015019933
0.47246638 -0.0067263418 0.015540434
0.47245947 -0.0057688309 0.01552606
0.47245258 -0.0048113181 0.015511686
0.4724457 -0.0038538054 0.015497312
0.47243881 -0.0028962935 0.015482937
0.47243193 -0.0019387808 0.015468563
0.47327623 -0.00094469544 0.015989201
0.47326934 1.1225041e-05 0.015974851
0.47326246 0.00096714363 0.0159605
0.47325557 0.0019230632 0.01594615
0.47324872 0.0028789819 0.0159318
0.47324184 0.0038349014 0.015917448
0.47323495 0.0047908202 0.015903099
0.47322807 0.0057467395 0.015888749
0.47322121 0.0067026587 0.015874397
0.47321433 0.0076585775 0.015860047
0.47320744 0.0086144973 0.015845697
0.47320056 0.0095704161 0.015831348
0.47319368 0.010526336 0.015816996
0.47318682 0.011482255 0.015802646
0.47317994 0.012438174 0.015788296
0.47317305 0.013394093 0.015773945
0.47316617 0.014350013 0.015759595
0.47315928 0.015305932 0.015745245
0.47315243 0.016261851 0.015730893
0.47314554 0.01721777 0.015716543
0.47313866 0.018173689 0.015702194
0.47313178 0.019129608 0.015687842
0.47312489 0.020085528 0.015673492
0.47311804 0.021041447 0.015659142
0.47311115 0.021997366 0.015644792
0.47310427 0.022953285 0.015630441
0.47309738 0.023909204 0.015616091
0.47309053 0.024865124 0.01560174
0.47308365 0.025821041 0.01558739
0.47307676 0.026776962 0.01557304
0.47306988 0.027732881 0.015558689
0.47306299 0.028688801 0.015544339
0.47305614 0.02964472 0.015529988
0.47304925 0.030600639 0.015515639
0.47304237 0.031556558 0.015501288
0.47303548 0.032512479 0.015486937
0.4730286 0.033468395 0.015472587
0.47302175 0.034424312 0.015458236
0.47301486 0.035380233 0.015443887
0.47300798 0.036336154 0.015429536
0.47300109 0.037292074 0.015415185
0.47299421 0.038247991 0.015400835
0.47298735 0.039203912 0.015386485
0.47298047 0.040159833 0.015372135
0.47297359 0.04111575 0.015357784
0.4729667 0.04207167 0.015343433
0.47295985 0.043027587 0.015329083
0.47295296 0.043983508 0.015314733
0.47294608 0.044939429 0.015300383
0.47293919 0.045895346 0.015286032
0.47293231 0.046851266 0.015271681
0.47292545 0.047807183 0.015257332
0.47291857 0.048763104 0.015242981
0.47291169 0.049719021 0.015228631
0.4729048 0.050674945 0.01521428
0.47289792 0.051630862 0.015199929
0.47289106 0.052586779 0.01518558
0.47288418 0.0535427 0.015171229
0.47202542 0.054554448 0.014620479
0.47201854 0.055511963 0.014606105
0.47201166 0.056469478 0.01459173
0.47200477 0.057426985 0.014577356
0.47199789 0.0583845 0.014562982
0.471991 0.059342012 0.014548608
0.47198409 0.060299523 0.014534233
0.47112522 0.061324023 0.013983261
0.47111833 0.062283125 0.013968864
0.47111142 0.063242234 0.013954464
0.47025254 0.064273104 0.013403428
0.47024563 0.065233804 0.013389006
0.47023872 0.066194497 0.013374584
0.46937978 0.067231737 0.012823457
0.46852085 0.068272166 0.012272277
0.46766189 0.069315776 0.011721049
0.46595079 0.070443906 0.01063296
0.46253556 0.071744233 0.0084711695
0.44632462 0.076335549 -0.0017735258
0.46973589 -0.017520666 0.01280384
0.47142899 -0.01643263 0.01386113
0.47142208 -0.015471932 0.013846708
0.47141516 -0.014511232 0.013832285
0.47140825 -0.013550531 0.013817864
0.47140133 -0.012589834 0.013803441
0.47224453 -0.011575026 0.014325013
0.47223762 -0.010615918 0.014310615
0.4722307 -0.009656813 0.014296217
0.47222382 -0.0086977081 0.014281819
0.4722169 -0.0077386028 0.01426742
0.47306019 -0.0067333472 0.014789172
0.47305331 -0.0057758363 0.014774798
0.47304642 -0.0048183235 0.014760423
0.47303954 -0.0038608108 0.014746049
0.47303265 -0.0029032987 0.014731675
0.47302577 -0.0019457861 0.014717301
0.47301885 -0.00098827411 0.014702926
0.47301197 -3.0761341e-05 0.014688552
0.47300509 0.00092675054 0.014674178
0.4729982 0.0018842634 0.014659803
0.47299132 0.0028417753 0.014645429
0.4729844 0.0037992881 0.014631055
0.47297752 0.0047567999 0.014616681
0.47297063 0.0057143122 0.014602306
0.47296375 0.0066718245 0.014587932
0.47295687 0.0076293368 0.014573558
0.47294998 0.00858685 0.014559183
0.47294307 0.0095443623 0.014544809
0.47293618 0.010501875 0.014530435
0.4729293 0.011459387 0.014516061
0.47292241 0.012416899 0.014501686
0.47291553 0.013374412 0.014487312
0.47290865 0.014331924 0.014472938
0.47290173 0.015289436 0.014458563
0.47289485 0.016246948 0.014444189
0.47288796 0.017204462 0.014429815
0.47288108 0.018161973 0.014415441
0.47287419 0.019119486 0.014401066
0.47286731 0.020076999 0.014386692
0.4728604 0.021034511 0.014372318
0.47285351 0.021992022 0.014357943
0.47284663 0.022949535 0.014343569
0.47283974 0.023907047 0.014329195
0.47283286 0.02486456 0.014314821
0.47282594 0.025822071 0.014300446
0.47281906 0.026779585 0.014286072
0.47281218 0.027737098 0.014271698
0.47280529 0.028694609 0.014257323
0.47279841 0.029652122 0.014242949
0.47279152 0.030609636 0.014228575
0.47278461 0.031567149 0.0142142
0.47277772 0.03252466 0.014199826
0.47277084 0.033482172 0.014185452
0.47276396 0.034439683 0.014171078
0.47275707 0.035397198 0.014156703
0.47275019 0.036354709 0.014142329
0.47274327 0.037312221 0.014127955
0.47358707 0.038240999 0.014650824
0.47358018 0.03919692 0.014636474
0.47357333 0.040152837 0.014622123
0.47356644 0.041108757 0.014607773
0.47355956 0.042064674 0.014593422
0.47355267 0.043020595 0.014579072
0.47354579 0.043976516 0.014564722
0.47353894 0.044932436 0.014550371
0.47353205 0.045888353 0.014536021
0.47352517 0.04684427 0.014521671
0.47351828 0.047800191 0.01450732
0.4726606 0.048802368 0.013955463
0.47265372 0.049759883 0.013941089
0.47264683 0.050717395 0.013926715
0.47263995 0.051674906 0.01391234
0.47263306 0.052632421 0.013897966
0.47262615 0.053589929 0.013883592
0.47261927 0.054547444 0.013869218
0.47261238 0.055504959 0.013854843
0.4726055 0.05646247 0.013840469
0.47259861 0.057419982 0.013826095
0.47259173 0.058377493 0.01381172
0.47173384 0.059398796 0.013259545
0.47172695 0.060357898 0.013245147
0.47172004 0.061317004 0.013230748
0.47171316 0.06227611 0.01321635
0.47170624 0.063235216 0.013201952
0.47084835 0.064266078 0.01264967
0.47084144 0.065226771 0.012635248
0.46998352 0.066262409 0.012082889
0.4699766 0.067224696 0.012068443
0.46911862 0.06826511 0.011516012
0.46911171 0.069228999 0.011501542
0.46655154 0.070436813 0.0098729478
0.46314025 0.071737103 0.0077061541
0.44865033 0.076152824 -0.0014860064
0.46185037 -0.019144358 0.0066911783
0.46948466 -0.0175914 0.011510478
0.47117576 -0.016501745 0.012570241
0.47116885 -0.015539454 0.012555795
0.47116193 -0.014577162 0.012541349
0.47200409 -0.01355756 0.013064099
0.47199717 -0.012596862 0.013049678
0.47283933 -0.011582042 0.013572506
0.47283244 -0.010622935 0.013558107
0.47282553 -0.0096638296 0.013543709
0.47281864 -0.0087047247 0.013529311
0.47281173 -0.0077456194 0.013514914
0.47280484 -0.0067865127 0.013500515
0.47279793 -0.0058274074 0.013486117
0.47364026 -0.0048253289 0.014009162
0.47363338 -0.0038678159 0.013994788
0.47362649 -0.0029103041 0.013980413
0.47361958 -0.0019527912 0.013966039
0.4736127 -0.00099527941 0.013951665
0.47360581 -3.7766604e-05 0.013937291
0.47359893 0.00091974525 0.013922916
0.47359204 0.0018772581 0.013908542
0.47358513 0.0028347699 0.013894168
0.47357824 0.0037922827 0.013879793
0.47357136 0.0047497945 0.013865419
0.47356448 0.0057073068 0.013851045
0.47355759 0.0066648191 0.013836671
0.47355071 0.0076223318 0.013822296
0.47354379 0.0085798446 0.013807922
0.47353691 0.0095373569 0.013793548
0.47353002 0.010494869 0.013779173
0.47352314 0.011452381 0.013764799
0.47351626 0.012409894 0.013750425
0.47350937 0.013367406 0.013736051
0.47350246 0.014324918 0.013721676
0.47349557 0.015282431 0.013707302
0.47348869 0.016239943 0.013692928
0.4734818 0.017197456 0.013678553
0.47347492 0.018154968 0.013664179
0.47346804 0.019112481 0.013649805
0.47346112 0.020069994 0.01363543
0.47260469 0.021027552 0.013082966
0.47259781 0.021986656 0.013068568
0.47259089 0.022945764 0.01305417
0.47258401 0.023904867 0.013039772
0.4725771 0.024863973 0.013025374
0.47257021 0.025823079 0.013010976
0.4725633 0.026782185 0.012996578
0.47255641 0.027741291 0.012982179
0.4725495 0.028700396 0.012967781
0.47254258 0.029659502 0.012953383
0.4725357 0.030618608 0.012938985
0.47252879 0.031577714 0.012924586
0.4725219 0.03253682 0.012910188
0.47251499 0.033495925 0.01289579
0.4725081 0.034455027 0.012881392
0.47335091 0.035390191 0.013405441
0.473344 0.036347702 0.013391067
0.47333711 0.037305217 0.013376692
0.47333023 0.038262729 0.013362318
0.47332335 0.03922024 0.013347944
0.47331646 0.040177751 0.013333569
0.47330958 0.041135266 0.013319195
0.47330266 0.042092778 0.013304821
0.47329578 0.043050289 0.013290447
0.47328889 0.044007804 0.013276072
0.47328201 0.044965312 0.013261698
0.47327513 0.045922827 0.013247324
0.47326821 0.046880342 0.013232949
0.47326133 0.04783785 0.013218575
0.47325444 0.048795365 0.013204201
0.47324756 0.049752876 0.013189827
0.47239077 0.050759826 0.012636621
0.47238389 0.051718932 0.012622223
0.47237697 0.052678037 0.012607825
0.47237006 0.053637143 0.012593427
0.47236317 0.054596245 0.012579029
0.47235626 0.055555359 0.01256463
0.47234938 0.056514461 0.012550233
0.47234246 0.057473566 0.012535835
0.47233558 0.058432672 0.012521436
0.47232866 0.059391778 0.012507038
0.47232178 0.06035088 0.01249264
0.47231486 0.06130999 0.012478242
0.47145799 0.062337644 0.011924751
0.47145107 0.063298352 0.011910329
0.47144416 0.064259045 0.011895906
0.47143725 0.065219745 0.011881485
0.47058031 0.066255368 0.01132788
0.4705734 0.067217655 0.011313434
0.46971643 0.068258062 0.010759752
0.46970949 0.069221944 0.010745282
0.4671523 0.070429727 0.0091129364
0.46459508 0.07164707 0.0074804835
0.46203777 0.072873972 0.0058478503
0.45863026 0.07419651 0.0036757183
0.46245804 -0.019151527 0.0059224167
0.46923533 -0.01766216 0.010214579
0.47177258 -0.016508786 0.011815227
0.47176564 -0.015546494 0.01180078
0.47175872 -0.014584202 0.011786334
0.47175181 -0.01362191 0.011771888
0.47259298 -0.012603891 0.012295917
0.47258607 -0.011643194 0.012281494
0.47257915 -0.010682493 0.012267073
0.47342035 -0.0096708471 0.012791197
0.47341347 -0.0087117413 0.012776799
0.47340655 -0.0077526364 0.0127624
0.47339967 -0.0067935293 0.012748002
0.47339275 -0.0058344244 0.012733604
0.47338587 -0.0048753191 0.012719206
0.47337896 -0.0039162124 0.012704807
0.47337204 -0.002957107 0.012690409
0.47336516 -0.001998001 0.012676011
0.47335824 -0.0010388958 0.012661613
0.47335136 -7.9789694e-05 0.012647214
0.47334445 0.00087931543 0.012632816
0.47333756 0.0018384216 0.012618418
0.47333065 0.0027975268 0.01260402
0.47332373 0.0037566319 0.012589621
0.47331685 0.0047157379 0.012575223
0.47330993 0.0056748437 0.012560825
0.47330305 0.006633949 0.012546427
0.47329614 0.0075930548 0.012532028
0.47328925 0.008552161 0.01251763
0.47328234 0.0095112668 0.012503233
0.47327545 0.010470372 0.012488835
0.47326854 0.011429477 0.012474436
0.47326162 0.012388583 0.012460038
0.47325474 0.013347689 0.01244564
0.47324783 0.014306795 0.012431242
0.47324094 0.015265901 0.012416843
0.47323403 0.016225006 0.012402445
0.47322714 0.017184112 0.012388047
0.47322023 0.018143216 0.012373649
0.47321334 0.019102324 0.01235925
0.47320643 0.02006143 0.012344852
0.47319952 0.021020535 0.012330454
0.47319263 0.021979639 0.012316056
0.47233722 0.022941966 0.011762298
0.4723303 0.023902664 0.011747875
0.47232339 0.024863364 0.011733454
0.47231647 0.025824063 0.011719031
0.47230956 0.026784763 0.011704609
0.47230265 0.027745459 0.011690187
0.47229573 0.028706159 0.011675765
0.47228882 0.029666858 0.011661342
0.47313052 0.030611591 0.012186471
0.47312361 0.031570695 0.012172073
0.47311673 0.032529801 0.012157675
0.47310981 0.033488907 0.012143277
0.47310293 0.034448013 0.012128878
0.47309601 0.035407118 0.01211448
0.47308913 0.036366224 0.012100082
0.47308221 0.03732533 0.012085684
0.4730753 0.038284436 0.012071285
0.47306842 0.039243542 0.012056887
0.4730615 0.040202647 0.01204249
0.47305462 0.041161753 0.012028092
0.4730477 0.042120855 0.012013693
0.47304082 0.043079965 0.011999295
0.47303391 0.044039071 0.011984897
0.47302699 0.044998173 0.011970499
0.47302011 0.045957282 0.0119561
0.47301319 0.046916388 0.011941702
0.47300631 0.04787549 0.011927304
0.47299939 0.0488346 0.011912906
0.47299251 0.049793702 0.011898507
0.4729856 0.050752807 0.011884109
0.47297871 0.051711917 0.011869711
0.4729718 0.052671019 0.011855313
0.47296488 0.053630125 0.011840914
0.47210911 0.054645024 0.011286368
0.4721022 0.055605728 0.011271945
0.47209528 0.056566428 0.011257523
0.47208837 0.057527125 0.011243101
0.47208145 0.058487821 0.011228679
0.47207454 0.059448522 0.011214256
0.47206762 0.060409222 0.011199835
0.47206071 0.061369918 0.011185412
0.4720538 0.062330615 0.01117099
0.47204688 0.063291319 0.011156568
0.47203997 0.064252019 0.011142146
0.47118405 0.065286033 0.010587312
0.47117713 0.066248327 0.010572866
0.47117019 0.067210622 0.01055842
0.4703142 0.068251006 0.01000349
0.46945822 0.069294587 0.0094485153
0.46775305 0.070422642 0.0083529241
0.46519881 0.071639948 0.0067167194
0.46264446 0.07286682 0.0050803395
0.45924091 0.074189305 0.0029032102
0.46898806 -0.017732941 0.0089162095
0.4715223 -0.016577939 0.010520585
0.47151539 -0.015614054 0.010506115
0.47235551 -0.014591243 0.011031319
0.4723486 -0.013628949 0.011016874
0.47234169 -0.012666658 0.011002428
0.47318187 -0.011650221 0.011527731
0.47317496 -0.01068952 0.011513309
0.47316805 -0.0097288229 0.011498887
0.47316113 -0.0087681236 0.011484465
0.47315422 -0.0078074262 0.011470042
0.47399449 -0.0068005463 0.011995486
0.47398758 -0.0058414415 0.011981088
0.4739807 -0.0048823361 0.011966689
0.47397378 -0.0039232289 0.011952291
0.47396687 -0.0029641239 0.011937893
0.47395998 -0.0020050178 0.011923495
0.47395307 -0.0010459127 0.011909097
0.47394618 -8.6806642e-05 0.011894699
0.47393927 0.00087229849 0.011880301
0.47393239 0.0018314046 0.011865903
0.47392547 0.0027905097 0.011851504
0.47391859 0.0037496148 0.011837106
0.47306436 0.0046816594 0.011282555
0.47305745 0.0056423582 0.011268132
0.47305053 0.006603057 0.011253711
0.47304362 0.0075637558 0.011239288
0.47303671 0.0085244551 0.011224866
0.47302979 0.0094851535 0.011210444
0.47302288 0.010445853 0.011196022
0.47301596 0.011406551 0.011181599
0.47300905 0.01236725 0.011167178
0.47300214 0.013327949 0.011152755
0.47299522 0.014288648 0.011138333
0.47298834 0.015249346 0.011123911
0.47298142 0.016210046 0.011109489
0.47297451 0.017170744 0.011095067
0.47296759 0.018131442 0.011080645
0.47296068 0.019092143 0.011066223
0.47295377 0.020052841 0.0110518
0.47294685 0.021013539 0.011037379
0.47293994 0.021974238 0.011022956
0.47293302 0.022934938 0.011008534
0.47292611 0.023895636 0.010994112
0.4729192 0.024856336 0.01097969
0.47291228 0.025817033 0.010965268
0.47290537 0.026777733 0.010950846
0.47289845 0.027738431 0.010936423
0.47289154 0.02869913 0.010922002
0.47288463 0.02965983 0.010907579
0.47287771 0.030620528 0.010893157
0.4728708 0.031581227 0.010878735
0.47286391 0.032541927 0.010864313
0.472857 0.033502623 0.01084989
0.47285008 0.034463324 0.010835469
0.47284317 0.035424024 0.010821046
0.47283626 0.03638472 0.010806624
0.47282934 0.037345421 0.010792202
0.47282243 0.038306117 0.01077778
0.47281551 0.039266817 0.010763357
0.4728086 0.040227517 0.010748936
0.47280169 0.041188214 0.010734513
0.47279477 0.042148914 0.010720091
0.47278786 0.043109614 0.010705669
0.47278094 0.044070311 0.010691247
0.47277403 0.045031011 0.010676825
0.47276711 0.045991708 0.010662403
0.4727602 0.046952408 0.01064798
0.47275329 0.047913104 0.010633559
0.4727464 0.048873808 0.010619137
0.47273949 0.049834505 0.010604714
0.47273257 0.050795205 0.010590293
0.47272566 0.051755905 0.01057587
0.47271875 0.052716602 0.010561448
0.47271183 0.053677298 0.010547026
0.47270492 0.054637995 0.010532604
0.472698 0.055598702 0.010518181
0.47269109 0.056559399 0.01050376
0.47268417 0.057520095 0.010489337
0.47267726 0.058480792 0.010474915
0.47267035 0.059441496 0.010460493
0.47266343 0.060402192 0.010446071
0.47265652 0.061362889 0.010431648
0.4726496 0.062323585 0.010417227
0.47264269 0.063284293 0.010402804
0.47178778 0.064316705 0.0098467432
0.47178084 0.065278992 0.0098322975
0.47177392 0.066241287 0.0098178517
0.47091892 0.067280076 0.0092616975
0.47091201 0.068243958 0.0092472276
0.47005698 0.069287524 0.0086909989
0.46835381 0.070415556 0.0075929128
0.46665064 0.071549959 0.0064947582
0.46409926 0.0727752 0.0048546502
0.46069968 0.074096046 0.0026725472
0.45645186 0.075517289 -5.1627852e-05
0.46874276 -0.017803743 0.0076153409
0.47127402 -0.016647113 0.0092234453
0.47126707 -0.015681636 0.0092089511
0.47126013 -0.014716157 0.009194457
0.4720993 -0.013693334 0.0097209131
0.47293848 -0.012673698 0.010247416
0.47293156 -0.011711407 0.01023297
0.47292462 -0.010749113 0.010218524
0.47291771 -0.009786821 0.010204078
0.47375694 -0.0087751523 0.010730701
0.47375003 -0.0078144548 0.010716279
0.47374311 -0.0068537537 0.010701857
0.4737362 -0.0058930563 0.010687434
0.47372931 -0.004932357 0.010673013
0.4737224 -0.0039716577 0.01065859
0.47371548 -0.0030109601 0.010644168
0.47370857 -0.0020502608 0.010629746
0.47370166 -0.0010895623 0.010615324
0.47369474 -0.00012886296 0.010600901
0.47368783 0.00083183544 0.01058648
0.47368091 0.0017925348 0.010572057
0.473674 0.0027532333 0.010557636
0.47366709 0.0037139317 0.010543213
0.47366017 0.0046746312 0.010528791
0.47365326 0.0056353295 0.010514369
0.47364634 0.0065960283 0.010499947
0.47279307 0.0075344336 0.0099440487
0.47278616 0.0084967259 0.009929603
0.47277924 0.0094590178 0.0099151572
0.4727723 0.01042131 0.0099007105
0.47276539 0.011383601 0.0098862648
0.47275847 0.012345894 0.0098718191
0.47275153 0.013308186 0.0098573724
0.47274461 0.014270478 0.0098429266
0.4727377 0.01523277 0.0098284809
0.47273076 0.016195063 0.0098140342
0.47272384 0.017157353 0.0097995885
0.47271693 0.018119646 0.0097851427
0.47270998 0.019081939 0.0097706961
0.47270307 0.02004423 0.0097562503
0.47269616 0.021006523 0.0097418046
0.47268921 0.021968814 0.0097273579
0.4726823 0.022931106 0.0097129121
0.47267538 0.023893397 0.0096984664
0.47266844 0.02485569 0.0096840197
0.47266153 0.025817981 0.009669574
0.47265461 0.026780274 0.0096551282
0.47264767 0.027742567 0.0096406816
0.47264075 0.028704857 0.0096262358
0.47263384 0.02966715 0.0096117901
0.47262689 0.030629443 0.0095973434
0.47261998 0.031591736 0.0095828976
0.47261307 0.032554027 0.0095684519
0.47260612 0.033516318 0.0095540052
0.47259921 0.034478609 0.0095395595
0.47259229 0.035440903 0.0095251137
0.47343206 0.036377694 0.010052861
0.47342515 0.037338391 0.010038438
0.47341824 0.038299091 0.010024016
0.47341132 0.039259788 0.010009594
0.47340441 0.040220488 0.0099951718
0.47339749 0.041181184 0.0099807503
0.47339058 0.042141885 0.0099663278
0.47338367 0.043102585 0.0099519053
0.47337675 0.044063285 0.0099374838
0.47336984 0.045023981 0.0099230614
0.47336295 0.045984678 0.0099086389
0.47335604 0.046945378 0.0098942174
0.47334912 0.047906078 0.0098797949
0.47334221 0.048866779 0.0098653724
0.47248843 0.049875282 0.0093084229
0.47248149 0.050837576 0.0092939762
0.47247458 0.051799867 0.0092795305
0.47246766 0.052762158 0.0092650848
0.47246072 0.053724449 0.0092506381
0.4724538 0.05468674 0.0092361923
0.47244689 0.055649038 0.0092217466
0.47243994 0.056611329 0.0092072999
0.47243303 0.05757362 0.0091928542
0.47242612 0.058535911 0.0091784084
