# .PCD v0.7 - Point Cloud Data file format
VERSION 0.7
FIELDS x y z
SIZE 4 4 4
TYPE F F F
COUNT 1 1 1
WIDTH 1341
HEIGHT 1
VIEWPOINT 0 0 0 1 0 0 0
POINTS 1341
DATA ascii
0.56770611 -0.050547089 0.044643052
0.56769186 -0.049694758 0.044635855
0.56767768 -0.048842426 0.044628654
0.56766343 -0.047990095 0.044621456
0.56764925 -0.047137767 0.044614259
0.567635 -0.046285436 0.044607062
0.56762081 -0.045433108 0.044599861
0.56760663 -0.044580776 0.044592664
0.56841743 -0.043653999 0.045153897
0.56840324 -0.042803261 0.045146711
0.56838906 -0.041952524 0.045139529
0.56837487 -0.041101791 0.045132343
0.56836069 -0.04025105 0.045125157
0.5683465 -0.039400313 0.045117974
0.56833231 -0.038549576 0.045110788
0.56831813 -0.037698839 0.045103602
0.56830394 -0.036848102 0.04509642
0.56828976 -0.035997361 0.045089234
0.56827557 -0.035146628 0.045082048
0.56826138 -0.034295887 0.045074865
0.5682472 -0.03344515 0.045067679
0.56905842 -0.032540679 0.045629103
0.56904423 -0.031691536 0.045621928
0.56903011 -0.03084239 0.045614757
0.56901592 -0.029993245 0.045607585
0.56900179 -0.029144103 0.045600414
0.56898761 -0.028294958 0.045593243
0.56897342 -0.027445816 0.045586072
0.5689593 -0.026596669 0.045578901
0.56894511 -0.025747526 0.04557173
0.56893098 -0.02489838 0.045564558
0.56809115 -0.02408704 0.044988647
0.56725127 -0.023272512 0.044412706
0.56641132 -0.022454798 0.043836739
0.56557137 -0.021633899 0.043260749
0.5647313 -0.020809814 0.042684693
0.56306541 -0.020012379 0.04153984
0.56222522 -0.019180328 0.040963754
0.56138498 -0.01834509 0.040387608
0.56054467 -0.017506666 0.039811466
0.55970436 -0.016665054 0.039235298
0.55968994 -0.015798386 0.039227981
0.55884951 -0.014951997 0.038651772
0.55883503 -0.014083734 0.038644437
0.55882055 -0.013215472 0.038637105
0.56212878 -0.079788692 0.039665859
0.56211436 -0.078923613 0.039658554
0.56209993 -0.078058541 0.039651249
0.56208551 -0.077193461 0.03964394
0.56207108 -0.076328389 0.039636634
0.56205666 -0.07546331 0.039629329
0.56204224 -0.074598238 0.039622024
0.56202781 -0.073733158 0.039614718
0.56201339 -0.072868086 0.039607413
0.56199896 -0.072003014 0.039600104
0.56198454 -0.071137935 0.039592799
0.56279337 -0.070150621 0.040154755
0.56277895 -0.069287144 0.040147465
0.5635879 -0.068304606 0.040709496
0.56439686 -0.067325264 0.041271523
0.56520587 -0.066349111 0.041833576
0.56519157 -0.06549041 0.041826323
0.56600064 -0.064519033 0.042388417
0.56680983 -0.063550837 0.042950571
0.56679559 -0.062695317 0.042943347
0.56678128 -0.0618398 0.04293612
0.56759053 -0.060877979 0.043498293
0.56757629 -0.060024057 0.04349108
0.56756204 -0.059170134 0.043483868
0.5675478 -0.058316216 0.043476656
0.56753361 -0.05746229 0.043469448
0.56751937 -0.056608368 0.043462235
0.5683288 -0.055657696 0.044024505
0.56831455 -0.054805368 0.044017304
0.56830037 -0.053953037 0.044010106
0.56828612 -0.053100709 0.044002909
0.56827193 -0.052248377 0.043995712
0.56825769 -0.05139605 0.043988511
0.5682435 -0.050543718 0.043981314
0.56822926 -0.049691387 0.043974116
0.56821507 -0.048839055 0.043966915
0.56820089 -0.047986723 0.043959718
0.56818664 -0.047134396 0.043952521
0.56817245 -0.046282064 0.043945324
0.56815821 -0.045429736 0.043938123
0.56814402 -0.044577405 0.043930925
0.56812978 -0.04372507 0.043923728
0.56811559 -0.042872742 0.043916531
0.56810135 -0.04202041 0.04390933
0.56808716 -0.041168079 0.043902133
0.56807292 -0.040315747 0.043894935
0.56805873 -0.039463419 0.043887734
0.5688687 -0.038546208 0.044450287
0.56885451 -0.037695471 0.044443101
0.56884032 -0.036844734 0.044435915
0.56882614 -0.035993997 0.044428732
0.56881195 -0.03514326 0.044421546
0.56879777 -0.034292523 0.04441436
0.56878358 -0.033441782 0.044407178
0.5687694 -0.032591049 0.044399992
0.56875521 -0.031740312 0.044392806
0.56874102 -0.030889571 0.044385623
0.56872684 -0.030038835 0.044378437
0.56871265 -0.029188098 0.044371251
0.56869847 -0.028337359 0.044364069
0.56868428 -0.027486622 0.044356883
0.56867009 -0.026635885 0.044349696
0.56865591 -0.025785148 0.044342514
0.56864172 -0.024934411 0.044335328
0.56862754 -0.024083672 0.044328142
0.56778866 -0.023269139 0.043750968
0.56694978 -0.022451419 0.043173764
0.56611079 -0.021630513 0.042596534
0.56527168 -0.020806422 0.042019244
0.56443262 -0.019979144 0.041441962
0.56359351 -0.019148679 0.04086465
0.5619294 -0.018341674 0.039717209
0.56109011 -0.017503243 0.039139833
0.56107569 -0.016638167 0.039132524
0.56106126 -0.015773091 0.039125219
0.56022191 -0.014928288 0.038547788
0.56020749 -0.014061619 0.038540468
0.560193 -0.01319495 0.038533147
0.56267422 -0.079785265 0.038994219
0.5626598 -0.078920186 0.038986914
0.56264538 -0.078055121 0.038979609
0.56263095 -0.077190042 0.038972303
0.56261653 -0.076324962 0.038964998
0.5626021 -0.07545989 0.038957689
0.56258768 -0.074594811 0.038950384
0.56257325 -0.073729739 0.038943078
0.56255883 -0.072864659 0.038935773
0.56254441 -0.071999587 0.038928468
0.56252998 -0.071134508 0.038921162
0.5633378 -0.070147209 0.039484356
0.56332338 -0.069283724 0.039477061
0.56413132 -0.068301193 0.040040333
0.56493932 -0.067321859 0.040603597
0.56492496 -0.066461563 0.040596329
0.56573296 -0.065487012 0.041159634
0.56654108 -0.064515643 0.041722964
0.56652677 -0.063658528 0.041715726
0.56733501 -0.062691927 0.042279128
0.5673207 -0.061836414 0.042271905
0.56730646 -0.060980897 0.042264678
0.56729221 -0.060125381 0.042257454
0.56810045 -0.059166756 0.04282089
0.56808627 -0.058312833 0.042813681
0.56807202 -0.057458907 0.042806469
0.56805778 -0.056604985 0.042799257
0.56804353 -0.055751063 0.042792045
0.56802928 -0.054897137 0.042784832
0.56801504 -0.054043215 0.04277762
0.56800079 -0.053189293 0.042770408
0.56798655 -0.05233537 0.042763196
0.56879514 -0.051392674 0.043326769
0.5687809 -0.050540343 0.043319572
0.56876671 -0.049688011 0.043312371
0.56875247 -0.04883568 0.043305174
0.56873828 -0.047983348 0.043297976
0.56872404 -0.047131021 0.043290779
0.56870985 -0.046278689 0.043283578
0.56869566 -0.045426361 0.043276381
0.56868142 -0.04457403 0.043269183
0.56866723 -0.043721698 0.043261983
0.56865299 -0.04286937 0.043254785
0.5686388 -0.042017039 0.043247588
0.56862456 -0.041164707 0.043240391
0.56861037 -0.040312376 0.04323319
0.56859612 -0.039460044 0.043225992
0.56858194 -0.038607717 0.043218795
0.56856769 -0.037755385 0.043211594
0.56855351 -0.036903054 0.043204397
0.56853926 -0.036050726 0.0431972
0.56852508 -0.035198394 0.043190002
0.56851089 -0.034346063 0.043182801
0.56932002 -0.033438418 0.043746669
0.56930584 -0.032587681 0.043739486
0.56929165 -0.031736944 0.0437323
0.56927747 -0.030886205 0.043725114
0.56926328 -0.030035468 0.043717932
0.56924909 -0.029184731 0.043710746
0.56923491 -0.028333994 0.04370356
0.56922072 -0.027483257 0.043696377
0.56920654 -0.026632519 0.043689191
0.56919235 -0.02578178 0.043682005
0.56917816 -0.024931043 0.043674823
0.5683403 -0.024118097 0.043096423
0.56832612 -0.023265766 0.043089226
0.56748819 -0.022448041 0.042510785
0.56665021 -0.021627128 0.041932318
0.56581211 -0.020803031 0.041353792
0.56497407 -0.019975746 0.040775273
0.56413591 -0.019145275 0.040196724
0.56329775 -0.018311616 0.039618149
0.56245947 -0.017474774 0.039039515
0.56244504 -0.016611291 0.039032221
0.56243068 -0.015747808 0.03902493
0.56159228 -0.014904592 0.038446274
0.56157786 -0.014039516 0.038438968
0.56156343 -0.013174441 0.038431663
0.56320524 -0.078916766 0.038315281
0.56319082 -0.078051694 0.038307976
0.56317639 -0.077186614 0.038300671
0.56316197 -0.076321542 0.038293362
0.56314754 -0.075456463 0.038286056
0.56313312 -0.074591391 0.038278751
0.5631187 -0.073726311 0.038271446
0.56310427 -0.072861239 0.03826414
0.56308985 -0.071996167 0.038256831
0.56389666 -0.071007274 0.038821254
0.56388223 -0.070143789 0.03881396
0.56386787 -0.069280304 0.038806666
0.56467479 -0.068297781 0.03937117
0.56548172 -0.067318454 0.039935671
0.56546736 -0.066458166 0.039928406
0.5662744 -0.065483607 0.040492944
0.5662601 -0.064624913 0.040485695
0.56706721 -0.063655138 0.041050274
0.5670529 -0.062798023 0.041043036
0.56786013 -0.061833028 0.041607693
0.56784588 -0.060977511 0.041600466
0.56783158 -0.060121994 0.041593242
0.56781733 -0.059266478 0.041586015
0.56780308 -0.058410961 0.041578792
0.56778878 -0.057555448 0.041571565
0.56777453 -0.056699932 0.041564342
0.56776029 -0.055844411 0.041557115
0.56856769 -0.054893754 0.042121857
0.56855345 -0.054039836 0.042114645
0.5685392 -0.053185914 0.042107433
0.56852496 -0.052331991 0.042100221
0.56851071 -0.051478066 0.042093009
0.56849653 -0.050624143 0.042085797
0.56848228 -0.049770221 0.042078588
0.56846803 -0.048916291 0.042071376
0.56845379 -0.048062369 0.042064164
0.56843954 -0.047208447 0.042056952
0.5684253 -0.046354521 0.04204974
0.56841105 -0.045500599 0.042042527
0.56839681 -0.044646677 0.042035315
0.56838256 -0.043792751 0.042028103
0.56919038 -0.042865995 0.042593043
0.5691762 -0.042013668 0.042585846
0.56916195 -0.041161336 0.042578649
0.56914777 -0.040309001 0.042571452
0.56913358 -0.039456673 0.042564251
0.56911933 -0.038604341 0.042557053
0.56910515 -0.037752014 0.042549856
0.5690909 -0.036899682 0.042542655
0.56907672 -0.036047351 0.042535458
0.56906247 -0.035195019 0.04252826
0.56904829 -0.034342688 0.042521063
0.56903404 -0.03349036 0.042513862
0.56901985 -0.032638028 0.042506665
0.56900561 -0.0317857 0.042499468
0.56899142 -0.030933367 0.04249227
0.56897724 -0.030081037 0.042485069
0.56896299 -0.029228708 0.042477872
0.56894881 -0.028376376 0.042470675
0.56893456 -0.027524047 0.042463474
0.56892037 -0.026671715 0.042456277
0.56890613 -0.025819385 0.042449079
0.56889194 -0.024967054 0.042441882
0.5688777 -0.024114724 0.042434681
0.56886351 -0.023262393 0.042427484
0.5680266 -0.022444662 0.04184781
0.56718963 -0.021623742 0.041268107
0.56717533 -0.020768225 0.041260879
0.56633824 -0.019942529 0.040681101
0.56550115 -0.019113645 0.040101331
0.56466401 -0.018281573 0.039521534
0.5638268 -0.017446317 0.038941707
0.56298947 -0.016607873 0.038361825
0.56297511 -0.015744392 0.038354535
0.56296068 -0.014880909 0.038347241
0.56294632 -0.014017426 0.038339946
0.56210887 -0.013171017 0.03776003
0.5629307 -0.079051495 0.037070807
0.56291628 -0.078184821 0.037063487
0.56372184 -0.077183194 0.037629034
0.56370741 -0.076318115 0.037621725
0.56369299 -0.075453043 0.03761442
0.56367856 -0.074587964 0.037607115
0.56366414 -0.073722892 0.037599809
0.56364971 -0.072857812 0.037592504
0.56445545 -0.071867339 0.038158145
0.56444108 -0.071003862 0.038150854
0.56442666 -0.070140377 0.03814356
0.56523257 -0.069156259 0.03870929
0.56521821 -0.068294376 0.038702011
0.56602418 -0.067315049 0.039267749
0.56600982 -0.066454761 0.039260484
0.56681585 -0.06548021 0.039826259
0.56680149 -0.064621508 0.03981901
0.56760764 -0.063651748 0.040384825
0.56759334 -0.062794633 0.040377583
0.56757903 -0.061937526 0.040370345
0.56756473 -0.061080415 0.040363107
0.568371 -0.060118608 0.040929027
0.56835675 -0.059263092 0.040921804
0.56834251 -0.058407579 0.040914577
0.5683282 -0.057552062 0.040907353
0.56831396 -0.056696545 0.040900126
0.56829971 -0.055841025 0.040892903
0.56828541 -0.054985508 0.040885676
0.56827116 -0.054129992 0.040878452
0.56825691 -0.053274475 0.040871225
0.56824261 -0.052418958 0.040864002
0.56822836 -0.051563445 0.040856775
0.56821412 -0.050707929 0.040849552
0.56902069 -0.049766842 0.041415609
0.56900644 -0.048912913 0.041408397
0.5689922 -0.04805899 0.041401185
0.56897795 -0.047205068 0.041393973
0.56896371 -0.046351142 0.041386761
0.56894946 -0.04549722 0.041379549
0.56893522 -0.044643298 0.041372336
0.56892097 -0.043789372 0.041365124
0.56890678 -0.04293545 0.041357916
0.56889254 -0.042081524 0.041350704
0.56887829 -0.041227601 0.041343492
0.56886405 -0.040373679 0.041336279
0.5688498 -0.039519753 0.041329067
0.56883556 -0.038665831 0.041321855
0.56882131 -0.037811909 0.041314643
0.56880707 -0.036957983 0.041307431
0.56879282 -0.036104061 0.041300219
0.56877857 -0.035250135 0.041293006
0.56876439 -0.034396213 0.041285798
0.5695715 -0.033486985 0.041852128
0.56955725 -0.032634657 0.041844927
0.56954306 -0.031782325 0.04183773
0.56952882 -0.030929994 0.041830532
0.56951463 -0.030077664 0.041823331
0.56950039 -0.029225335 0.041816134
0.5694862 -0.028373003 0.041808937
0.56947196 -0.027520673 0.041801739
0.56945777 -0.026668342 0.041794538
0.56944352 -0.025816012 0.041787341
0.56942934 -0.024963681 0.041780144
0.56941515 -0.024111351 0.041772943
0.56857926 -0.023295205 0.041192044
0.56856501 -0.022441281 0.041184831
0.56772906 -0.021620356 0.040603895
0.56771475 -0.020764839 0.040596668
0.56687868 -0.019939138 0.040015653
0.5660426 -0.019110246 0.039434645
0.5660283 -0.018251542 0.039427392
0.5651921 -0.017417872 0.038846344
0.56435585 -0.016581016 0.038265269
0.56434149 -0.015719127 0.03825799
0.56350511 -0.014877492 0.037676841
0.56431276 -0.013995348 0.038243432
0.56347632 -0.013150526 0.037662257
0.56347716 -0.07904806 0.036397934
0.56346273 -0.078181393 0.036390614
0.56344825 -0.07731472 0.036383297
0.56343383 -0.076448053 0.036375977
0.56423843 -0.075449616 0.036942787
0.564224 -0.074584544 0.036935482
0.56420958 -0.073719464 0.036928177
0.56419516 -0.072854392 0.036920868
0.56499994 -0.071863919 0.037487749
0.56498551 -0.071000442 0.037480455
0.56497115 -0.070136957 0.037473161
0.56577605 -0.069152854 0.038040131
0.56576163 -0.068290964 0.038032852
0.56656659 -0.067311645 0.038599826
0.56655222 -0.066451356 0.038592558
0.56735724 -0.065476812 0.039159574
0.56734294 -0.064618111 0.03915232
0.56732863 -0.063759409 0.039145067
0.56813377 -0.062791243 0.039712135
0.56811947 -0.061934132 0.039704897
0.56810516 -0.061077021 0.039697658
0.56809086 -0.06021991 0.03969042
0.56807655 -0.059362806 0.039683178
0.56806231 -0.058505695 0.03967594
0.568048 -0.057648584 0.039668702
0.5680337 -0.056791473 0.039661463
0.56801939 -0.055934358 0.039654225
0.56800514 -0.055077255 0.039646987
0.56881058 -0.054126605 0.040214237
0.56879634 -0.053271092 0.040207013
0.56878203 -0.052415576 0.040199786
0.56876779 -0.051560059 0.040192563
0.56875354 -0.050704543 0.040185336
0.56873924 -0.049849026 0.040178113
0.56872499 -0.048993506 0.040170886
0.56871074 -0.048137989 0.040163662
0.56869644 -0.047282472 0.040156435
0.56868219 -0.046426956 0.040149212
0.56866789 -0.045571443 0.040141985
0.56865364 -0.044715922 0.040134761
0.5686394 -0.043860406 0.040127534
0.56862509 -0.043004889 0.040120311
0.56861085 -0.042149372 0.040113084
0.5685966 -0.041293856 0.040105861
0.5685823 -0.040438339 0.040098634
0.56856805 -0.039582822 0.04009141
0.56855381 -0.038727306 0.040084183
0.5685395 -0.037871789 0.04007696
0.56934547 -0.036954604 0.040644456
0.56933123 -0.036100682 0.040637244
0.56931704 -0.035246756 0.040630031
0.5693028 -0.034392834 0.040622819
0.56928855 -0.033538908 0.040615611
0.56927431 -0.032684986 0.040608399
0.56926006 -0.031831063 0.040601186
0.56924582 -0.030977137 0.040593974
0.56923157 -0.030123215 0.040586762
0.56921732 -0.029269291 0.04057955
0.56920308 -0.028415367 0.040572338
0.57000941 -0.0275173 0.041139998
0.56999516 -0.026664969 0.0411328
0.56998098 -0.025812639 0.041125599
0.56996673 -0.024960309 0.041118402
0.56913191 -0.02414575 0.040536281
0.56911767 -0.023291826 0.040529069
0.56910342 -0.022437902 0.040521856
0.56826848 -0.021616971 0.039939679
0.56825417 -0.020761454 0.039932456
0.56741911 -0.019935746 0.0393502
0.56740481 -0.019078635 0.039342962
0.56656969 -0.018248145 0.038760707
0.56655538 -0.017389441 0.038753454
0.5657202 -0.016554171 0.038171157
0.56570584 -0.015693875 0.038163889
0.56569147 -0.014833579 0.038156625
0.56485617 -0.013991937 0.037574273
0.56484181 -0.013130047 0.037566993
0.56482744 -0.012268159 0.037559714
0.56322014 -0.08005102 0.035157081
0.56402361 -0.079044633 0.035725065
0.56400919 -0.078177959 0.035717744
0.56399471 -0.077311292 0.035710424
0.56398028 -0.076444626 0.035703104
0.56478387 -0.075446196 0.036271155
0.56476945 -0.074581116 0.03626385
0.56475502 -0.073716044 0.036256541
0.5647406 -0.072850965 0.036249235
0.56554437 -0.071860507 0.036817353
0.56552994 -0.070997022 0.036810059
0.56551558 -0.070133537 0.036802765
0.56631947 -0.069149442 0.037370972
0.5663051 -0.068287551 0.037363693
0.56710905 -0.067308247 0.0379319
0.56709468 -0.066447951 0.037924636
0.56708032 -0.065587647 0.037917372
0.56788439 -0.064614713 0.038485635
0.56787008 -0.063756011 0.038478382
0.56785572 -0.06289731 0.038471129
0.56784141 -0.0620386 0.038463879
0.56782711 -0.061179902 0.038456626
0.56863129 -0.06021652 0.039024971
0.56861699 -0.059359413 0.039017733
0.56860268 -0.058502302 0.039010495
0.56858844 -0.057645194 0.039003253
0.56857413 -0.056788083 0.038996015
0.56855983 -0.055930968 0.038988777
0.56854552 -0.055073861 0.038981538
0.56853127 -0.05421675 0.0389743
0.56851697 -0.053359643 0.038967062
0.56850266 -0.052502532 0.038959824
0.56848836 -0.051645424 0.038952585
0.56847405 -0.050788313 0.038945343
0.56845981 -0.049931202 0.038938105
0.5684455 -0.049074087 0.038930867
0.56925011 -0.048134603 0.03949945
0.56923586 -0.04727909 0.039492223
0.56922162 -0.046423573 0.039485
0.56920731 -0.045568056 0.039477773
0.56919307 -0.044712536 0.03947055
0.56917882 -0.043857019 0.039463323
0.56916451 -0.043001503 0.039456099
0.56915027 -0.042145986 0.039448872
0.56913602 -0.041290469 0.039441649
0.56912172 -0.040434953 0.039434422
0.56910747 -0.039579436 0.039427198
0.56909323 -0.03872392 0.039419971
0.56907892 -0.037868403 0.039412748
0.56906468 -0.037012886 0.039405521
0.56905043 -0.03615737 0.039398294
0.56903613 -0.035301853 0.039391071
0.56902188 -0.034446336 0.039383844
0.56900764 -0.03359082 0.03937662
0.56899333 -0.032735303 0.039369393
0.56897908 -0.031879786 0.03936217
0.56896478 -0.03102427 0.039354943
0.56895053 -0.030168753 0.039347719
0.56975573 -0.029265912 0.039916575
0.56974149 -0.028411988 0.039909363
0.56972724 -0.027558064 0.039902151
0.56971306 -0.026704142 0.039894938
0.56969881 -0.025850218 0.039887726
0.56968457 -0.024996294 0.039880518
0.56967032 -0.02414237 0.039873306
0.56965607 -0.023288446 0.039866094
0.56964183 -0.022434523 0.039858881
0.5688079 -0.021613585 0.039275467
0.56879359 -0.020758068 0.03926824
0.56795955 -0.019932354 0.038684752
0.56794524 -0.019075243 0.038677514
0.56793094 -0.018218134 0.038670275
0.56709683 -0.017386043 0.038086768
0.56708246 -0.01652734 0.038079515
0.56624824 -0.01569047 0.037495967
0.56623393 -0.014830175 0.037488703
0.56621957 -0.013969879 0.037481435
0.5662052 -0.013109582 0.03747417
0.5661909 -0.012249286 0.037466906
0.56376761 -0.080047585 0.034482975
0.56375313 -0.079179332 0.034475639
0.56373864 -0.078311063 0.034468308
0.56454116 -0.077307858 0.035037551
0.56452674 -0.076441191 0.035030231
0.56451225 -0.075574525 0.035022911
0.56531489 -0.074577697 0.035592213
0.56530046 -0.073712617 0.035584904
0.56528604 -0.072847545 0.035577599
0.5660888 -0.071857087 0.036146954
0.56607443 -0.07099361 0.03613966
0.56606001 -0.070130125 0.036132369
0.56686288 -0.06914603 0.03670181
0.56684852 -0.068284139 0.03669453
0.56683415 -0.067422256 0.036687251
0.56763709 -0.066444546 0.03725671
0.56762278 -0.065584242 0.037249446
0.56760842 -0.064723954 0.037242178
0.56759405 -0.063863657 0.037234914
0.56839716 -0.062893905 0.037804443
0.56838286 -0.062035203 0.03779719
0.56836855 -0.061176501 0.037789937
0.56835419 -0.060317799 0.037782684
0.56833988 -0.059459098 0.037775435
0.56832558 -0.058600392 0.037768181
0.56831127 -0.05774169 0.037760928
0.56829691 -0.056882989 0.037753675
0.5682826 -0.056024283 0.037746426
0.5682683 -0.055165578 0.037739173
0.56825399 -0.05430688 0.037731919
0.56823963 -0.053448174 0.03772467
0.5690431 -0.052499138 0.038294371
0.56902879 -0.05164203 0.038287133
0.56901449 -0.050784923 0.038279895
0.56900018 -0.049927812 0.038272657
0.56898594 -0.049070697 0.038265418
0.56897163 -0.04821359 0.03825818
0.56895733 -0.047356479 0.038250938
0.56894302 -0.046499372 0.0382437
0.56892872 -0.04564226 0.038236462
0.56891447 -0.044785149 0.038229223
0.56890017 -0.043928038 0.038221985
0.56888586 -0.043070931 0.038214747
0.56887156 -0.04221382 0.038207509
0.56885725 -0.041356713 0.03820027
0.56884301 -0.040499598 0.038193032
0.5688287 -0.03964249 0.03818579
0.5688144 -0.038785379 0.038178552
0.56880009 -0.037928272 0.038171314
0.56878579 -0.037071161 0.038164075
0.56877154 -0.03621405 0.038156837
0.56875724 -0.035356943 0.038149599
0.56874293 -0.034499828 0.038142361
0.569547 -0.033587433 0.038712408
0.56953275 -0.032731917 0.038705181
0.56951851 -0.0318764 0.038697958
0.5695042 -0.031020883 0.038690731
0.56948996 -0.030165367 0.038683508
0.56947571 -0.02930985 0.038676281
0.56946141 -0.028454334 0.038669057
0.56944716 -0.027598817 0.03866183
0.56943291 -0.0267433 0.038654607
0.56941861 -0.025887784 0.03864738
0.56940436 -0.025032267 0.038640156
0.56939012 -0.02417675 0.038632929
0.56937581 -0.023321234 0.038625706
0.56936157 -0.022465717 0.038618479
0.56934732 -0.021610199 0.038611256
0.56933302 -0.020754682 0.038604029
0.56931877 -0.019899165 0.038596805
0.56848568 -0.019071851 0.038012065
0.56847137 -0.018214742 0.038004827
0.56845707 -0.017357631 0.037997585
0.56762391 -0.016523942 0.037412826
0.56760961 -0.015665239 0.037405577
0.5675953 -0.014806536 0.037398323
0.56758094 -0.013947832 0.03739107
0.56756663 -0.01308913 0.037383817
0.56755233 -0.012230426 0.037376568
0.56269771 -0.081195034 0.032660641
0.56268317 -0.080323584 0.03265328
0.56348461 -0.079314008 0.033223744
0.56347013 -0.078444153 0.033216398
0.56427163 -0.07743936 0.033786867
0.56507319 -0.076437764 0.034357361
0.56505871 -0.07557109 0.034350041
0.56504428 -0.074704424 0.034342721
0.56584591 -0.073709197 0.034913272
0.56583148 -0.072844118 0.034905966
0.56663322 -0.071853667 0.035476554
0.56661886 -0.07099019 0.035469264
0.56660444 -0.070126705 0.03546197
0.56659007 -0.06926322 0.035454676
0.56739199 -0.068280727 0.036025371
0.56737757 -0.067418844 0.036018092
0.5673632 -0.066556953 0.036010813
0.56816518 -0.065580837 0.03658152
0.56815088 -0.064720549 0.036574256
0.56813651 -0.063860252 0.036566991
0.56812215 -0.062999949 0.036559723
0.56810784 -0.062139656 0.036552459
0.56809348 -0.06127936 0.036545195
0.56807911 -0.060419064 0.036537927
0.56806475 -0.059558768 0.036530662
0.56886697 -0.058596995 0.037101496
0.56885266 -0.057738293 0.037094243
0.56883836 -0.056879591 0.03708699
0.56882405 -0.056020886 0.03707974
0.56880969 -0.05516218 0.037072487
0.56879538 -0.054303478 0.037065234
0.56878108 -0.053444777 0.037057985
0.56876677 -0.052586075 0.037050731
0.56875247 -0.051727369 0.037043478
0.5687381 -0.050868668 0.037036225
0.5687238 -0.050009966 0.037028976
0.56870949 -0.04915126 0.037021723
0.56869519 -0.048292555 0.03701447
0.56868082 -0.047433853 0.037007216
0.56866652 -0.046575151 0.036999967
0.56865221 -0.04571645 0.036992714
0.56863791 -0.044857748 0.036985461
0.56862354 -0.043999042 0.036978211
0.5694263 -0.043067537 0.037549295
0.56941199 -0.042210426 0.037542056
0.56939769 -0.041353319 0.037534818
0.56938338 -0.040496208 0.03752758
0.56936914 -0.0396391 0.037520342
0.56935483 -0.038781989 0.037513103
0.56934053 -0.037924878 0.037505865
0.56932622 -0.037067767 0.037498623
0.56931192 -0.03621066 0.037491385
0.56929767 -0.035353549 0.037484147
0.56928337 -0.034496438 0.037476908
0.56926906 -0.033639327 0.03746967
0.56925476 -0.032782219 0.037462432
0.56924045 -0.031925108 0.037455194
0.56922621 -0.031067997 0.037447955
0.5692119 -0.030210888 0.037440717
0.5691976 -0.029353779 0.037433475
0.56918329 -0.028496668 0.037426237
0.56998658 -0.027595431 0.037997618
0.56997234 -0.026739914 0.037990391
0.56995803 -0.025884397 0.037983168
0.56994379 -0.025028881 0.037975941
0.56992954 -0.024173364 0.037968718
0.56991524 -0.023317847 0.03796149
0.56990099 -0.022462331 0.037954267
0.56988674 -0.021606814 0.03794704
0.56987244 -0.020751297 0.037939817
0.56904036 -0.01992557 0.037353851
0.56902611 -0.019068459 0.037346613
0.56901181 -0.01821135 0.037339374
0.5689975 -0.017354239 0.037332136
0.5689832 -0.01649713 0.037324898
0.568151 -0.015661841 0.036738891
0.56813669 -0.014803138 0.036731638
0.56812239 -0.013944434 0.036724385
0.56810808 -0.013085731 0.036717132
0.56809372 -0.012227029 0.036709882
0.5632326 -0.080320135 0.0319767
0.56321812 -0.079448693 0.031969339
0.56401861 -0.078440711 0.032541052
0.56400406 -0.077570856 0.032533705
0.56480461 -0.076567665 0.033105426
0.56560516 -0.075567663 0.033677168
0.56559074 -0.074700996 0.033669852
0.56639141 -0.07370577 0.034241635
0.56637692 -0.072840698 0.03423433
0.5663625 -0.071975626 0.034227025
0.56716329 -0.070986778 0.034798868
0.56714886 -0.070123285 0.034791574
0.5671345 -0.069259807 0.03478428
0.56712008 -0.068396322 0.034776989
0.56792104 -0.067415431 0.035348929
0.56790668 -0.066553548 0.03534165
0.56789231 -0.065691657 0.035334371
0.56787789 -0.064829767 0.035327092
0.56867892 -0.063856848 0.035899065
0.56866461 -0.062996551 0.035891801
0.56865025 -0.062136251 0.035884537
0.56863588 -0.061275955 0.035877269
0.56862158 -0.060415659 0.035870004
0.56860721 -0.059555363 0.03586274
0.56859285 -0.05869507 0.035855472
0.56857854 -0.057834771 0.035848208
0.56856418 -0.056974474 0.035840943
0.56854981 -0.056114178 0.035833675
0.56853551 -0.055253882 0.035826411
0.56852114 -0.054393589 0.035819147
0.56850678 -0.05353329 0.035811879
0.56849247 -0.052672993 0.035804614
0.56847811 -0.051812701 0.03579735
0.56846374 -0.050952405 0.035790082
0.56844938 -0.050092109 0.035782818
0.56843507 -0.049231809 0.035775553
0.56923658 -0.048289157 0.03634778
0.56922227 -0.047430456 0.036340531
0.56920797 -0.046571754 0.036333278
0.56919366 -0.045713052 0.036326025
0.5691793 -0.04485435 0.036318772
0.56916499 -0.043995645 0.036311522
0.56915069 -0.043136943 0.036304269
0.56913638 -0.042278238 0.036297016
0.56912202 -0.041419536 0.036289766
0.56910771 -0.04056083 0.036282513
0.56909341 -0.039702129 0.03627526
0.5690791 -0.038843427 0.036268007
0.56906474 -0.037984725 0.036260758
0.56905043 -0.03712602 0.036253504
0.56903613 -0.036267318 0.036246251
0.56902182 -0.035408616 0.036238998
0.56900746 -0.034549911 0.036231749
0.56899315 -0.033691209 0.036224496
0.56897885 -0.032832503 0.036217242
0.56896454 -0.031973802 0.036209993
0.56976664 -0.031064605 0.036782503
0.56975234 -0.030207496 0.036775265
0.56973803 -0.029350387 0.036768027
0.56972373 -0.028493276 0.036760788
0.56970942 -0.027636167 0.03675355
0.56969517 -0.026779056 0.036746312
0.56968087 -0.025921946 0.03673907
0.56966656 -0.025064837 0.036731832
0.56965226 -0.024207728 0.036724593
0.56963795 -0.023350617 0.036717355
0.56962371 -0.022493508 0.036710117
0.5696094 -0.021636397 0.036702879
0.5695951 -0.020779287 0.036695641
0.56958079 -0.019922176 0.036688402
0.56956649 -0.019065067 0.03668116
0.56955224 -0.018207958 0.036673922
0.56953794 -0.017350847 0.036666684
0.56952363 -0.016493738 0.036659446
0.56950933 -0.015636627 0.036652207
0.56867814 -0.014799739 0.036064949
0.56866384 -0.013941037 0.036057696
0.56864947 -0.013082333 0.036050446
0.56863517 -0.01222363 0.036043193
0.56862086 -0.011364927 0.03603594
0.56216884 -0.08147072 0.030147003
0.56296819 -0.080456391 0.030719865
0.56376755 -0.079445243 0.031292755
0.56375301 -0.078573793 0.031285394
0.56455255 -0.077567413 0.031858359
0.56453806 -0.076697558 0.031851012
0.5653376 -0.075695969 0.032423981
0.56613719 -0.074697562 0.032996975
0.56612271 -0.073830895 0.032989658
0.56692243 -0.072837278 0.033562694
0.566908 -0.071972199 0.033555388
0.56689358 -0.071107127 0.033548083
0.56769335 -0.070119873 0.034121171
0.56767893 -0.069256388 0.03411388
0.56766456 -0.068392903 0.034106586
0.56765014 -0.067529425 0.034099296
0.56763572 -0.06666594 0.034092002
0.56843573 -0.065688245 0.034665208
0.56842136 -0.064826354 0.034657929
0.568407 -0.063964464 0.03465065
0.56839263 -0.063102573 0.034643371
0.56837821 -0.062240686 0.034636091
0.56836385 -0.061378796 0.034628812
0.56834948 -0.060516905 0.034621533
0.56833512 -0.059655018 0.034614254
0.56832075 -0.058793128 0.034606975
0.56830639 -0.057931241 0.034599695
0.56829202 -0.05706935 0.03459242
0.56827766 -0.056207456 0.034585141
0.56826323 -0.055345569 0.034577861
0.56824887 -0.054483678 0.034570582
0.56904924 -0.053529885 0.035143953
0.56903487 -0.052669588 0.035136689
0.56902051 -0.051809296 0.035129424
0.5690062 -0.050949 0.035122156
0.56899184 -0.050088704 0.035114892
0.56897748 -0.049228404 0.035107628
0.56896317 -0.048368108 0.035100359
0.56894881 -0.047507811 0.035093095
0.56893444 -0.046647519 0.035085831
0.56892014 -0.045787219 0.035078563
0.56890577 -0.044926923 0.035071298
0.56889141 -0.044066627 0.035064034
0.5688771 -0.04320633 0.035056766
0.56886274 -0.042346034 0.035049502
0.56884837 -0.041485742 0.035042237
0.56883401 -0.040625442 0.035034969
0.5688197 -0.039765146 0.035027705
0.56880534 -0.038904849 0.035020441
0.56879097 -0.038044557 0.035013173
0.56877667 -0.037184257 0.035005908
0.5687623 -0.036323961 0.034998644
0.56874794 -0.035463668 0.034991376
0.5695489 -0.034546513 0.03556506
0.5695346 -0.033687808 0.035557806
0.56952029 -0.032829106 0.035550553
0.56950593 -0.031970404 0.035543304
0.56949162 -0.031111699 0.035536051
0.56947732 -0.030252997 0.035528798
0.56946301 -0.029394293 0.035521548
0.56944865 -0.02853559 0.035514295
0.56943434 -0.027676888 0.035507042
0.56942004 -0.026818184 0.035499789
0.5702213 -0.025918555 0.036073621
0.570207 -0.025061445 0.036066383
0.57019269 -0.024204336 0.036059145
0.57017839 -0.023347225 0.036051903
0.57016408 -0.022490116 0.036044665
0.57014984 -0.021633005 0.036037426
0.57013553 -0.020775896 0.036030188
0.57012123 -0.019918784 0.03602295
0.57010692 -0.019061675 0.036015712
0.57009262 -0.018204566 0.036008473
0.57007837 -0.017347455 0.036001235
0.57006407 -0.016490346 0.035993997
0.56923389 -0.015655044 0.035405513
0.56921959 -0.014796341 0.03539826
0.56920522 -0.013937638 0.035391007
0.56919092 -0.013078935 0.035383757
0.56917661 -0.012220232 0.035376504
0.56834626 -0.011375372 0.034787942
0.56192207 -0.082484774 0.028893877
0.5627203 -0.081467263 0.02946795
0.56270576 -0.080592625 0.029460562
0.5635041 -0.07957989 0.030034676
0.56348956 -0.078706853 0.030027302
0.56428796 -0.077698894 0.030601453
0.56508648 -0.076694116 0.031175667
0.565072 -0.075824261 0.031168321
0.56587058 -0.074824274 0.031742543
0.56666917 -0.073827468 0.032316785
0.56665474 -0.072960801 0.032309465
0.56745344 -0.071968779 0.032883756
0.56743902 -0.0711037 0.032876447
0.5674246 -0.07023862 0.032869142
0.56741017 -0.069373548 0.032861836
0.56820899 -0.06838949 0.03343619
0.56819457 -0.067526005 0.0334289
0.5681802 -0.066662528 0.033421606
0.56816578 -0.065799043 0.033414315
0.56815135 -0.064935565 0.033407021
0.56813699 -0.06407208 0.033399731
0.56812257 -0.063208595 0.033392437
0.5681082 -0.062345114 0.033385143
0.56809378 -0.061481629 0.033377852
0.56889296 -0.060513496 0.033952374
0.56887853 -0.059651606 0.033945095
0.56886417 -0.058789719 0.033937816
0.5688498 -0.057927828 0.033930536
0.56883544 -0.057065938 0.033923257
0.56882107 -0.056204047 0.033915978
0.56880671 -0.055342156 0.033908699
0.56879234 -0.05448027 0.033901419
0.56877792 -0.053618379 0.03389414
0.56876355 -0.052756496 0.033886861
0.56874919 -0.051894605 0.033879582
0.56873482 -0.051032715 0.033872303
0.56872046 -0.050170828 0.033865023
0.5687061 -0.049308933 0.033857744
0.56869173 -0.048447046 0.033850465
0.56867737 -0.047585156 0.033843189
0.56866294 -0.046723265 0.03383591
0.56864858 -0.045861378 0.033828631
0.56863421 -0.044999488 0.033821352
0.56861985 -0.044137597 0.033814073
0.56860548 -0.04327571 0.033806793
0.56940514 -0.042342633 0.03438158
0.56939083 -0.041482337 0.034374312
0.56937647 -0.040622037 0.034367047
0.5693621 -0.039761744 0.034359783
0.5693478 -0.038901445 0.034352515
0.56933343 -0.038041152 0.034345251
0.56931907 -0.037180852 0.034337986
0.56930476 -0.036320556 0.034330718
0.5692904 -0.035460263 0.034323454
0.56927603 -0.034599964 0.03431619
0.56926167 -0.033739667 0.034308922
0.56924736 -0.032879371 0.034301657
0.569233 -0.032019079 0.034294393
0.56921864 -0.031158779 0.034287125
0.56920433 -0.030298484 0.034279861
0.56918997 -0.029438188 0.034272596
0.5691756 -0.02857789 0.034265328
0.56997579 -0.02767349 0.034840357
0.56996149 -0.026814787 0.034833103
0.56994712 -0.025956083 0.034825854
0.56993282 -0.025097379 0.034818601
0.56991851 -0.024238678 0.034811348
0.56990421 -0.023379974 0.034804095
0.56988984 -0.02252127 0.034796845
0.56987554 -0.021662569 0.034789592
0.56986123 -0.020803865 0.034782339
0.56984693 -0.019945161 0.034775089
0.56983256 -0.019086458 0.034767836
0.56981826 -0.018227756 0.034760583
0.56980395 -0.017369052 0.03475333
0.56978965 -0.016510349 0.034746081
0.56977528 -0.015651647 0.034738827
0.56976098 -0.014792943 0.034731574
0.56974667 -0.01393424 0.034724321
0.56973237 -0.013075537 0.034717072
0.56890303 -0.012232264 0.034127284
0.56888872 -0.011371967 0.034120016
0.56166267 -0.082624182 0.027630888
0.56245989 -0.081605077 0.028206183
0.56244528 -0.080728851 0.028198782
0.56324261 -0.079714529 0.02877412
0.56322801 -0.078839898 0.028766733
0.56402546 -0.077830352 0.029342107
0.56482291 -0.076823995 0.029917512
0.56562042 -0.075820819 0.030492974
0.56560594 -0.074950963 0.030485628
0.56640351 -0.073952571 0.031061098
0.5672012 -0.072957367 0.031636596
0.56718671 -0.0720907 0.031629276
0.56717229 -0.071224034 0.031621955
0.56797004 -0.0702352 0.032197505
0.56795561 -0.069370121 0.0321902
0.56794119 -0.068505049 0.032182895
0.56792676 -0.067639977 0.032175589
0.56872463 -0.066659108 0.032751206
0.56871021 -0.065795623 0.032743912
0.56869584 -0.064932145 0.032736622
0.56868142 -0.06406866 0.032729328
0.56866705 -0.063205175 0.032722034
0.56865263 -0.062341694 0.032714743
0.56863821 -0.061478212 0.032707449
0.56862384 -0.060614727 0.032700159
0.56860942 -0.05975125 0.032692865
0.56859505 -0.058887765 0.032685574
0.56858063 -0.058024283 0.03267828
0.5685662 -0.057160802 0.03267099
0.56855184 -0.056297317 0.032663696
0.56853741 -0.055433832 0.032656401
0.56852305 -0.054570351 0.032649111
0.56850863 -0.053706869 0.032641817
0.56849426 -0.052843388 0.032634526
0.56847984 -0.051979903 0.032627232
0.56846541 -0.051116426 0.032619942
0.56845105 -0.050252941 0.032612648
0.56843662 -0.049389455 0.032605354
0.56842226 -0.048525974 0.032598063
0.56840783 -0.047662493 0.032590769
0.56839347 -0.046799008 0.032583479
0.56837904 -0.045935526 0.032576185
0.56836462 -0.045072045 0.032568894
0.56835026 -0.04420856 0.0325616
0.5691489 -0.043272298 0.033137631
0.56913453 -0.042410407 0.033130351
0.56912017 -0.04154852 0.033123072
0.5691058 -0.04068663 0.033115793
0.56909144 -0.039824743 0.033108514
0.56907707 -0.038962852 0.033101238
0.56906271 -0.038100965 0.033093959
0.56904829 -0.037239071 0.03308668
0.56903392 -0.036377184 0.033079401
0.56901956 -0.035515293 0.033072121
0.56900519 -0.034653403 0.033064842
0.56899083 -0.033791516 0.033057563
0.56897646 -0.032929629 0.033050284
0.5689621 -0.032067738 0.033043005
0.5697611 -0.031155374 0.033619199
0.56974673 -0.03029508 0.033611935
0.56973243 -0.029434783 0.033604667
0.56971806 -0.028574487 0.033597402
0.5697037 -0.027714191 0.033590138
0.56968939 -0.026853895 0.03358287
0.56967503 -0.025993599 0.033575606
0.56966066 -0.025133301 0.033568341
0.5696463 -0.024273006 0.033561073
0.56963199 -0.02341271 0.033553809
0.57043129 -0.022517873 0.034130156
0.57041699 -0.021659169 0.034122903
0.57040268 -0.020800466 0.03411565
0.57038832 -0.019941764 0.0341084
0.57037401 -0.01908306 0.034101147
0.57035971 -0.018224357 0.034093894
0.5703454 -0.017365653 0.034086645
0.57033104 -0.016506951 0.034079392
0.57031673 -0.015648248 0.034072138
0.56948853 -0.014809747 0.033481155
0.56947416 -0.013949451 0.033473887
0.56945986 -0.013089155 0.033466622
0.56944549 -0.012228859 0.033459358
0.56861711 -0.011382394 0.032868307
0.56140524 -0.082763575 0.026365394
0.5622015 -0.081742883 0.026941946
0.5621869 -0.08086507 0.026934532
0.56298316 -0.079849154 0.027511092
0.56377953 -0.078836434 0.028087676
0.56376493 -0.077961795 0.02808029
0.56456137 -0.076953851 0.028656915
0.5653578 -0.075949095 0.029233567
0.56615442 -0.074947521 0.029810281
0.56613988 -0.074077666 0.029802935
0.56693649 -0.073080875 0.030379655
0.56773317 -0.072087273 0.030956406
0.56771874 -0.071220607 0.030949086
0.56770426 -0.070353933 0.030941766
0.56768984 -0.069487259 0.030934447
0.56848663 -0.068501621 0.031511262
0.56847221 -0.067636549 0.031503957
0.56845778 -0.066771477 0.031496648
0.56844336 -0.065906398 0.031489342
0.56842893 -0.065041326 0.031482037
0.56841451 -0.064176247 0.031474732
0.56840008 -0.063311167 0.031467427
0.56919706 -0.062338278 0.032044347
0.56918269 -0.061474793 0.032037053
0.56916827 -0.060611311 0.032029763
0.56915385 -0.05974783 0.032022469
0.56913948 -0.058884349 0.032015178
0.56912506 -0.058020864 0.032007884
0.56829906 -0.057255644 0.031416286
0.56828463 -0.056390565 0.031408977
0.56827021 -0.055525489 0.031401671
0.56825578 -0.054660413 0.031394366
0.56824136 -0.053795341 0.031387061
0.56822693 -0.052930262 0.031379756
0.56821251 -0.05206519 0.031372447
0.56819808 -0.051200114 0.031365141
0.56818366 -0.050335038 0.031357836
0.56816924 -0.049469959 0.031350531
0.56815481 -0.048604883 0.031343225
0.56814039 -0.047739811 0.03133592
0.56812596 -0.046874732 0.031328611
0.56892347 -0.045932107 0.031905789
0.56890911 -0.045068629 0.031898499
0.56889468 -0.044205144 0.031891204
0.56888026 -0.043341663 0.031883914
0.5688659 -0.042478178 0.03187662
0.56885147 -0.041614696 0.031869326
0.56883711 -0.040751215 0.031862035
0.56882268 -0.03988773 0.031854741
0.56880832 -0.039024249 0.031847451
0.56879389 -0.038160767 0.031840157
0.56877947 -0.037297282 0.031832866
0.5687651 -0.036433801 0.031825572
0.56875068 -0.03557032 0.031818282
0.56873631 -0.034706835 0.031810988
0.56953424 -0.033788104 0.0323884
0.56951988 -0.032926217 0.032381121
0.56950551 -0.032064326 0.032373842
0.56949115 -0.031202437 0.032366563
0.56947678 -0.030340547 0.032359287
0.56946242 -0.029478658 0.032352008
0.56944799 -0.028616769 0.032344729
0.56943363 -0.027754879 0.032337449
0.56941926 -0.02689299 0.03233017
0.57021743 -0.025990194 0.032907683
0.57020313 -0.025129898 0.032900419
0.57018876 -0.024269601 0.032893151
0.5701744 -0.023409305 0.032885887
0.57016009 -0.022549009 0.032878622
0.57014573 -0.021688713 0.032871354
0.57013136 -0.020828417 0.03286409
0.57011706 -0.01996812 0.032856822
0.57010269 -0.019107824 0.032849558
0.57008833 -0.018247528 0.032842293
0.57007402 -0.017387232 0.032835025
0.57005966 -0.016526936 0.032827761
0.57004529 -0.015666639 0.032820497
0.57003093 -0.014806343 0.032813229
0.57001662 -0.013946047 0.032805964
0.57000226 -0.013085751 0.0327987
0.56917495 -0.012240872 0.032206427
0.56834751 -0.011392808 0.031614091
0.56833315 -0.010529325 0.031606797
0.5611499 -0.08290296 0.025097458
0.56194508 -0.081880689 0.0256752
0.56193042 -0.081001267 0.025667774
0.56353563 -0.079845689 0.026830796
0.56352103 -0.078969464 0.026823396
0.56431639 -0.077958331 0.027401233
0.56430179 -0.077083707 0.027393846
0.56509727 -0.076077357 0.027971724
0.56589276 -0.075074203 0.028549626
0.56668836 -0.074074224 0.029127592
0.56667387 -0.073204368 0.029120246
0.56746948 -0.072209179 0.029698215
0.56745499 -0.071340919 0.029690882
0.56825072 -0.070350505 0.030268895
0.56823629 -0.069483832 0.030261574
0.56822181 -0.068617165 0.030254256
0.56820738 -0.067750499 0.030246936
0.56900322 -0.06676805 0.030825015
0.5689888 -0.065902978 0.030817708
0.56897438 -0.065037899 0.030810403
0.56895995 -0.064172827 0.030803097
0.56894553 -0.063307747 0.03079579
0.5689311 -0.062442672 0.030788485
0.56891668 -0.061577599 0.03078118
0.56890225 -0.06071252 0.030773873
0.56888783 -0.059847448 0.030766567
0.56887341 -0.058982369 0.03075926
0.56885892 -0.058117297 0.030751955
0.5688445 -0.057252221 0.030744649
0.56883007 -0.056387141 0.030737342
0.56881565 -0.055522066 0.030730037
0.56880122 -0.05465699 0.030722732
0.5687868 -0.053791918 0.030715425
0.56877238 -0.052926838 0.030708119
0.56875795 -0.052061766 0.030700814
0.56874353 -0.051196691 0.030693507
0.5687291 -0.050331615 0.030686202
0.56871468 -0.049466535 0.030678896
0.56870025 -0.04860146 0.030671589
0.56868583 -0.047736388 0.030664284
0.56867141 -0.046871308 0.030656978
0.56865698 -0.046006236 0.030649671
0.56864256 -0.04514116 0.030642366
0.56862813 -0.044276081 0.030635061
0.56861371 -0.043411009 0.030627754
0.56859928 -0.042545933 0.030620448
0.56858486 -0.041680858 0.030613143
0.56938154 -0.040747799 0.031191636
0.56936711 -0.039884314 0.031184344
0.56935275 -0.039020833 0.031177051
0.56933832 -0.038157348 0.031169759
0.56932396 -0.037293866 0.031162467
0.56930953 -0.036430385 0.031155175
0.56929511 -0.0355669 0.031147882
0.56928074 -0.034703419 0.031140588
0.56926632 -0.033839934 0.031133296
0.56925195 -0.032976452 0.031126004
0.56923753 -0.032112971 0.031118711
0.56922317 -0.031249488 0.031111419
0.56920874 -0.030386006 0.031104127
0.56919432 -0.029522523 0.031096835
0.56917995 -0.02865904 0.031089542
0.5699771 -0.027751468 0.031668287
0.56996274 -0.026889579 0.031661008
0.56994832 -0.026027691 0.031653728
0.56993395 -0.0251658 0.031646449
0.56991959 -0.024303911 0.03163917
0.56990522 -0.023442023 0.031631891
0.56989086 -0.022580134 0.031624611
0.56987649 -0.021718245 0.031617332
0.56986213 -0.020856354 0.031610057
0.5698477 -0.019994466 0.031602778
0.57064509 -0.019104419 0.032181635
0.57063079 -0.018244123 0.032174371
0.57061642 -0.017383827 0.032167103
0.57060206 -0.016523531 0.032159839
0.57058775 -0.015663235 0.032152575
0.57057339 -0.014802938 0.032145306
0.56974715 -0.01396124 0.031551823
0.56973273 -0.01309935 0.031544544
0.56890637 -0.012252873 0.030950984
0.56889194 -0.011389391 0.030943692
0.56806552 -0.010538133 0.030350128
0.56723905 -0.0096836891 0.029756537
0.56560045 -0.0088350968 0.02857662
0.56314957 -0.0079875784 0.0268103
0.55987173 -0.0062553468 0.024450134
0.55823267 -0.0053796722 0.023269989
0.55821794 -0.0044954778 0.023262521
0.56170541 -0.082899474 0.024413453
0.56169069 -0.082018472 0.024406012
0.56248492 -0.080997787 0.024985004
0.56247026 -0.08011838 0.024977578
0.56326455 -0.079102471 0.025556646
0.5640589 -0.078089766 0.026135705
0.56485331 -0.077080242 0.026714791
0.56483871 -0.076205604 0.026707405
0.56563318 -0.075200863 0.027286531
0.56642771 -0.074199304 0.027865684
0.5672223 -0.073200926 0.028444899
0.56720781 -0.072331071 0.028437553
0.56719333 -0.071461216 0.028430207
0.56798798 -0.070469216 0.029009443
0.56797349 -0.069600955 0.02900211
0.56876826 -0.068613738 0.029581385
0.56875384 -0.067747064 0.029574065
0.56873935 -0.066880397 0.029566746
0.56872493 -0.066013731 0.029559426
0.56871045 -0.065147065 0.029552106
0.56869602 -0.064280398 0.029544787
0.56949097 -0.06330432 0.030124156
0.56947654 -0.062439248 0.030116851
0.56946212 -0.061574176 0.030109543
0.5694477 -0.060709096 0.030102238
0.56943327 -0.059844024 0.030094933
0.56941885 -0.058978945 0.030087626
0.56940442 -0.058113873 0.03008032
0.56939 -0.057248797 0.030073015
0.56937557 -0.056383718 0.030065708
0.56855148 -0.055613704 0.029471593
0.56853706 -0.054747034 0.029464275
0.56852257 -0.053880367 0.029456954
0.56850815 -0.053013701 0.029449634
0.56849366 -0.052147031 0.029442316
0.56847924 -0.051280361 0.029434996
0.56846476 -0.050413691 0.029427677
0.56845033 -0.04954702 0.029420357
0.56843585 -0.048680354 0.029413039
0.56842142 -0.047813684 0.029405719
0.56840694 -0.046947017 0.029398398
0.56839252 -0.046080351 0.02939108
0.56837803 -0.045213677 0.02938376
0.56917357 -0.044272657 0.029963424
0.56915915 -0.043407585 0.029956119
0.56914473 -0.04254251 0.029948814
0.5691303 -0.041677434 0.029941507
0.56911588 -0.040812358 0.029934201
0.56910145 -0.039947283 0.029926896
0.56908703 -0.039082207 0.029919589
0.5690726 -0.038217131 0.029912284
0.56905818 -0.037352055 0.029904978
0.56904376 -0.03648698 0.029897671
0.56902933 -0.035621904 0.029890366
0.56982517 -0.034700003 0.030470192
0.56981081 -0.033836517 0.0304629
0.56979638 -0.032973036 0.030455606
0.56978196 -0.032109555 0.030448314
0.56976759 -0.03124607 0.030441022
0.56975317 -0.030382589 0.030433729
0.56973881 -0.029519107 0.030426437
0.56972438 -0.028655624 0.030419145
0.56970996 -0.027792143 0.030411853
0.56969559 -0.02692866 0.03040456
0.56968117 -0.026065176 0.030397266
0.5696668 -0.025201693 0.030389974
0.56965238 -0.024338212 0.030382682
0.56963801 -0.023474729 0.030375389
0.56962359 -0.022611247 0.030368097
0.57041991 -0.021714833 0.030948173
0.57040554 -0.020852944 0.030940894
0.57039118 -0.019991055 0.030933615
0.57037681 -0.019129165 0.030926336
0.57036245 -0.018267276 0.030919056
0.57034802 -0.017405387 0.030911777
0.57033366 -0.016543496 0.0309045
0.57031929 -0.015681608 0.030897221
0.57030493 -0.014819718 0.030889941
0.57029057 -0.013957829 0.030882662
0.56946522 -0.013112938 0.03028788
0.5694508 -0.012249456 0.030280586
0.56862539 -0.011399785 0.029685799
0.56779999 -0.010546927 0.029090984
0.56697446 -0.0096908845 0.028496142
0.56533778 -0.0088406876 0.027313702
0.56370109 -0.0079841167 0.026131244
0.56206423 -0.0071211746 0.024948733
0.56042725 -0.0062518604 0.02376613
0.55879021 -0.0053761727 0.022583511
0.55877542 -0.0044919788 0.022576043
0.5571382 -0.0036067334 0.021393307
0.56067473 -0.084950067 0.022569098
0.56146777 -0.083921432 0.023149259
0.56145304 -0.083038837 0.023141805
0.5622462 -0.082014985 0.023722008
0.56223148 -0.081133969 0.023714568
0.5630247 -0.080114901 0.024294809
0.56301004 -0.079235479 0.024287382
0.56380343 -0.07822118 0.0248677
0.56459677 -0.077210069 0.025448011
0.56539017 -0.076202147 0.026028346
0.56618363 -0.075197406 0.026608711
0.56616908 -0.074324369 0.026601337
0.5669626 -0.073324412 0.027181741
0.56694812 -0.072452962 0.027174382
0.56774175 -0.071457773 0.02775486
0.56772727 -0.070587918 0.027747514
0.56771278 -0.069718063 0.027740167
0.56850648 -0.068729259 0.028320666
0.568492 -0.067860998 0.028313333
0.56847751 -0.066992737 0.028306002
0.56927139 -0.066010304 0.028886553
0.5692569 -0.06514363 0.028879233
0.56924248 -0.064276963 0.028871913
0.56922799 -0.06341029 0.028864594
0.56921357 -0.062543623 0.028857274
0.56919909 -0.061676953 0.028849956
0.56918466 -0.060810287 0.028842635
0.56917018 -0.05994362 0.028835317
0.56915575 -0.05907695 0.028827997
0.56914127 -0.058210284 0.028820677
0.56912684 -0.057343617 0.028813358
0.56911236 -0.056476939 0.028806038
0.56909794 -0.055610273 0.02879872
0.56908351 -0.054743607 0.0287914
0.56906903 -0.053876936 0.028784081
0.5690546 -0.05301027 0.028776761
0.56904012 -0.052143604 0.028769441
0.5690257 -0.05127693 0.028762123
0.56901121 -0.050410263 0.028754802
0.56899679 -0.049543589 0.028747484
0.5689823 -0.048676923 0.028740164
0.56896788 -0.047810256 0.028732846
0.56895339 -0.046943586 0.028725525
0.56893897 -0.04607692 0.028718205
0.56892449 -0.04521025 0.028710887
0.56891006 -0.04434358 0.028703567
0.56889558 -0.043476909 0.028696248
0.56888115 -0.042610243 0.028688928
0.56886667 -0.041743577 0.02868161
0.56966132 -0.040808935 0.029262565
0.56964689 -0.039943859 0.02925526
0.56963247 -0.039078783 0.029247953
0.56961805 -0.038213708 0.029240647
0.56960362 -0.037348632 0.029233342
0.5695892 -0.036483556 0.029226035
0.56957477 -0.03561848 0.02921873
0.56956035 -0.034753405 0.029211424
0.56954592 -0.033888329 0.029204117
0.5695315 -0.033023253 0.029196812
0.56951708 -0.032158177 0.029189507
0.56950265 -0.031293102 0.029182199
0.56948823 -0.030428026 0.029174894
0.5694738 -0.02956295 0.029167589
0.57026881 -0.028652206 0.029748745
0.57025445 -0.027788725 0.029741451
0.57024002 -0.026925242 0.029734159
0.57022566 -0.02606176 0.029726867
0.57021123 -0.025198277 0.029719574
0.57019681 -0.024334794 0.029712282
0.57018244 -0.023471313 0.02970499
0.57016802 -0.022607829 0.029697698
0.57015365 -0.021744348 0.029690405
0.57013923 -0.020880865 0.029683111
0.57012486 -0.020017382 0.029675819
0.57011044 -0.019153899 0.029668527
0.57009602 -0.018290417 0.029661234
0.57008165 -0.017426934 0.029653942
0.57006723 -0.016563451 0.02964665
0.57005286 -0.01569997 0.029639358
0.57003844 -0.014836486 0.029632065
0.57002407 -0.013973004 0.029624771
0.57000965 -0.013109521 0.029617479
