# .PCD v0.7 - Point Cloud Data file format
VERSION 0.7
FIELDS x y z
SIZE 4 4 4
TYPE F F F
COUNT 1 1 1
WIDTH 1368
HEIGHT 1
VIEWPOINT 0 0 0 1 0 0 0
POINTS 1368
DATA ascii
0.5092575 0.010396029 0.039544687
0.50925112 0.011283441 0.039531361
0.50924474 0.012170852 0.03951804
0.5092383 0.013058264 0.039504718
0.50923193 0.013945675 0.039491396
0.51007795 0.014844159 0.040012218
0.51007158 0.015729977 0.039998919
0.5100652 0.016615795 0.039985619
0.51005882 0.017501613 0.039972324
0.51005244 0.018387433 0.039959025
0.51004606 0.019273251 0.039945725
0.51003969 0.020159069 0.03993243
0.51003331 0.021044889 0.039919131
0.51002693 0.021930706 0.039905831
0.51002055 0.022816526 0.039892536
0.51001418 0.023702344 0.039879236
0.5100078 0.024588162 0.039865937
0.51000142 0.02547398 0.039852642
0.50914258 0.026369439 0.03930489
0.50913614 0.02725685 0.039291568
0.50912976 0.028144263 0.039278246
0.50912338 0.029031673 0.039264925
0.50911701 0.029919086 0.039251603
0.50911063 0.030806497 0.039238282
0.50910425 0.031693909 0.03922496
0.50909787 0.032581322 0.039211635
0.5090915 0.033468731 0.039198313
0.50908506 0.034356147 0.039184991
0.50907868 0.035243556 0.03917167
0.5090723 0.036130968 0.039158348
0.50991857 0.036989622 0.039679766
0.50991219 0.03787544 0.039666466
0.50990582 0.038761258 0.039653171
0.50989944 0.039647076 0.039639872
0.50989306 0.040532894 0.039626572
0.50988674 0.041418716 0.039613277
0.50988036 0.042304534 0.039599977
0.50987399 0.043190353 0.039586678
0.50901484 0.044117674 0.03903845
0.50900847 0.045005087 0.039025128
0.50900209 0.045892496 0.039011806
0.50899571 0.046779908 0.038998485
0.50898933 0.047667317 0.038985163
0.5089829 0.048554733 0.038971841
0.5081237 0.049493205 0.038423441
0.50726449 0.050434865 0.037874997
0.50640523 0.051379714 0.037326504
0.50639886 0.052271899 0.037313107
0.50468665 0.053278971 0.036229338
0.50468022 0.054174349 0.036215898
0.5038209 0.055130348 0.035667237
0.5038144 0.056027316 0.03565377
0.50295508 0.056988094 0.035105035
0.5020957 0.057952061 0.034556255
0.50308788 -0.0023650578 0.034755386
0.50308144 -0.0014649009 0.034741871
0.50307494 -0.000564744 0.034728359
0.50306845 0.00033541286 0.034714844
0.50391322 0.0012705517 0.035236366
0.50475794 0.0022025032 0.035757937
0.5047515 0.0030994744 0.03574447
0.50559628 0.0040266463 0.036266111
0.50644112 0.0049506319 0.0367878
0.50728595 0.0058714328 0.037309568
0.50727957 0.006763624 0.037296176
0.50812441 0.007679644 0.037817985
0.50896931 0.0085924771 0.038339838
0.50896293 0.0094814822 0.038326494
0.50980783 0.010389536 0.038848422
0.50980145 0.011276947 0.038835101
0.50979507 0.01216436 0.038821779
0.50978869 0.013051772 0.038808458
0.50978231 0.013939183 0.038795136
0.50977594 0.014826595 0.038781814
0.50976956 0.015714006 0.038768493
0.50976312 0.016601417 0.038755171
0.50975674 0.01748883 0.038741849
0.50975037 0.018376241 0.038728524
0.50974399 0.019263653 0.038715202
0.50973761 0.020151066 0.038701881
0.50973123 0.021038476 0.038688559
0.50972486 0.021925887 0.038675237
0.50971848 0.0228133 0.038661916
0.50971204 0.02370071 0.038648594
0.50970566 0.024588123 0.038635273
0.50969929 0.025475534 0.038621951
0.50969291 0.026362946 0.038608629
0.50968653 0.027250359 0.038595308
0.50968015 0.02813777 0.038581986
0.50967377 0.029025182 0.038568664
0.5096674 0.029912595 0.038555339
0.50966096 0.030800005 0.038542017
0.50965458 0.031687416 0.038528696
0.5096482 0.032574829 0.038515374
0.50964183 0.033462238 0.038502052
0.50963545 0.034349654 0.038488731
0.50962907 0.035237063 0.038475409
0.50962269 0.036124475 0.038462088
0.50961632 0.037011884 0.038448766
0.50960988 0.0378993 0.038435444
0.5096035 0.038786709 0.038422123
0.50959712 0.039674122 0.038408801
0.50959074 0.040561534 0.038395476
0.50958437 0.041448947 0.038382154
0.50957799 0.042336356 0.038368832
0.50957161 0.043223768 0.038355511
0.50956523 0.044111181 0.038342189
0.5095588 0.044998594 0.038328867
0.50955242 0.045886002 0.038315546
0.50954604 0.046773415 0.038302224
0.50868785 0.04770869 0.037752621
0.50868148 0.048597697 0.037739277
0.5086751 0.0494867 0.037725929
0.50781685 0.05042835 0.037176237
0.5069586 0.051373184 0.036626492
0.50695217 0.052265372 0.036613096
0.5060938 0.053214997 0.03606325
0.50608736 0.05410878 0.036049832
0.50522906 0.055063177 0.035499942
0.50437069 0.056020755 0.03495001
0.50436425 0.056917723 0.034936544
0.50435781 0.057814695 0.034923077
0.50450277 -0.003228842 0.034598801
0.50449634 -0.0023302785 0.034585312
0.50448984 -0.0014317149 0.034571823
0.5044834 -0.00053315033 0.034558333
0.50447696 0.00036541323 0.034544844
0.50532067 0.0012989705 0.03506764
0.50616449 0.0022293394 0.035590485
0.50615805 0.0031247183 0.03557704
0.50615156 0.0040200953 0.035563599
0.50699538 0.0049440931 0.036086541
0.50783932 0.0058649057 0.036609557
0.50868315 0.0067825299 0.037132595
0.50867677 0.007673128 0.037119225
0.50952065 0.0085859727 0.03764233
0.50951427 0.0094749788 0.037628986
0.50950789 0.010363983 0.037615638
0.50950146 0.011252988 0.037602294
0.51034546 0.012157867 0.038125519
0.51033902 0.013045278 0.038112197
0.51033264 0.013932691 0.038098875
0.51032627 0.014820103 0.038085554
0.51031989 0.015707513 0.038072228
0.51031351 0.016594926 0.038058907
0.51030713 0.017482337 0.038045585
0.51030076 0.018369749 0.038032264
0.51029438 0.019257162 0.038018942
0.51028794 0.020144572 0.03800562
0.51028156 0.021031985 0.037992299
0.51027519 0.021919396 0.037978977
0.51026881 0.022806808 0.037965655
0.51026243 0.023694219 0.037952334
0.51025605 0.024581632 0.037939012
0.51024967 0.025469042 0.03792569
0.50939274 0.026366072 0.037375413
0.50938636 0.027255075 0.037362069
0.50937992 0.02814408 0.037348721
0.50937355 0.029033083 0.037335377
0.50936717 0.02992209 0.037322029
0.50936073 0.030811096 0.037308685
0.50935435 0.031700101 0.037295338
0.50934798 0.032589104 0.037281994
0.50934154 0.033478107 0.037268646
0.50933516 0.034367114 0.037255302
0.50932878 0.035256121 0.037241954
0.51017302 0.036117982 0.037765827
0.51016665 0.037005395 0.037752505
0.51016027 0.037892807 0.03773918
0.51015389 0.038780216 0.037725858
0.51014751 0.039667629 0.037712537
0.51014113 0.040555041 0.037699215
0.50928396 0.041479155 0.037148535
0.50927758 0.042368159 0.037135188
0.5092712 0.043257162 0.037121844
0.50926483 0.044146169 0.037108496
0.50925839 0.045035172 0.037095152
0.50925201 0.045924176 0.037081804
0.50924563 0.046813183 0.03706846
0.5092392 0.047702186 0.037055112
0.50923282 0.048591193 0.037041768
0.50837559 0.049531236 0.036490846
0.50836915 0.050421834 0.036477476
0.50751191 0.051366657 0.03592648
0.50750548 0.052258845 0.035913087
0.50664812 0.053208455 0.03536199
0.50579083 0.054161247 0.034810875
0.50663525 0.054996029 0.035335153
0.5057779 0.055952001 0.034783993
0.50577146 0.056847379 0.034770548
0.50576502 0.057742756 0.034757107
0.50675839 -0.0031494764 0.034968622
0.50675195 -0.0022540984 0.034955181
0.50589633 -0.0013985055 0.034404278
0.50588989 -0.00050153426 0.034390811
0.50673264 0.00043203373 0.034914855
0.50672621 0.0013274117 0.034901414
0.50671977 0.0022227888 0.034887973
0.50756258 0.0031499856 0.035412114
0.50755614 0.0040437696 0.035398696
0.50839907 0.0049661873 0.035922941
0.50839263 0.005858378 0.035909548
0.5092355 0.0067760143 0.036433831
0.50922912 0.0076666125 0.036420461
0.51007199 0.0085794693 0.036944821
0.51006562 0.0094684744 0.036931474
0.51005924 0.010357479 0.03691813
0.5100528 0.011246484 0.036904782
0.51004642 0.012135489 0.036891438
0.51004004 0.013024494 0.03687809
0.51003361 0.013913498 0.036864746
0.51002723 0.014802503 0.036851399
0.51002085 0.015691508 0.036838055
0.51001441 0.016580513 0.036824707
0.51000804 0.017469518 0.036811363
0.51000166 0.018358523 0.036798015
0.50999522 0.019247528 0.036784671
0.50998884 0.020136533 0.036771324
0.50998247 0.021025538 0.03675798
0.50997609 0.021914542 0.036744632
0.50996965 0.022803547 0.036731288
0.50996327 0.023692552 0.03671794
0.5099569 0.024581557 0.036704596
0.50995046 0.025470562 0.036691248
0.50994408 0.026359567 0.036677904
0.5099377 0.027248571 0.036664557
0.50993127 0.028137576 0.036651213
0.50992489 0.029026581 0.036637865
0.50991851 0.029915586 0.036624521
0.50991207 0.030804591 0.036611173
0.5099057 0.031693596 0.036597829
0.50989932 0.0325826 0.036584482
0.50989288 0.033471603 0.036571138
0.5098865 0.03436061 0.03655779
0.50988013 0.035249617 0.036544446
0.50987369 0.03613862 0.036531098
0.50986731 0.037027624 0.036517754
0.50986093 0.037916631 0.036504406
0.5098545 0.038805638 0.036491062
0.50984812 0.039694637 0.036477715
0.50984174 0.040583644 0.036464371
0.50983536 0.041472651 0.036451023
0.50982893 0.042361654 0.036437679
0.50982255 0.043250658 0.036424331
0.50981617 0.044139665 0.036410987
0.50980973 0.045028672 0.03639764
0.50980335 0.045917675 0.036384296
0.50979698 0.046806678 0.036370948
0.50894076 0.047743522 0.035818823
0.50893432 0.048634123 0.035805453
0.50892794 0.049524721 0.035792083
0.5089215 0.050415318 0.035778712
0.50806522 0.05136013 0.035226468
0.50805879 0.052252319 0.035213076
0.50805241 0.053144515 0.035199679
0.50719601 0.054095704 0.034647312
0.50718957 0.054989487 0.034633894
0.50718313 0.05588327 0.034620475
0.50632679 0.056840826 0.034068041
0.50632036 0.057736207 0.0340546
0.50731373 -0.0031560271 0.034266114
0.50730729 -0.0022606491 0.03425267
0.50730085 -0.001365272 0.034239229
0.50729442 -0.000469894 0.034225788
0.50813621 0.0004620924 0.034751106
0.50812978 0.0013558771 0.034737688
0.50812334 0.0022496609 0.034724269
0.5081169 0.0031434465 0.034710851
0.50895876 0.0040674685 0.035236325
0.50895238 0.0049596597 0.035222933
0.50894594 0.0058518508 0.03520954
0.50978786 0.0067694988 0.035735071
0.50978142 0.007660097 0.035721701
0.51062334 0.0085729649 0.036247309
0.51061696 0.0094619701 0.036233962
0.51061058 0.010350975 0.036220618
0.51060414 0.011239979 0.03620727
0.51059777 0.012128985 0.036193926
0.51059139 0.01301799 0.036180578
0.51058495 0.013906995 0.036167234
0.51057857 0.014795999 0.036153886
0.5105722 0.015685005 0.036140542
0.51056582 0.016574008 0.036127195
0.51055938 0.017463014 0.036113851
0.510553 0.018352019 0.036100503
0.51054662 0.019241024 0.036087159
0.51054019 0.020130029 0.036073811
0.51053381 0.021019034 0.036060467
0.51052743 0.021908037 0.03604712
0.51052099 0.022797044 0.036033776
0.51051462 0.023686048 0.036020428
0.51050824 0.024575053 0.036007084
0.50965327 0.025472058 0.035454307
0.50964689 0.026362656 0.035440937
0.50964046 0.027253253 0.035427567
0.50963402 0.028143853 0.035414197
0.50962764 0.029034449 0.035400826
0.5096212 0.029925048 0.035387456
0.50961483 0.030815646 0.035374086
0.50960839 0.031706244 0.035360716
0.50960201 0.032596841 0.035347346
0.50959557 0.033487439 0.035333976
0.5095892 0.034378037 0.03532061
0.50958276 0.035268635 0.03530724
0.50957638 0.036159232 0.03529387
0.50956994 0.037049834 0.0352805
0.50956357 0.037940431 0.03526713
0.50955713 0.038831029 0.035253759
0.50955075 0.039721627 0.035240389
0.50954431 0.040612224 0.035227019
0.50953794 0.041502822 0.035213649
0.5095315 0.04239342 0.035200279
0.50952512 0.043284018 0.035186909
0.50951868 0.044174615 0.035173539
0.50951231 0.045065213 0.035160173
0.50950587 0.045955811 0.035146803
0.50949949 0.046846408 0.035133433
0.50949305 0.047737006 0.035120063
0.50948668 0.048627608 0.035106692
0.50948024 0.049518205 0.035093322
0.50947386 0.050408803 0.035079952
0.50861853 0.051353604 0.03452646
0.50861216 0.052245792 0.034513067
0.50860572 0.053137988 0.034499671
0.50859928 0.054030176 0.034486279
0.5077439 0.054982949 0.03393263
0.50773746 0.055876732 0.033919215
0.50773102 0.056770518 0.033905797
0.50772458 0.057664298 0.033892378
0.5068692 0.058625031 0.033338647
0.50686276 0.059520409 0.033325206
0.50600731 0.060485922 0.032771401
0.50259179 0.063476495 0.030569229
0.50173622 0.064456344 0.030015208
0.50787544 -0.0040579559 0.03357704
0.50786901 -0.0031625777 0.033563595
0.50786257 -0.0022671998 0.033550154
0.50785613 -0.0013718227 0.033536714
0.50784969 -0.00047644472 0.033523273
0.50869048 0.00045555335 0.034049843
0.50868404 0.0013493381 0.034036424
0.50952494 0.0022765582 0.034563098
0.5095185 0.0031687506 0.034549706
0.50951213 0.0040609408 0.034536313
0.50950569 0.0049531325 0.034522917
0.51034659 0.0058723846 0.035049677
0.51034015 0.0067629828 0.035036307
0.51033378 0.007653581 0.035022937
0.51032734 0.0085441787 0.035009567
0.51032096 0.0094347773 0.0349962
0.51031452 0.010325375 0.03498283
0.51115555 0.011233476 0.035509758
0.51114911 0.01212248 0.035496414
0.51114273 0.013011485 0.035483066
0.51113635 0.01390049 0.035469722
0.51112992 0.014789496 0.035456374
0.51027608 0.015668964 0.03490261
0.5102697 0.016559562 0.03488924
0.51026326 0.017450159 0.03487587
0.51025689 0.018340757 0.0348625
0.51025045 0.019231357 0.03484913
0.51024407 0.020121954 0.03483576
0.51023763 0.021012552 0.034822393
0.51023126 0.02190315 0.034809023
0.51022482 0.022793749 0.034795653
0.51021844 0.023684345 0.034782283
0.510212 0.024574945 0.034768913
0.51020563 0.025465542 0.034755543
0.51019919 0.02635614 0.034742173
0.51019281 0.027246738 0.034728803
0.51018637 0.028137337 0.034715433
0.51018 0.029027933 0.034702063
0.51017356 0.029918533 0.034688693
0.51016718 0.030809131 0.034675322
0.51016074 0.031699728 0.034661956
0.51015437 0.032590326 0.034648586
0.51014793 0.033480924 0.034635216
0.51014155 0.034371521 0.034621846
0.51013511 0.035262119 0.034608476
0.51012874 0.036152717 0.034595106
0.5101223 0.037043318 0.034581736
0.51011592 0.037933916 0.034568366
0.51010948 0.038824514 0.034554996
0.51010311 0.039715111 0.034541626
0.51009667 0.040605709 0.034528255
0.51009029 0.041496307 0.034514885
0.51008385 0.042386904 0.034501515
0.51007748 0.043277502 0.034488149
0.51007104 0.0441681 0.034474779
0.51006466 0.045058697 0.034461409
0.51005822 0.045949295 0.034448039
0.51005179 0.046839893 0.034434669
0.51004541 0.047730491 0.034421299
0.51003897 0.048621092 0.034407929
0.51003259 0.04951169 0.034394559
0.51002616 0.050402287 0.034381188
0.5091719 0.051347077 0.033826448
0.50916547 0.052239265 0.033813052
0.50915903 0.053131457 0.033799659
0.50915259 0.05402365 0.033786267
0.50914621 0.054915842 0.033772871
0.50913978 0.055808034 0.033759478
0.50828534 0.056763977 0.033204533
0.50827891 0.05765776 0.033191115
0.50827247 0.058551546 0.0331777
0.50741804 0.059513856 0.032622691
0.5065636 0.060479362 0.032067638
0.50570911 0.061448049 0.031512532
0.50400656 0.062493231 0.03041569
0.50315201 0.063469887 0.029860465
0.50144941 0.064526215 0.028763486
0.49974668 0.065588929 0.027666381
0.50843078 -0.0040645064 0.032874528
0.50842434 -0.0031691284 0.032861087
0.5084179 -0.0022737505 0.032847647
0.50925767 -0.0013385551 0.033375416
0.50925124 -0.00044477038 0.033361997
0.51009113 0.00048564878 0.033889875
0.51008469 0.0013778402 0.033876482
0.51007825 0.0022700308 0.03386309
0.51007187 0.0031622231 0.033849694
0.51006544 0.0040544136 0.033836301
0.510059 0.0049466048 0.033822909
0.51089895 0.0058658691 0.034350917
0.51089251 0.0067564673 0.034337547
0.51088613 0.0076470654 0.034324177
0.5108797 0.0085376631 0.034310807
0.51087332 0.0094282618 0.03429744
0.51086688 0.010318859 0.03428407
0.5108605 0.011209457 0.0342707
0.51085407 0.012100056 0.03425733
0.51084763 0.012990654 0.03424396
0.51084125 0.013881251 0.03423059
0.51083481 0.01477185 0.03421722
0.51082844 0.015662448 0.03420385
0.510822 0.016553046 0.03419048
0.51081562 0.017443644 0.03417711
0.51080918 0.018334242 0.03416374
0.51080281 0.019224839 0.034150369
0.51079637 0.020115439 0.034136999
0.51078999 0.021006037 0.034123633
0.51078355 0.021896634 0.034110263
0.51077718 0.022787232 0.034096893
0.51077074 0.02367783 0.034083523
0.51076436 0.024568427 0.034070153
0.51075792 0.025459027 0.034056783
0.51075155 0.026349625 0.034043413
0.51074511 0.027240222 0.034030043
0.51073873 0.02813082 0.034016673
0.51073229 0.029021418 0.034003302
0.51072592 0.029912017 0.033989932
0.51071948 0.030802615 0.033976562
0.5107131 0.031693213 0.033963192
0.51070666 0.03258381 0.033949826
0.51070029 0.033474408 0.033936456
0.51069385 0.034365006 0.033923086
0.50984073 0.035281107 0.033367522
0.50983435 0.036173299 0.03335413
0.51067466 0.037036799 0.033882976
0.51066822 0.0379274 0.033869606
0.51066184 0.038817998 0.033856235
0.5106554 0.039708596 0.033842865
0.51064903 0.04059919 0.033829495
0.51064259 0.041489791 0.033816125
0.51063621 0.042380389 0.033802755
0.51062977 0.043270987 0.033789389
0.5106234 0.044161584 0.033776019
0.51061696 0.045052182 0.033762649
0.51061058 0.04594278 0.033749279
0.51060414 0.046833377 0.033735909
0.51059777 0.047723975 0.033722539
0.51059133 0.048614576 0.033709168
0.51058495 0.049505174 0.033695798
0.51057851 0.050395772 0.033682428
0.50972521 0.05134055 0.033126436
0.50971878 0.052232735 0.03311304
0.50971234 0.053124931 0.033099648
0.50970596 0.054017123 0.033086255
0.50969952 0.054909315 0.033072859
0.50969309 0.055801507 0.033059467
0.50968671 0.056693695 0.033046074
0.50883323 0.057651222 0.032489855
0.50882679 0.058545008 0.032476436
0.50797337 0.059507307 0.03192018
0.50711989 0.060472798 0.031363875
0.50541937 0.061513178 0.030264635
0.50456578 0.062486634 0.029708177
0.5028652 0.063538164 0.028608769
0.5011645 0.064596072 0.027509235
0.4994638 0.06566035 0.026409633
0.49776307 0.066730998 0.025309941
0.50730211 -0.005058839 0.031100726
0.50814086 -0.0041156667 0.031629626
0.50897962 -0.0031756791 0.032158576
0.50897318 -0.0022803012 0.032145135
0.509812 -0.0013450941 0.032674156
0.51065087 -0.00041306909 0.033203259
0.51064444 0.00047912143 0.033189863
0.510638 0.0013713129 0.033176471
0.51063162 0.0022635034 0.033163078
0.51062518 0.0031556957 0.033149682
0.51061875 0.0040478865 0.03313629
0.51145768 0.0049687554 0.033665527
0.51145124 0.0058593531 0.033652157
0.51144487 0.0067499513 0.033638787
0.51143843 0.0076405494 0.033625416
0.51143205 0.0085311476 0.033612046
0.51142561 0.0094217453 0.033598676
0.51141924 0.010312344 0.03358531
0.5114128 0.011202942 0.03357194
0.51140642 0.01209354 0.03355857
0.51139998 0.012984138 0.0335452
0.51139361 0.013874736 0.03353183
0.51138717 0.014765334 0.03351846
0.51138079 0.015655931 0.03350509
0.51137435 0.016546531 0.03349172
0.51136798 0.017437128 0.033478349
0.51136154 0.018327726 0.033464979
0.51135516 0.019218324 0.033451609
0.51134872 0.020108923 0.033438239
0.51134235 0.020999521 0.033424873
0.51133591 0.021890119 0.033411503
0.51132953 0.022780716 0.033398133
0.51132309 0.023671314 0.033384763
0.51047111 0.024568284 0.032828234
0.51046467 0.025460476 0.032814842
0.51045829 0.026352666 0.032801449
0.51045185 0.027244858 0.032788053
0.51044542 0.028137049 0.032774661
0.51043904 0.029029241 0.032761268
0.5104326 0.029921433 0.032747872
0.51042616 0.030813623 0.03273448
0.51041979 0.031705815 0.032721087
0.51041335 0.032598004 0.032707691
0.51040691 0.033490196 0.032694299
0.51040047 0.034382388 0.032680903
0.5103941 0.03527458 0.03266751
0.51038766 0.036166772 0.032654118
0.51038122 0.037058961 0.032640722
0.51037484 0.037951153 0.032627329
0.51036841 0.038843345 0.032613937
0.51036197 0.039735533 0.032600541
0.51035553 0.040627725 0.032587148
0.51034915 0.041519918 0.032573756
0.51034272 0.04241211 0.03256036
0.51033628 0.043304302 0.032546967
0.5103299 0.04419649 0.032533575
0.51032346 0.045088686 0.032520179
0.51031703 0.045980874 0.032506786
0.51031065 0.046873063 0.032493394
0.51030421 0.047765255 0.032479998
0.51029778 0.048657447 0.032466605
0.51029134 0.049549639 0.032453213
0.51028496 0.050441831 0.032439817
0.51027852 0.05133402 0.032426424
0.51027209 0.052226208 0.032413032
0.51026571 0.053118404 0.032399636
0.51025927 0.054010596 0.032386243
0.51025283 0.054902788 0.032372851
0.51024646 0.055794977 0.032359455
0.50939399 0.056750901 0.031802014
0.50938755 0.05764468 0.031788595
0.50938112 0.058538467 0.031775177
0.50852865 0.059500754 0.03121767
0.50683016 0.060536336 0.030116001
0.50597763 0.061506592 0.029558375
0.50427896 0.062553324 0.028456505
0.50258034 0.063606426 0.027354574
0.50088161 0.064665899 0.026252514
0.49918288 0.065731749 0.025150392
0.49748406 0.066803969 0.024048142
0.49578524 0.06788256 0.022945827
0.50701517 -0.0051116287 0.029852096
0.50869715 -0.0041222293 0.030925866
0.50953496 -0.0031822298 0.031456064
0.50952846 -0.0022868519 0.031442624
0.51036632 -0.0013516331 0.031972896
0.51035988 -0.00045784839 0.031959478
0.51035345 0.00043593629 0.031946059
0.51119137 0.0013647855 0.032476459
0.51118493 0.002256976 0.032463066
0.51117849 0.0031491683 0.032449674
0.51117206 0.0040413588 0.032436278
0.51116568 0.0049335505 0.032422885
0.51115924 0.0058257412 0.032409493
0.5111528 0.0067179324 0.032396097
0.51114643 0.0076101236 0.032382704
0.51113999 0.0085023148 0.032369312
0.51113355 0.009394506 0.032355916
0.51112717 0.010286697 0.032342523
0.51112074 0.011178888 0.032329131
0.5111143 0.01207108 0.032315735
0.51110786 0.012963271 0.032302342
0.51110148 0.013855462 0.03228895
0.51109505 0.014747653 0.032275554
0.51108861 0.015639845 0.032262161
0.51108223 0.016532036 0.032248769
0.51107579 0.017424228 0.032235373
0.51106936 0.018316418 0.03222198
0.51106298 0.01920861 0.032208588
0.51105654 0.0201008 0.032195192
0.51105011 0.020992992 0.032181799
0.51104367 0.021885183 0.032168403
0.51103729 0.022777375 0.032155011
0.51103085 0.023669565 0.032141618
0.51102442 0.024561757 0.032128222
0.51101804 0.025453947 0.03211483
0.5110116 0.02634614 0.032101437
0.51100516 0.02723833 0.032088041
0.51099879 0.028130522 0.032074649
0.51099235 0.029022714 0.032061256
0.51098591 0.029914904 0.03204786
0.51097947 0.030807097 0.032034468
0.5109731 0.031699289 0.032021075
0.51096666 0.032591477 0.032007679
0.51096022 0.033483669 0.031994287
0.51095384 0.034375861 0.031980895
0.51094741 0.035268053 0.031967498
0.51094097 0.036160242 0.031954106
0.51093459 0.037052434 0.031940714
0.51092815 0.037944626 0.031927317
0.51092172 0.038836818 0.031913925
0.51091528 0.039729007 0.031900533
0.5109089 0.040621199 0.031887136
0.51090246 0.041513391 0.031873744
0.51089603 0.042405583 0.031860352
0.51088965 0.043297771 0.031846955
0.51088321 0.044189963 0.031833563
0.51087677 0.045082159 0.031820171
0.5108704 0.045974344 0.031806774
0.51086396 0.046866536 0.031793382
0.51085752 0.047758728 0.03177999
0.51085109 0.04865092 0.031766593
0.51084471 0.049543113 0.031753201
0.51083827 0.050435301 0.031739809
0.51083183 0.051327493 0.031726412
0.51082546 0.052219681 0.03171302
0.51081902 0.053111877 0.031699628
0.51081258 0.054004069 0.031686231
0.5108062 0.054896262 0.031672839
0.50995469 0.055850577 0.031114168
0.50994825 0.056744359 0.031100752
0.50994188 0.057638142 0.031087333
0.50993544 0.058531929 0.031073917
0.50908393 0.059494205 0.030515159
0.5073874 0.060529761 0.02941099
0.50569081 0.061571691 0.028306693
0.50483924 0.062546715 0.027747745
0.50314254 0.063599795 0.026643313
0.50144583 0.064659245 0.025538754
0.49974906 0.065725066 0.024434131
0.49805221 0.066797271 0.023329379
0.49635535 0.067875832 0.022224564
0.49465841 0.068960786 0.021119621
0.49380663 0.069967672 0.020560196
0.50841022 -0.0041734246 0.029677212
0.509247 -0.0032318211 0.030208642
0.51008379 -0.0022934023 0.030740114
0.51007736 -0.0013980254 0.030726671
0.51091415 -0.00046438741 0.031258218
0.51090777 0.0004293973 0.031244801
0.51090133 0.001323182 0.031231385
0.51173824 0.0022504486 0.031763054
0.5117318 0.0031426409 0.031749662
0.51172543 0.0040348317 0.03173627
0.51171899 0.0049270228 0.031722873
0.51171255 0.005819214 0.031709481
0.51170617 0.0067114048 0.031696085
0.51169974 0.0076035964 0.031682692
0.5116933 0.0084957872 0.0316693
0.51168692 0.0093879793 0.031655904
0.51168048 0.01028017 0.031642511
0.51167405 0.011172361 0.031629119
0.51166761 0.012064553 0.031615723
0.51166123 0.012956744 0.031602331
0.51165479 0.013848935 0.031588938
0.51164836 0.014741126 0.031575542
0.51164198 0.015633317 0.03156215
0.51163554 0.016525509 0.031548757
0.5116291 0.017417699 0.031535361
0.51162273 0.018309891 0.031521969
0.51161629 0.019202083 0.031508576
0.51160985 0.020094274 0.03149518
0.51160342 0.020986466 0.031481788
0.51159704 0.021878656 0.031468395
0.5115906 0.022770846 0.031454999
0.51158416 0.023663038 0.031441607
0.51157779 0.024555231 0.031428214
0.51157135 0.025447421 0.031414818
0.51156491 0.026339611 0.031401426
0.51155853 0.027231803 0.031388033
0.5115521 0.028123995 0.031374637
0.51154566 0.029016186 0.031361245
0.51153922 0.029908378 0.031347852
0.51153284 0.03080057 0.031334456
0.51068264 0.031711854 0.030775186
0.51067621 0.032605641 0.030761767
0.51066983 0.033499423 0.030748351
0.51066339 0.03439321 0.030734932
0.51065695 0.035286993 0.030721515
0.51065052 0.036180776 0.030708097
0.51064408 0.037074558 0.03069468
0.51063764 0.037968345 0.030681262
0.5106312 0.038862132 0.030667845
0.51062477 0.039755914 0.030654427
0.51061833 0.040649697 0.03064101
0.51061189 0.041543484 0.030627592
0.5114494 0.042399053 0.03116034
0.51144296 0.043291245 0.031146945
0.51143652 0.044183437 0.031133551
0.51143008 0.045075629 0.031120159
0.51142371 0.045967817 0.031106764
0.51141727 0.046860009 0.03109337
0.51141083 0.047752202 0.031079978
0.51140445 0.048644394 0.031066583
0.51139802 0.049536582 0.031053189
0.51139158 0.050428774 0.031039797
0.5113852 0.051320966 0.031026402
0.51137877 0.052213155 0.031013008
0.51137233 0.053105351 0.030999614
0.51052189 0.054056469 0.030439746
0.51051545 0.054950256 0.030426327
0.51050901 0.055844035 0.030412911
0.51050258 0.056737822 0.030399492
0.51049614 0.057631604 0.030386075
0.5096457 0.058592279 0.02982609
0.5087952 0.059556138 0.029266059
0.50710064 0.060593266 0.028159367
0.50625002 0.061565094 0.027599184
0.5045554 0.062613368 0.026492324
0.50370479 0.063593157 0.025932053
0.50200999 0.064652592 0.024824992
0.4994711 0.065796427 0.023171136
0.49777621 0.066870198 0.022063863
0.49692547 0.067869112 0.021503303
0.49523053 0.068954036 0.020395862
0.4943797 0.069960915 0.019835183
0.49437305 0.070884965 0.019821312
0.49637341 -0.010384454 0.020863039
0.4980512 -0.0093567669 0.021941267
0.50812525 -0.0042246431 0.02842606
0.50896102 -0.0032814341 0.028958715
0.51063907 -0.002299953 0.030037604
0.51063263 -0.001404576 0.030024162
0.5106262 -0.00050919806 0.030010721
0.51146203 0.00042285828 0.03054354
0.51145566 0.001316643 0.030530123
0.51144922 0.0022104268 0.030516705
0.51144278 0.0031042125 0.030503286
0.51227874 0.004028304 0.03103626
0.5122723 0.0049204957 0.031022865
0.51226592 0.0058126864 0.031009473
0.51225948 0.0067048776 0.030996079
0.51225305 0.0075970688 0.030982684
0.51224661 0.0084892595 0.030969292
0.51224023 0.0093814516 0.030955898
0.51223379 0.010273643 0.030942503
0.51222736 0.011165834 0.030929111
0.51222098 0.012058025 0.030915717
0.51221454 0.012950216 0.030902322
0.51136559 0.013829625 0.030342275
0.51135916 0.01472341 0.030328859
0.51135272 0.015617195 0.03031544
0.51134628 0.016510978 0.030302024
0.51133984 0.017404763 0.030288605
0.51133347 0.018298548 0.030275188
0.51132703 0.019192332 0.03026177
0.51132059 0.020086117 0.030248353
0.51131415 0.020979902 0.030234935
0.51130772 0.021873686 0.030221516
0.51130128 0.022767471 0.0302081
0.51129484 0.023661256 0.030194681
0.5112884 0.024555041 0.030181265
0.51128197 0.025448823 0.030167846
0.51127559 0.026342608 0.030154429
0.51126915 0.027236393 0.030141011
0.51126271 0.028130177 0.030127594
0.51125628 0.029023962 0.030114176
0.51124984 0.029917747 0.030100759
0.5112434 0.030811531 0.030087341
0.51123697 0.031705316 0.030073924
0.51123053 0.032599099 0.030060505
0.51122409 0.033492886 0.030047089
0.51121765 0.034386668 0.03003367
0.51121128 0.035280455 0.030020254
0.51120484 0.036174238 0.030006835
0.5111984 0.037068021 0.029993419
0.51119196 0.037961807 0.02998
0.51118553 0.038855594 0.029966583
0.51117909 0.039749376 0.029953165
0.51117265 0.040643159 0.029939746
0.51116621 0.041536946 0.02992633
0.51115978 0.042430729 0.029912911
0.5111534 0.043324511 0.029899495
0.51114696 0.044218298 0.029886076
0.51114053 0.045112085 0.02987266
0.51113409 0.046005867 0.029859241
0.51112765 0.04689965 0.029845824
0.51112121 0.047793433 0.029832406
0.51111478 0.048687223 0.029818989
0.51110834 0.049581006 0.029805571
0.5111019 0.050474793 0.029792154
0.51109546 0.051368572 0.029778736
0.51108909 0.052262358 0.029765319
0.51108265 0.053156145 0.029751901
0.51107621 0.054049931 0.029738484
0.51106977 0.054943714 0.029725065
0.51106334 0.055837497 0.029711649
0.51021385 0.056794971 0.029150464
0.51020741 0.057690352 0.029137021
0.51020098 0.058585726 0.02912358
0.50850844 0.059618045 0.028014461
0.5076589 0.06058668 0.027453104
0.50680929 0.061558496 0.026891673
0.50511664 0.062606744 0.025782311
0.50342387 0.063661374 0.024672825
0.5017311 0.064722367 0.023563271
0.50003827 0.065789737 0.022453627
0.49834535 0.066863485 0.02134385
0.49665245 0.067943603 0.020234013
0.49580261 0.068947285 0.0196721
0.4949528 0.069954149 0.019110173
0.49410295 0.070964202 0.0185482
0.49409631 0.071889848 0.018534303
0.49694553 -0.010391203 0.020139277
0.49862131 -0.009363492 0.021220008
0.50113839 -0.0082911272 0.022848127
0.5044902 -0.0062707644 0.025010042
0.50616616 -0.0052701365 0.026091179
0.50784218 -0.0042758877 0.027172375
0.50951827 -0.003288008 0.028253704
0.51035309 -0.0023479746 0.028787654
0.51118791 -0.0014111267 0.029321652
0.51118147 -0.00051574875 0.029308211
0.51117504 0.00037962833 0.02929477
0.5111686 0.0012750063 0.029281328
0.51200348 0.0022038878 0.029815443
0.5119971 0.0030976734 0.029802024
0.51199067 0.0039914572 0.029788608
0.51198423 0.0048852419 0.029775189
0.51197779 0.0057790261 0.029761773
0.51197135 0.0066728103 0.029748354
0.51196492 0.007566595 0.029734937
0.51195848 0.0084603792 0.029721519
0.51195204 0.0093541639 0.029708102
0.51194561 0.010247949 0.029694684
0.51193923 0.011141733 0.029681267
0.51193279 0.012035518 0.029667849
0.51192635 0.012929302 0.029654432
0.51191992 0.013823086 0.029641014
0.51191348 0.014716871 0.029627597
0.51190704 0.015610656 0.029614178
0.5119006 0.01650444 0.029600762
0.51189417 0.017398223 0.029587343
0.51188773 0.018292008 0.029573925
0.51103979 0.019182559 0.029012498
0.5110333 0.020077938 0.028999057
0.51102686 0.020973315 0.028985614
0.51102042 0.021868693 0.028972173
0.51101398 0.02276407 0.02895873
0.51100755 0.023659447 0.02894529
0.51100111 0.024554826 0.028931849
0.51099467 0.025450204 0.028918406
0.51098824 0.026345581 0.028904965
0.5109818 0.027240958 0.028891524
0.51097536 0.028136337 0.028878082
0.51096892 0.029031714 0.028864641
0.51096243 0.029927092 0.0288512
0.51095599 0.030822471 0.028837757
0.51094955 0.031717848 0.028824316
0.51094311 0.032613225 0.028810874
0.51093668 0.033508603 0.028797433
0.51093024 0.03440398 0.028783992
0.5109238 0.035299357 0.028770549
0.51091737 0.036194734 0.028757108
0.51091093 0.037090112 0.028743668
0.51090449 0.037985492 0.028730225
0.51089805 0.03888087 0.028716784
0.51089162 0.039776247 0.028703343
0.51088512 0.040671624 0.0286899
0.51087868 0.041567001 0.02867646
0.51087224 0.042462379 0.028663017
0.51086581 0.043357756 0.028649576
0.51085937 0.044253133 0.028636135
0.51169485 0.045105547 0.029171398
0.51168841 0.045999326 0.029157979
0.51168197 0.046893112 0.029144563
0.51167554 0.047786895 0.029131144
0.5116691 0.048680685 0.029117728
0.51166266 0.049574465 0.029104309
0.51165622 0.050468251 0.029090893
0.51164979 0.051362034 0.029077474
0.51164335 0.05225582 0.029064057
0.51163697 0.053149603 0.029050639
0.51163054 0.05404339 0.02903722
0.51078206 0.054997668 0.028474836
0.51077563 0.055893045 0.028461395
0.51076919 0.056788422 0.028447954
0.51076275 0.057683799 0.028434511
0.50991422 0.058646042 0.027872004
0.50906569 0.059611473 0.027309449
0.50821716 0.060580093 0.026746845
0.50652647 0.061623544 0.025635025
0.50483572 0.06267336 0.024523141
0.50314492 0.063729562 0.023411129
0.50145411 0.064792126 0.022299053
0.5006054 0.065783046 0.021736115
0.49891448 0.066856772 0.02062384
0.49722356 0.067936867 0.019511502
0.4963747 0.068940535 0.018948339
0.4955259 0.069947392 0.018385161
0.49551925 0.070871443 0.01837129
0.49467039 0.071883075 0.017808042
0.49466372 0.072808728 0.017794147
0.49668407 -0.011376235 0.018880891
0.49835786 -0.010343721 0.019964049
0.49919146 -0.009370218 0.020498743
0.50170553 -0.0082978178 0.022130616
0.50421315 -0.0063252631 0.02374894
0.50588715 -0.0053230193 0.024832549
0.50840145 -0.0042824852 0.026464865
0.50923526 -0.0033376575 0.027000027
0.51006907 -0.0023960182 0.027535204
0.51090294 -0.0014575665 0.028070427
0.51173681 -0.00052229944 0.028605698
0.51173037 0.00037307764 0.028592257
0.51172394 0.0012684556 0.028578816
0.5117175 0.0021638328 0.028565373
0.511711 0.0030592117 0.028551932
0.51170456 0.0039545884 0.02853849
0.51253855 0.004878703 0.029073931
0.51253211 0.0057724873 0.029060513
0.51252568 0.0066662715 0.029047096
0.51251924 0.0075600562 0.029033678
0.5125128 0.0084538404 0.029020261
0.51250637 0.0093476251 0.029006843
0.51249993 0.01024141 0.028993426
0.51249349 0.011135194 0.028980007
0.51164663 0.012012987 0.028417516
0.51164019 0.012908366 0.028404076
0.51163369 0.013803743 0.028390633
0.51162726 0.014699121 0.028377192
0.51162082 0.015594498 0.028363751
0.51161438 0.016489876 0.028350309
0.51160794 0.017385254 0.028336868
0.51160151 0.018280631 0.028323427
0.51159507 0.01917601 0.028309984
0.51158863 0.020071387 0.028296543
0.5115822 0.020966765 0.028283102
0.51157576 0.021862142 0.02826966
0.51156932 0.022757519 0.028256219
0.51156282 0.023652896 0.028242776
0.51155639 0.024548275 0.028229335
0.51154995 0.025443653 0.028215894
0.51154351 0.02633903 0.028202452
0.51153708 0.027234407 0.028189011
0.51153064 0.028129786 0.02817557
0.5115242 0.029025164 0.028162127
0.51151776 0.029920543 0.028148687
0.51151133 0.03081592 0.028135246
0.51150489 0.031711295 0.028121803
0.51149845 0.032606672 0.028108362
0.51149201 0.033502053 0.028094919
0.51148552 0.034397431 0.028081479
0.51147908 0.035292808 0.028068038
0.51147264 0.036188185 0.028054595
0.51146621 0.037083562 0.028041154
0.51145977 0.037978943 0.028027713
0.51145333 0.038874317 0.028014271
0.51144689 0.039769694 0.02800083
0.51144046 0.040665071 0.027987389
0.51143402 0.041560452 0.027973946
0.51142758 0.04245583 0.027960505
0.51142114 0.043351207 0.027947063
0.51141471 0.04424658 0.027933622
0.51140821 0.045141961 0.027920181
0.51140177 0.046037339 0.027906738
0.51139534 0.04693272 0.027893297
0.5113889 0.047828093 0.027879857
0.51138246 0.048723474 0.027866414
0.51137602 0.049618851 0.027852973
0.51136959 0.050514225 0.027839532
0.51136315 0.051409606 0.027826089
0.51135671 0.052304983 0.027812649
0.51135027 0.05320036 0.027799206
0.51134384 0.054095741 0.027785765
0.51133734 0.054991119 0.027772324
0.5113309 0.055886492 0.027758881
0.51132447 0.056781869 0.027745441
0.51047701 0.05774251 0.027181709
0.51047051 0.058639478 0.027168244
0.50962299 0.059604898 0.026604438
0.50793427 0.060643554 0.025490187
0.50708669 0.061616935 0.024926264
0.50539798 0.062666729 0.023811879
0.50370914 0.063722908 0.022697369
0.5020203 0.064785451 0.021582792
0.5003314 0.065854371 0.02046809
0.49948362 0.066850059 0.019903829
0.49779466 0.067930125 0.018788991
0.49610561 0.069016576 0.017674023
0.49609897 0.069940634 0.017660152
0.49609232 0.070864685 0.017646279
0.49524444 0.071876302 0.01708178
0.49355534 0.07298027 0.015966583
0.49726379 -0.01230705 0.018169748
0.49809635 -0.011327163 0.018705601
0.49892896 -0.010350458 0.019241534
0.50060081 -0.0093242982 0.020327251
0.50143343 -0.0083555635 0.020863274
0.5031054 -0.0073405523 0.021949193
0.50393808 -0.0063797846 0.022485331
0.5064494 -0.0053296518 0.024121286
0.50812143 -0.0043337625 0.025207462
0.50979358 -0.0033442434 0.026293764
0.50978708 -0.0024440854 0.02628025
0.51145923 -0.0014641288 0.027366664
0.51145279 -0.00056715764 0.027353199
0.5114463 0.0003298127 0.027339734
0.51143986 0.0012267849 0.027326269
0.51227278 0.0021572821 0.027862862
0.51226634 0.003052661 0.027849419
0.5122599 0.003948038 0.027835978
0.51225346 0.0048434152 0.027822535
0.51224703 0.0057387929 0.027809095
0.51224059 0.0066341707 0.027795654
0.51223409 0.0075295484 0.027782211
0.51222765 0.0084249256 0.02776877
0.51222122 0.0093203038 0.027755329
0.51221478 0.010215682 0.027741887
0.51220834 0.011111059 0.027728446
0.51220191 0.012006436 0.027715005
0.51219547 0.012901815 0.027701562
0.51218903 0.013797192 0.027688121
0.51218259 0.01469257 0.027674679
0.51217616 0.015587947 0.027661238
0.51216972 0.016483326 0.027647797
0.51132369 0.01737226 0.027083891
0.51131725 0.01826923 0.027070425
0.51131082 0.019166201 0.02705696
0.51130432 0.020063173 0.027043493
0.51129788 0.020960143 0.027030028
0.51129144 0.021857113 0.027016563
0.51128495 0.022754084 0.027003098
0.51127851 0.023651056 0.026989633
0.51127207 0.024548026 0.026976166
0.51126564 0.025444997 0.026962701
0.51125914 0.026341967 0.026949236
0.5112527 0.027238939 0.026935771
0.51124626 0.028135909 0.026922306
0.51123977 0.02903288 0.026908839
0.51123333 0.029929852 0.026895374
0.51122689 0.030826822 0.026881909
0.51122046 0.031723794 0.026868444
0.51121396 0.032620762 0.026854977
0.51120752 0.033517733 0.026841512
0.51120108 0.034414705 0.026828047
0.51119465 0.035311677 0.026814582
0.51118815 0.036208645 0.026801117
0.51118171 0.037105616 0.02678765
0.51117527 0.038002592 0.026774185
0.51116878 0.03889956 0.02676072
0.51116234 0.039796531 0.026747255
0.5111559 0.040693503 0.02673379
0.51114947 0.041590475 0.026720323
0.51114297 0.042487442 0.026706858
0.51113653 0.043384414 0.026693393
0.51113009 0.044281386 0.026679927
0.51196355 0.045135412 0.027217668
0.51195711 0.046030786 0.027204227
0.51195067 0.046926167 0.027190784
0.51194423 0.047821544 0.027177343
0.51193774 0.048716921 0.027163902
0.5119313 0.049612299 0.02715046
0.51192486 0.050507676 0.027137019
0.51191843 0.051403057 0.027123578
0.51191199 0.05229843 0.027110135
0.51190555 0.053193811 0.027096694
0.51189911 0.054089192 0.027083252
0.51105261 0.055045035 0.026518341
0.51104617 0.055942006 0.026504876
0.51103973 0.056838978 0.026491411
0.5110333 0.057735946 0.026477946
0.51018673 0.058699761 0.025912913
0.50934017 0.05966676 0.025347834
0.50849354 0.060636956 0.024782674
0.50680679 0.061681949 0.023665862
0.50511998 0.062733322 0.022548921
0.50343317 0.063791059 0.021431917
0.50258648 0.064778775 0.020866528
0.50089949 0.065847665 0.019749325
0.49921259 0.066922933 0.018632058
0.49836579 0.067923389 0.018066477
0.49667871 0.069009811 0.016949007
0.49667206 0.069933869 0.016935136
0.49666542 0.070857927 0.016921263
0.58182591 0.25427264 0.070876472
0.58182043 0.2550326 0.070865065
0.49785683 -0.015085976 0.017486354
0.49868172 -0.013178837 0.018009536
0.49867508 -0.012256373 0.017995687
0.49866846 -0.011333913 0.01798184
0.4995001 -0.010357196 0.018519023
0.50116992 -0.0093310121 0.019607242
0.50200158 -0.0083622653 0.020144511
0.50367153 -0.0073472313 0.021232933
0.50450325 -0.0063864519 0.021770321
0.50617325 -0.0053825704 0.022858875
0.50784338 -0.0043850625 0.023947559
0.50867516 -0.0034370278 0.024485139
0.51034534 -0.002450671 0.025573988
0.51033884 -0.0015505143 0.025560476
0.51117074 -0.00061203825 0.026098199
0.51116425 0.00028652538 0.02608471
0.51199615 0.0012202226 0.026622508
0.51198971 0.0021171928 0.026609043
0.51198328 0.003014164 0.026595578
0.51197678 0.0039111343 0.026582111
0.51280874 0.0048368643 0.027120026
0.5128023 0.0057322425 0.027106585
0.51279587 0.0066276197 0.027093144
0.51278943 0.0075229979 0.027079701
0.51278299 0.0084183756 0.027066261
0.51277655 0.0093137529 0.02705282
0.51277012 0.010209131 0.027039377
0.51192516 0.011086901 0.026474388
0.51191872 0.011983872 0.026460923
0.51191223 0.012880843 0.026447456
0.51190579 0.013777814 0.026433991
0.51189935 0.014674785 0.026420526
0.51189291 0.015571755 0.026407061
0.51188642 0.016468726 0.026393596
0.51187998 0.017365696 0.026380129
0.51103497 0.018257806 0.025814923
0.51102847 0.01915637 0.025801433
0.51102203 0.020054935 0.025787944
0.51101553 0.020953499 0.025774455
0.5110091 0.021852061 0.025760965
0.5110026 0.022750627 0.025747476
0.51099616 0.02364919 0.025733987
0.51098967 0.024547754 0.025720498
0.51098323 0.025446318 0.025707006
0.51097679 0.026344882 0.025693517
0.51097029 0.027243447 0.025680028
0.51096386 0.028142011 0.025666539
0.51095736 0.029040575 0.025653049
0.51095092 0.029939139 0.02563956
0.51094443 0.030837703 0.025626071
0.51093799 0.031736266 0.025612582
0.51093149 0.032634832 0.025599092
0.51092505 0.033533394 0.025585603
0.51091856 0.03443196 0.025572114
0.51091212 0.035330523 0.025558624
0.51090562 0.036229085 0.025545135
0.51089919 0.037127651 0.025531646
0.51089269 0.038026217 0.025518157
0.51088625 0.03892478 0.025504667
0.51087976 0.039823342 0.025491178
0.51087332 0.040721904 0.025477689
0.51086688 0.041620471 0.025464199
0.51086038 0.042519037 0.02545071
0.51085395 0.043417599 0.025437221
0.51168638 0.044274822 0.025976166
0.51167989 0.045171794 0.025962701
0.51167345 0.046068761 0.025949236
0.51166701 0.046965733 0.025935771
0.51166058 0.047862705 0.025922304
0.51165408 0.048759677 0.025908839
0.51164764 0.049656648 0.025895374
0.5116412 0.05055362 0.025881909
0.51163471 0.051450588 0.025868444
0.51162827 0.052347559 0.025854977
0.51162183 0.053244531 0.025841512
0.5116154 0.054141503 0.025828047
0.5116089 0.055038475 0.025814582
0.51160246 0.055935442 0.025801117
0.51075697 0.056896061 0.02523488
0.51075047 0.057794623 0.025221391
0.50990492 0.058760021 0.024655085
0.50989842 0.059660174 0.024641572
0.5082137 0.060700372 0.023522301
0.50736803 0.061675329 0.022955852
0.50568318 0.062726676 0.021836411
0.50399834 0.063784391 0.020716907
0.50315261 0.064772092 0.020150268
0.50230688 0.065762974 0.019583581
0.50062191 0.066836633 0.018463803
0.4997761 0.06783548 0.017896997
0.49809101 0.068920292 0.016777053
0.49724513 0.069927111 0.016210126
0.49639925 0.070937112 0.015643151
0.49303558 0.072212934 0.013416716
0.49135035 0.073323227 0.012296423
0.58229721 0.2542671 0.070280217
0.58229172 0.25502706 0.070268802
0.50009769 -0.014047408 0.017851809
0.50009108 -0.01312654 0.017837984
0.50008446 -0.01220567 0.01782416
0.50007784 -0.011284801 0.017810337
0.50090843 -0.01030967 0.018348761
0.50257629 -0.009285056 0.019439504
0.50256974 -0.008368968 0.01942575
0.50340044 -0.0074033937 0.019964352
0.50506842 -0.0063931192 0.021055309
0.50673646 -0.005389214 0.022146365
0.50840461 -0.0043916833 0.023237549
0.50923538 -0.0034436367 0.023776378
0.51006621 -0.002498776 0.024315258
0.5108971 -0.0015570999 0.024854215
0.51089066 -0.00065694301 0.024840703
0.51088417 0.00024321384 0.02482719
0.51171505 0.001178516 0.025366211
0.51170862 0.0020770796 0.025352722
0.51170212 0.0029756441 0.025339233
0.51253307 0.0039045722 0.025878351
0.51252663 0.0048015425 0.025864886
0.51252019 0.0056985137 0.025851419
0.5125137 0.0065954844 0.025837954
0.51250726 0.0074924552 0.025824489
0.51250082 0.0083894264 0.025811024
0.51249439 0.0092863971 0.025797559
0.51248789 0.010183368 0.025784092
0.51248145 0.011080339 0.025770627
0.51247501 0.011977309 0.025757162
0.51163101 0.012859847 0.025190851
0.51162457 0.013758412 0.025177361
0.51161808 0.014656976 0.02516387
0.51161164 0.01555554 0.025150381
0.51160514 0.016454104 0.025136892
0.51159871 0.017352669 0.025123402
0.51159221 0.018251231 0.025109913
0.51158577 0.019149797 0.025096424
0.51074171 0.020046674 0.024529897
0.51073521 0.020946831 0.024516383
0.51072872 0.021846987 0.02450287
0.51072228 0.022747144 0.024489358
0.51071578 0.023647301 0.024475845
0.51070929 0.02454746 0.024462331
0.51070285 0.025447616 0.024448818
0.51069635 0.026347773 0.024435304
0.51068985 0.02724793 0.024421791
0.51068342 0.028148089 0.024408277
0.51067692 0.029048244 0.024394764
0.51067042 0.029948402 0.02438125
0.51150173 0.03083113 0.024921063
0.51065749 0.031748716 0.024354225
0.51065099 0.032648873 0.024340712
0.51064456 0.033549029 0.024327198
0.51063806 0.03444919 0.024313685
0.51063156 0.035349347 0.024300171
0.51062512 0.036249503 0.024286658
0.51061863 0.03714966 0.024273144
0.51061213 0.038049817 0.024259632
0.51060569 0.038949974 0.024246119
0.5105992 0.039850131 0.024232605
0.51143062 0.040715333 0.024772679
0.51142412 0.041613899 0.02475919
0.51141769 0.042512462 0.024745701
0.51141119 0.043411024 0.024732212
0.51140475 0.044309586 0.024718722
0.51139826 0.045208156 0.024705233
0.51139182 0.046106715 0.024691744
0.51138532 0.047005281 0.024678255
0.51137888 0.047903843 0.024664765
0.51137239 0.048802409 0.024651276
0.51136595 0.049700972 0.024637787
0.51135945 0.050599538 0.024624297
0.51135302 0.0514981 0.024610808
0.51134652 0.052396663 0.024597319
0.51134008 0.053295232 0.02458383
0.51133358 0.054193795 0.024570338
0.51132715 0.055092357 0.024556849
0.51132071 0.055990923 0.02454336
0.51047611 0.056953121 0.023975853
0.51046968 0.057853274 0.023962339
0.51046318 0.058753435 0.023948826
0.50961852 0.059722003 0.023381192
0.50877392 0.060693763 0.02281354
0.5070911 0.061740305 0.021691702
0.50624639 0.062720031 0.021123901
0.50456357 0.06377773 0.020001896
0.50371879 0.064765416 0.019434005
0.50287408 0.065756284 0.01886607
0.50119102 0.06682992 0.017743792
0.50034618 0.06782876 0.017175736
0.4986631 0.068913542 0.016053291
0.49865645 0.069836006 0.016039442
0.49697334 0.070930339 0.014916891
0.58025604 0.25419912 0.068025686
0.58193284 0.25398901 0.06913498
0.58192736 0.25475055 0.069123551
0.58192188 0.25551209 0.069112122
0.50150502 -0.013993499 0.017682699
0.5014984 -0.013074225 0.017668899
0.50149179 -0.012154946 0.017655099
0.50148517 -0.011235672 0.017641298
0.50231481 -0.010262123 0.018180998
0.50314444 -0.0092917578 0.01872074
0.5039742 -0.0083245793 0.01926057
0.5048039 -0.0073605888 0.01980041
0.50563359 -0.0063997866 0.020340301
0.50646335 -0.0054421667 0.020880235
0.50812948 -0.0044430182 0.021973897
0.50895929 -0.0034933679 0.022513952
0.50978911 -0.0025469023 0.023054058
0.51061898 -0.0016036241 0.023594208
0.51061249 -0.00070187298 0.02358067
0.51144242 0.00023662821 0.024120931
0.51143599 0.001136786 0.024107417
0.51142949 0.0020369429 0.024093904
0.51142299 0.0029371006 0.02408039
0.51225293 0.0038676336 0.024620732
0.51224649 0.0047661974 0.024607243
0.51223999 0.0056647612 0.024593754
0.51223356 0.0065633254 0.024580264
0.51222712 0.0074618896 0.024566775
0.51222062 0.0083604539 0.024553286
0.51221418 0.0092590181 0.024539797
0.51220769 0.010157581 0.024526307
0.51220125 0.011056146 0.024512818
0.51219475 0.01195471 0.024499327
0.51218832 0.012853274 0.024485838
0.51218182 0.013751837 0.024472348
0.51133883 0.014639144 0.023904717
0.51133233 0.015539302 0.023891205
0.51132584 0.016439458 0.023877691
0.5113194 0.017339615 0.023864178
0.5113129 0.018239772 0.023850664
0.51130641 0.019139931 0.023837151
0.51129997 0.020040087 0.023823638
0.51129347 0.020940244 0.023810124
0.51128697 0.021840401 0.023796611
0.51128054 0.02274056 0.023783099
0.51127404 0.023640716 0.023769585
0.51126754 0.024540873 0.023756072
0.51126111 0.02544103 0.023742558
0.51125461 0.026341187 0.023729045
0.51124811 0.027241344 0.023715531
0.51124167 0.028141502 0.023702018
0.51123518 0.029041659 0.023688504
0.51122868 0.029941818 0.023674991
0.51122224 0.030841975 0.023661479
0.51121575 0.031742129 0.023647966
0.51120925 0.032642286 0.023634452
0.51120281 0.033542443 0.023620939
0.51119632 0.034442604 0.023607425
0.51118982 0.03534276 0.023593912
0.51118338 0.036242917 0.023580398
0.51117688 0.037143074 0.023566885
0.51117039 0.038043231 0.023553371
0.51116395 0.038943388 0.02353986
0.51115745 0.039843548 0.023526346
0.51115096 0.040743701 0.023512833
0.51114452 0.041643862 0.023499319
0.51113802 0.042544018 0.023485806
0.51113153 0.043444175 0.023472292
0.51112509 0.044344332 0.023458779
0.51111859 0.045244489 0.023445265
0.51111209 0.046144649 0.023431752
0.51110566 0.047044802 0.02341824
0.51109916 0.047944959 0.023404727
0.51109266 0.048845116 0.023391213
0.51108623 0.049745277 0.0233777
0.51107973 0.05064543 0.023364186
0.51107323 0.05154559 0.023350673
0.51106679 0.052445743 0.023337159
0.5110603 0.053345907 0.023323646
0.5110538 0.054246061 0.023310134
