# .PCD v0.7 - Point Cloud Data file format
VERSION 0.7
FIELDS x y z
SIZE 4 4 4
TYPE F F F
COUNT 1 1 1
WIDTH 1364
HEIGHT 1
VIEWPOINT 0 0 0 1 0 0 0
POINTS 1364
DATA ascii
0.54459858 0.044246346 0.015710598
0.54381996 0.045135431 0.015105224
0.54383522 0.045976616 0.015107603
0.54305661 0.046870485 0.014502207
0.54227811 0.047767542 0.013896856
0.54229349 0.048611913 0.013899243
0.54151505 0.049513746 0.013293906
0.54073673 0.050418764 0.012688579
0.53995836 0.051326975 0.012083224
0.5399738 0.052176122 0.012085625
0.5391956 0.053089108 0.011480319
0.53921103 0.053939849 0.011482725
0.5384329 0.054857619 0.010877433
0.53765488 0.055778567 0.01027215
0.53687686 0.056702703 0.0096668759
0.53689241 0.057558224 0.0096692946
0.53611439 0.058487147 0.0090639982
0.53533655 0.059419252 0.0084587475
0.53455877 0.060354542 0.0078535052
0.53457439 0.061214842 0.0078559378
0.53300327 0.062234685 0.0066430103
0.53222567 0.06317953 0.0060377945
0.53065479 0.064210519 0.004824935
0.52908403 0.065247886 0.0036120585
0.52751338 0.066291623 0.0023992348
0.52514964 0.067429468 0.00057875348
0.52278608 0.068576865 -0.0012416632
0.5204227 0.069733828 -0.0030620906
0.59044886 0.24937449 0.048509113
0.59046257 0.25012964 0.048511248
0.59047627 0.2508848 0.048513383
0.59048998 0.25163993 0.048515517
0.59050369 0.25239509 0.048517656
0.5905174 0.25315025 0.04851979
0.59053111 0.25390542 0.048521925
0.59133065 0.25416338 0.049130559
0.5913443 0.25491694 0.04913269
0.59135801 0.25567049 0.049134821
0.59215736 0.25592211 0.049743421
0.59295666 0.25617051 0.05035203
0.59297031 0.2569209 0.050354153
0.59376955 0.25716454 0.050962728
0.59456873 0.25740498 0.051571313
0.59536779 0.25764227 0.052179873
0.59538138 0.25838786 0.052181982
0.59618038 0.25862032 0.052790541
0.59619391 0.25936434 0.052792646
0.59699285 0.25959206 0.05340118
0.59700632 0.26033446 0.053403277
0.59701979 0.26107687 0.053405378
0.59703326 0.26181927 0.053407475
0.56190151 0.0061760629 0.028353168
0.56191611 0.0069806026 0.028355444
0.56272495 0.007807353 0.028966904
0.56194532 0.0085896859 0.028359994
0.56195998 0.0093942257 0.028362269
0.56197459 0.010198765 0.028364545
0.56198919 0.011003307 0.028366819
0.56200379 0.011807849 0.028369095
0.56201839 0.012612388 0.028371369
0.562033 0.01341693 0.028373646
0.56204766 0.01422147 0.02837592
0.56126827 0.015018143 0.027769014
0.56128293 0.015824275 0.027771294
0.56050372 0.016625727 0.027164439
0.56051838 0.017433455 0.027166724
0.56053305 0.018241182 0.027169008
0.55975395 0.019049006 0.026562169
0.55897486 0.019860014 0.025955342
0.55819583 0.020674212 0.025348486
0.55821061 0.021486718 0.025350783
0.5574317 0.022305693 0.024743976
0.55665284 0.023127856 0.02413718
0.55666763 0.023943549 0.024139486
0.55588889 0.024770491 0.023532704
0.55511016 0.025600618 0.022925928
0.55512506 0.026419496 0.022928244
0.55434638 0.027254405 0.022321448
0.55436128 0.028074877 0.022323767
0.55358279 0.028914563 0.021717019
0.55280429 0.029757436 0.021110281
0.55281925 0.030581094 0.021112612
0.55204087 0.031428747 0.020505887
0.55205584 0.032253999 0.02050822
0.55127752 0.033106431 0.019901471
0.55049926 0.033962049 0.019294769
0.55051428 0.03479049 0.019297112
0.54973614 0.035650887 0.018690424
0.54975122 0.036480919 0.018692771
0.54897314 0.037346095 0.018086094
0.54819512 0.038214456 0.017479429
0.54821026 0.039047673 0.017481785
0.5474323 0.039920818 0.016875096
0.54665446 0.040797148 0.016268453
0.54587662 0.041676663 0.015661817
0.54589188 0.042514659 0.015664186
0.54511416 0.043398954 0.015057566
0.5443365 0.044286434 0.014450954
0.54435176 0.045127615 0.014453333
0.54357415 0.046019882 0.013846697
0.54279661 0.046915326 0.013240107
0.54281193 0.047759697 0.013242495
0.54203451 0.048659921 0.012635919
0.54125714 0.049563333 0.012029352
0.54047978 0.050469935 0.011422757
0.54049522 0.051319085 0.011425159
0.53971797 0.052230462 0.010818615
0.53894079 0.053145025 0.010212078
0.53895628 0.05399736 0.010214488
0.53817922 0.054916706 0.0096079661
0.53740215 0.055839233 0.0090014534
0.53741771 0.056694753 0.009003873
0.5366407 0.057622068 0.0083973361
0.53586382 0.058552567 0.0077908458
0.53587943 0.059411272 0.0077932742
0.53510267 0.060346548 0.0071867974
0.5343259 0.061285008 0.0065803286
0.53354919 0.062226661 0.0059738336
0.53198028 0.063252844 0.0047584921
0.53041142 0.06428539 0.0035431676
0.52884269 0.065324321 0.0023278249
0.52727413 0.066369615 0.0011125378
0.52491343 0.06750901 -0.00071164244
0.5217607 0.068747275 -0.0031446661
0.59093994 0.25012264 0.047926027
0.59095365 0.25087777 0.047928162
0.59096742 0.25163293 0.047930297
0.59098113 0.25238809 0.047932431
0.59099483 0.25314322 0.047934569
0.59022373 0.25439394 0.047328983
0.5902375 0.25515071 0.047331125
0.59025127 0.25590745 0.047333263
0.59106338 0.256919 0.047945246
0.59264642 0.25666711 0.049162798
0.59266007 0.25741905 0.049164921
0.59345835 0.25766429 0.049774755
0.59425652 0.25790638 0.050384562
0.59505469 0.25814524 0.050994378
0.59506822 0.25889242 0.05099649
0.59586626 0.25912651 0.051606275
0.59666425 0.25935742 0.052216068
0.59667778 0.26010144 0.052218173
0.59747565 0.26032755 0.052827936
0.59748918 0.26106998 0.052830033
0.59750265 0.26181236 0.052832134
0.56241012 0.0061685876 0.027729673
0.56242472 0.0069731274 0.027731949
0.56243938 0.007777669 0.027734224
0.56245399 0.0085822111 0.027736498
0.56246859 0.0093867509 0.027738774
0.56248319 0.010191291 0.027741048
0.5617047 0.010979982 0.027132887
0.56171936 0.011786115 0.027135167
0.56173396 0.01259225 0.027137447
0.56174862 0.013398385 0.027139727
0.56176329 0.014204517 0.027142005
0.56098497 0.015002768 0.026533905
0.56099969 0.015810495 0.026536191
0.56022149 0.016613524 0.025928104
0.56023616 0.017422846 0.025930393
0.56025088 0.018232165 0.025932683
0.5594728 0.019041568 0.025324615
0.55869472 0.019854154 0.024716519
0.5587095 0.020666663 0.024718817
0.55793154 0.02148403 0.024110772
0.5571537 0.022304583 0.023502735
0.55716848 0.023120277 0.023505043
0.5563907 0.023945611 0.02289702
0.55561298 0.02477413 0.022289006
0.55562788 0.025593009 0.022291321
0.55485016 0.02642631 0.021683285
0.55486506 0.027246781 0.021685606
0.55408752 0.028084859 0.02107762
0.55331004 0.028926125 0.020469641
0.553325 0.029749783 0.02047197
0.55254757 0.030595828 0.019864006
0.55256259 0.03142108 0.01986634
0.55178523 0.032271903 0.019258354
0.55100793 0.033125915 0.018650413
0.55102301 0.033954352 0.018652756
0.55024582 0.034813143 0.018044828
0.5502609 0.035643172 0.018047174
0.54948378 0.036506742 0.017439259
0.54870677 0.037373498 0.016831353
0.54872191 0.038206715 0.01683371
0.5479449 0.039078251 0.016225781
0.54716802 0.039952971 0.0156179
0.54639119 0.040830877 0.015010024
0.54640639 0.041668877 0.015012395
0.54562968 0.042551562 0.014404534
0.54485297 0.043437436 0.013796682
0.54486829 0.044278618 0.013799062
0.54409164 0.045169272 0.013191188
0.54331505 0.04606311 0.012583358
0.54333043 0.046907481 0.012585746
0.54255396 0.047806099 0.011977931
0.54177755 0.048707902 0.011370124
0.5410012 0.049612895 0.010762291
0.54101658 0.050462045 0.010764692
0.54024035 0.051371817 0.010156909
0.53946418 0.05228477 0.0095491335
0.53947967 0.053137105 0.0095515437
0.53870356 0.054054841 0.0089437831
0.53792751 0.054975763 0.0083360299
0.53794301 0.055831283 0.0083384495
0.53716701 0.056756992 0.0077306749
0.53639114 0.057685878 0.0071229446
0.5364067 0.058544587 0.007125373
0.53563088 0.059478253 0.0065176571
0.53485513 0.060415104 0.0059099495
0.53407937 0.061355151 0.0053022145
0.53330374 0.062298376 0.0046945261
0.53252816 0.06324479 0.0040868451
0.53017002 0.064360239 0.002258894
0.52860337 0.065400727 0.0010411233
0.52624559 0.0665337 -0.00078677904
0.52388805 0.067676239 -0.002614618
0.59141737 0.2501156 0.047340807
0.59064716 0.25135994 0.046733968
0.59066093 0.25211668 0.046736106
0.5906747 0.25287345 0.046738248
0.59068841 0.25363016 0.046740387
0.59070218 0.2543869 0.046742529
0.59071589 0.25514367 0.046744667
0.59072965 0.25590041 0.046746809
0.59074342 0.25665715 0.046748947
0.59075713 0.25741389 0.046751089
0.59155452 0.25766715 0.04736216
0.59235185 0.25791717 0.047973242
0.59314913 0.25816405 0.048584297
0.59394634 0.25840771 0.04919536
0.59474349 0.25864819 0.049806397
0.59554058 0.25888547 0.050417442
0.59555417 0.25963268 0.050419558
0.59635115 0.25986519 0.051030573
0.59714812 0.26009452 0.051641595
0.59716165 0.26083851 0.051643699
0.59795851 0.26106307 0.052254688
0.59797198 0.26180547 0.052256789
0.56293339 0.0069656521 0.027108455
0.56294799 0.0077701937 0.027110729
0.56296259 0.0085747354 0.027113006
0.56297719 0.0093792751 0.02711528
0.56219971 0.010166356 0.026505878
0.56221431 0.010972492 0.026508158
0.56143695 0.011764354 0.025898807
0.56145161 0.012572082 0.02590109
0.56146628 0.013379809 0.025903374
0.56068903 0.014178043 0.025294041
0.56070375 0.014987364 0.025296329
0.56071842 0.015796684 0.025298618
0.55994129 0.016601292 0.024689302
0.55995601 0.017412206 0.024691595
0.55917889 0.018221593 0.024082256
0.55919367 0.019034099 0.024084555
0.55841666 0.019848267 0.023475265
0.55843145 0.020662365 0.023477567
0.55765456 0.021481313 0.022868292
0.5576694 0.022297004 0.022870598
0.55689257 0.023120731 0.022261338
0.55611581 0.023947643 0.021652084
0.55613071 0.024766522 0.021654401
0.555354 0.025598213 0.021045124
0.5553689 0.026418686 0.021047445
0.55459231 0.027255157 0.020438218
0.55381578 0.028094813 0.019829003
0.55383074 0.028918471 0.019831331
0.55305433 0.029762909 0.019222129
0.55306929 0.030588159 0.019224461
0.55229294 0.031437378 0.018615237
0.55230796 0.032264221 0.018617574
0.55153167 0.033118218 0.018008398
0.5507555 0.0339754 0.017399231
0.55077058 0.034805432 0.017401578
0.54999447 0.03566739 0.016792424
0.54921842 0.036532536 0.016183279
0.54923356 0.037365757 0.016185636
0.5484575 0.038235683 0.015576469
0.54768163 0.039108798 0.014967347
0.54690576 0.039985094 0.014358234
0.54692096 0.040823091 0.014360604
0.5461452 0.04170417 0.013751504
0.54536951 0.042588435 0.013142413
0.54538476 0.043429621 0.013144792
0.54460913 0.044318669 0.012535679
0.54383355 0.045210898 0.011926611
0.54384887 0.046055265 0.011928999
0.54307342 0.046952274 0.011319944
0.54229802 0.047852471 0.010710899
0.54152256 0.048755858 0.010101826
0.541538 0.049605004 0.010104227
0.54076272 0.050513167 0.0094952043
0.5399875 0.051424518 0.0088861901
0.540003 0.052276853 0.0088886004
0.5392279 0.053192981 0.0082796002
0.5384528 0.054112293 0.0076706079
0.53846836 0.054967813 0.0076730275
0.53769332 0.055891912 0.0070640137
0.5369184 0.056819193 0.0064550443
0.53693402 0.057677899 0.0064574727
0.53615916 0.058609959 0.0058485176
0.53538436 0.0595452 0.0052395705
0.53460962 0.060483638 0.0046305973
0.53383493 0.061425254 0.0040216688
0.53306031 0.062370058 0.0034127496
0.53149551 0.063399367 0.0021924779
0.52993071 0.06443505 0.00097218802
0.52757585 0.065561607 -0.0008593995
0.52522117 0.066697724 -0.002690997
0.59189475 0.2501086 0.046755586
0.59112561 0.25135291 0.046147514
0.59113938 0.25210965 0.046149652
0.59115309 0.25286642 0.046151794
0.59116685 0.25362313 0.046153933
0.59039783 0.25487542 0.045545883
0.5904116 0.25563377 0.045548029
0.59042537 0.25639209 0.045550171
0.59043914 0.25715044 0.045552317
0.59045291 0.25790879 0.045554459
0.59124929 0.25816363 0.046166774
0.59126306 0.25892037 0.046168912
0.59205937 0.25917041 0.046781212
0.59285563 0.2594173 0.047393519
0.59443438 0.2591511 0.048615966
0.59444797 0.25990146 0.048618089
0.59524405 0.26013878 0.049230352
0.59604013 0.26037294 0.049842622
0.59683609 0.26060385 0.050454866
0.59684962 0.26134947 0.050456975
0.59764552 0.26157561 0.051069226
0.59844136 0.26179856 0.051681444
0.56345659 0.0077627185 0.026487235
0.56347126 0.0085672606 0.026489509
0.56269467 0.0093527324 0.025878869
0.56191826 0.010141394 0.025268273
0.56193292 0.010949122 0.025270557
0.56194758 0.011756849 0.025272842
0.56117129 0.012551884 0.024662266
0.56118596 0.013361204 0.024664553
0.56040972 0.014161018 0.024053989
0.56042445 0.014971931 0.024056282
0.55964828 0.015776524 0.023445696
0.55966306 0.016589031 0.023447994
0.55967778 0.017401537 0.023450291
0.55890179 0.018212503 0.022839759
0.55891657 0.019026602 0.022842061
0.55814064 0.019842347 0.022231542
0.55815542 0.02065804 0.022233848
0.55817026 0.021473734 0.022236155
0.55739439 0.022295851 0.021625655
0.55661863 0.023121154 0.021015162
0.55663353 0.023940034 0.021017477
0.55585778 0.024770118 0.020406963
0.55587268 0.025590589 0.020409284
0.5550971 0.026425453 0.019798819
0.55432153 0.027263502 0.019188363
0.55433649 0.02808716 0.019190691
0.55356103 0.028929988 0.01858025
0.55357605 0.02975524 0.018582584
0.55280066 0.03060285 0.017972117
0.55281568 0.031429693 0.017974457
0.5520404 0.032282081 0.017364042
0.55126518 0.033137657 0.016753634
0.55128026 0.033967685 0.016755981
0.5505051 0.034828041 0.016145589
0.55052018 0.035659663 0.016147941
0.54974514 0.036524795 0.015537562
0.5489701 0.037393115 0.014927155
0.54819518 0.038264621 0.014316794
0.54742032 0.039139312 0.013706441
0.54743552 0.039977308 0.013708811
0.54666072 0.040856779 0.013098473
0.54588604 0.041739438 0.012488143
0.5451113 0.042625282 0.011877785
0.54512662 0.043468058 0.011880169
0.54435205 0.044358682 0.011269862
0.54357749 0.045252491 0.010659564
0.54359287 0.046098452 0.010661957
0.54281843 0.046997041 0.010051671
0.54204398 0.047898822 0.0094413599
0.54205942 0.048747968 0.0094437608
0.5412851 0.049654521 0.0088334987
0.54051089 0.050564263 0.0082232459
0.54052639 0.051416598 0.0082256561
0.53975224 0.052331116 0.0076154163
0.53897816 0.053248823 0.0070051854
0.53820407 0.054169718 0.0063949279
0.53821963 0.055026833 0.0063973516
0.53744566 0.055952504 0.005787143
0.53667176 0.056881361 0.0051769442
0.53668743 0.057741664 0.0051793773
0.53591359 0.0586753 0.004569192
0.5351398 0.059612129 0.0039589787
0.53436613 0.060552139 0.0033488115
0.53438187 0.061417218 0.0033512579
0.53281891 0.062441718 0.0021285033
0.53125608 0.063472591 0.00090573041
0.52969342 0.064509831 -0.00031698815
0.52734154 0.065637939 -0.0021523116
0.59159029 0.25058913 0.045558918
0.59160399 0.25134587 0.045561057
0.59161776 0.25210261 0.045563199
0.5908497 0.25335169 0.044953905
0.59086347 0.25411004 0.044956047
0.59087723 0.25486836 0.044958193
0.59010923 0.25612384 0.044348899
0.59012306 0.25688377 0.044351049
0.59013689 0.2576437 0.044353198
0.59093231 0.25790173 0.044966772
0.59094608 0.25866008 0.044968914
0.59095991 0.25941843 0.04497106
0.59175521 0.25967008 0.045584597
0.59255046 0.25991857 0.046198126
0.5933457 0.26016384 0.046811663
0.59414089 0.26040596 0.047425173
0.59493601 0.26064488 0.048038695
0.59573102 0.26088062 0.048652187
0.59652609 0.26111317 0.049265686
0.59732097 0.26134253 0.049879164
0.5973345 0.26208812 0.049881272
0.59812939 0.26231268 0.050494749
0.56318969 0.0085391104 0.02525186
0.56241423 0.0093261627 0.024640026
0.56163883 0.010116402 0.024028201
0.56165355 0.010925724 0.024030488
0.56087822 0.011720743 0.023418676
0.56089294 0.012531656 0.023420971
0.56011766 0.013331455 0.022809135
0.56013244 0.014143961 0.022811431
0.55935729 0.014948539 0.022199648
0.55937207 0.015762638 0.02220195
0.55938685 0.016576739 0.022204252
0.55861181 0.01738769 0.021592485
0.55862665 0.018203383 0.021594791
0.55864149 0.019019077 0.021597099
0.55865628 0.019834768 0.021599405
0.55788141 0.020653686 0.020987662
0.55789626 0.021470971 0.020989971
0.55712146 0.022294667 0.020378241
0.55713636 0.023113545 0.020380557
0.55636156 0.023942022 0.019768802
0.55637646 0.024762494 0.019771123
0.55560189 0.025595749 0.019159419
0.55482733 0.02643219 0.018547723
0.55484229 0.027255848 0.018550053
0.55406779 0.028097069 0.017938372
0.55408275 0.028922321 0.017940706
0.55330837 0.029768322 0.017329002
0.55253404 0.030617509 0.016717341
0.55254906 0.031445947 0.016719684
0.5517748 0.032299913 0.01610804
0.55178988 0.033129942 0.016110387
0.55101573 0.033988688 0.015498755
0.55103087 0.034820314 0.015501106
0.55025679 0.035683837 0.014889488
0.5494827 0.036550548 0.014277842
0.5487088 0.037420444 0.013666241
0.54793489 0.038293529 0.01305465
0.54795009 0.039131526 0.01305702
0.5471763 0.040009391 0.012445441
0.54640251 0.040890437 0.011833874
0.54562879 0.041774675 0.011222277
0.5456441 0.042617451 0.01122466
0.5448705 0.043506466 0.010613114
0.54409695 0.044398669 0.010001577
0.54411232 0.04524463 0.010003969
0.54333884 0.04614161 0.009392445
0.54256541 0.047041781 0.0087808939
0.54258084 0.047890931 0.0087832948
0.54180753 0.048795875 0.008171794
0.54103428 0.049704008 0.007560302
0.54104972 0.050556343 0.0075627123
0.54027659 0.051469255 0.0069512329
0.53950346 0.052385353 0.0063397633
0.53873032 0.053304639 0.0057282667
0.53874594 0.054161754 0.0057306904
0.53797293 0.055085819 0.0051192427
0.53720003 0.05601307 0.0045078048
0.53721565 0.05687337 0.0045102374
0.53644282 0.057805397 0.0038988132
0.53567004 0.05874062 0.0032873608
0.53489733 0.05967902 0.0026759543
0.534913 0.0605441 0.0026784006
0.53414041 0.061487284 0.0020670076
0.53257954 0.062513344 0.00084178813
0.53101873 0.063545778 -0.00038344957
0.52945811 0.06458459 -0.0016086323
0.59206867 0.2505821 0.044972464
0.59208244 0.25133884 0.044974603
0.59131533 0.25258631 0.044364069
0.5913291 0.25334466 0.044366214
0.59134287 0.25410298 0.04436836
0.59057587 0.25535685 0.043757826
0.5905897 0.25611678 0.043759976
0.59060347 0.25687671 0.043762125
0.5906173 0.25763664 0.043764275
0.59063107 0.25839657 0.04376642
0.59142554 0.25865301 0.044381227
0.59143931 0.25941136 0.044383369
0.59145308 0.26016968 0.044385515
0.59224737 0.26041979 0.045000281
0.595424 0.26138827 0.047459301
0.59621805 0.26162246 0.048074022
0.59701198 0.2618534 0.048688754
0.59702557 0.26260057 0.048690867
0.59781945 0.26282677 0.049305566
0.56061655 0.012511398 0.022177169
0.55984241 0.013312776 0.021564141
0.55985719 0.014126875 0.021566443
0.55908304 0.014933032 0.020953428
0.55909789 0.015748724 0.020955734
0.55832386 0.016559662 0.020342732
0.5583387 0.017376948 0.020345043
0.55835354 0.018194234 0.020347355
0.55836838 0.01901152 0.020349666
0.55759454 0.019830421 0.019736687
0.55760938 0.020649301 0.019739002
0.55762428 0.021468179 0.019741319
0.55685049 0.022293454 0.019128321
0.55686539 0.023113927 0.019130642
0.55609173 0.023943979 0.018517694
0.55610663 0.024766047 0.018520018
0.55533308 0.025600879 0.017907083
0.55534804 0.026424536 0.017909413
0.55457455 0.02726415 0.017296493
0.55458951 0.028089402 0.017298827
0.55381608 0.028933795 0.016685883
0.55304271 0.029781373 0.016072985
0.55305773 0.030609811 0.016075328
0.55228448 0.03146217 0.015462443
0.55229956 0.032292198 0.01546479
0.55152637 0.033149336 0.014851919
0.5507533 0.034009662 0.014239056
0.55076838 0.034842879 0.014241412
0.5499953 0.03570798 0.013628528
0.54922235 0.036576271 0.013015688
0.54844946 0.037447747 0.012402859
0.54846466 0.038285743 0.012405228
0.54769182 0.039161999 0.01179241
0.54691905 0.040041439 0.011179603
0.54614627 0.040924069 0.010566767
0.54616159 0.041766845 0.010569151
0.545389 0.042654254 0.0099563645
0.5446164 0.043544844 0.0093435887
0.54463178 0.044390809 0.0093459804
0.5438593 0.045286179 0.0087332176
0.54308683 0.046184741 0.0081204278
0.54310226 0.047033891 0.0081228288
0.54232991 0.047937229 0.0075100884
0.54155761 0.048843753 0.0068973568
0.54157311 0.049696088 0.0068997671
0.54080093 0.050607391 0.0062870495
0.54002875 0.051521882 0.0056743408
0.53925663 0.052439563 0.0050616041
0.53848463 0.053360425 0.0044489135
0.53850025 0.05421913 0.0044513415
0.53772831 0.055144776 0.0038386644
0.53695643 0.056073602 0.0032259962
0.53618455 0.057005621 0.0026133
0.53620023 0.057869107 0.0026157419
0.53542852 0.058805902 0.0020030963
0.53465682 0.059745885 0.0013904596
0.53467256 0.060612556 0.0013929105
0.53390098 0.061557315 0.00078028732
0.53234214 0.062584944 -0.0004474333
0.53078341 0.063618943 -0.0016750989
0.59178096 0.25182092 0.043774236
0.59179473 0.25257924 0.043776378
0.59180856 0.25333762 0.043778524
0.59104252 0.25458986 0.043166753
0.59105629 0.25534979 0.043168902
0.59107012 0.25610971 0.043171048
0.5903042 0.25736833 0.042559315
0.59031808 0.25812984 0.042561468
0.59111154 0.2583895 0.043177497
0.59112531 0.25914946 0.043179646
0.59113914 0.25990936 0.043181796
0.59193248 0.26016265 0.043797825
0.59194624 0.260921 0.04379997
0.59273952 0.26116952 0.044415966
0.59353274 0.26141483 0.045031957
0.59591204 0.26213169 0.046879906
0.59670502 0.26236427 0.047495857
0.59671861 0.26311305 0.047497973
0.59751153 0.26334083 0.048113931
0.55878121 0.013282924 0.019700116
0.55879605 0.014100209 0.019702427
0.55881089 0.014917496 0.019704739
0.55803788 0.015728416 0.019090503
0.55805272 0.016547296 0.019092819
0.55806762 0.017366175 0.019095134
0.55808246 0.018185055 0.019097449
0.55809736 0.019003933 0.019099765
0.55732447 0.019824414 0.01848552
0.55733937 0.020644886 0.018487839
0.55735427 0.021465357 0.01849016
0.55736917 0.02228583 0.018492481
0.55659646 0.023114277 0.017878294
0.55661142 0.023936342 0.017880619
0.55583882 0.024769567 0.017266445
0.55585378 0.025593225 0.017268773
0.55508125 0.026431231 0.016654614
0.55509627 0.027256481 0.016656948
0.55432379 0.028099267 0.016042765
0.55355138 0.028945237 0.015428628
0.55356646 0.029773675 0.01543097
0.55279416 0.030624425 0.014816847
0.55280924 0.031454455 0.014819194
0.55203706 0.032309987 0.014205084
0.55126488 0.0331687 0.013590982
0.55128002 0.03400192 0.013593338
0.5505079 0.034865417 0.012979215
0.5497359 0.035732094 0.012365136
0.5497511 0.0365685 0.012367502
0.54897922 0.037439961 0.011753436
0.54820734 0.038314607 0.011139381
0.54743558 0.039192438 0.010525334
0.54666376 0.040073462 0.0099112587
0.54667908 0.040916238 0.009913642
0.54590744 0.041802038 0.0092996173
0.54513586 0.042691022 0.0086856019
0.54436433 0.043583192 0.0080715949
0.54437971 0.044430748 0.0080739921
0.54360819 0.045327701 0.0074599618
0.54283684 0.046227839 0.0068459781
0.54285228 0.04707858 0.0068483837
0.542081 0.047983497 0.0062344135
0.54130971 0.0488916 0.0056204516
0.54132527 0.04974553 0.0056228666
0.54055411 0.050658409 0.0050089187
0.53978294 0.051574484 0.0043949429
0.5390119 0.05249374 0.003781013
0.53902751 0.053352445 0.0037834411
0.53825653 0.054276478 0.0031695247
0.53748566 0.055203699 0.0025556174
0.53671473 0.056134108 0.0019416828
0.53673047 0.056997597 0.0019441246
0.53595972 0.057932783 0.0013302397
0.53518897 0.058871157 0.00071636389
0.53441834 0.059812717 0.00010249701
0.53443414 0.060680978 0.00010495239
0.53366357 0.061627321 -0.00050890096
0.53210676 0.062656514 -0.0017390865
0.53055006 0.063692071 -0.002969217
0.59149534 0.2530629 0.04257353
0.5915091 0.25382286 0.04257568
0.59152293 0.25458279 0.042577829
0.59075797 0.25583819 0.041964848
0.59077185 0.25659972 0.041967001
0.59078568 0.25736123 0.041969154
0.59079951 0.25812277 0.041971307
0.59081334 0.25888428 0.041973464
0.59082717 0.25964582 0.041975617
0.59161955 0.2599023 0.042592872
0.59163338 0.26066226 0.042595021
0.5924257 0.26091397 0.04321228
0.59243947 0.26167229 0.043214425
0.59323168 0.26191923 0.043831654
0.59402382 0.26216298 0.044448871
0.59481597 0.26240355 0.0450661
0.59560806 0.26264089 0.045683298
0.59640002 0.26287508 0.046300508
0.59641367 0.26362544 0.046302631
0.59720558 0.26385486 0.046919812
0.55928302 0.012458043 0.019064434
0.55851096 0.01326417 0.018448949
0.5585258 0.014083049 0.018451264
0.5585407 0.014901929 0.018453579
0.55776864 0.015714427 0.017838076
0.55778354 0.0165349 0.017840397
0.55779845 0.017355373 0.017842717
0.55781335 0.018175846 0.017845036
0.55782825 0.018996317 0.017847357
0.55784315 0.01981679 0.017849678
0.55785805 0.020637263 0.017851997
0.55708635 0.021462508 0.017236568
0.55710125 0.022284573 0.017238893
0.55632961 0.023114597 0.016623475
0.55634457 0.023938255 0.016625805
0.55635953 0.024761915 0.016628133
0.55558801 0.02559831 0.016012736
0.55481648 0.026437895 0.015397308
0.5548315 0.02726474 0.015399647
0.5540601 0.028109102 0.014784271
0.55407512 0.028937541 0.014786613
0.55330384 0.029786682 0.01417125
0.55331892 0.030616714 0.014173598
0.55254769 0.031470634 0.013558248
0.55177653 0.032327741 0.012942908
0.55179167 0.033160958 0.012945265
0.5510205 0.034022849 0.012329901
0.55024952 0.034887921 0.011714582
0.55026472 0.035724323 0.011716948
0.54949379 0.036594179 0.011101644
0.54872292 0.037467215 0.010486349
0.54795206 0.038343441 0.0098710628
0.54718125 0.039222855 0.0092557482
0.54719657 0.040065631 0.0092581315
0.54642594 0.040949821 0.0086428681
0.54565531 0.041837201 0.0080276132
0.54488474 0.042727761 0.0074123675
0.54490012 0.043575317 0.0074147647
0.54412961 0.044470664 0.0067994962
0.54335922 0.045369193 0.0061842729
0.54337466 0.046219934 0.0061866785
0.54260433 0.047123242 0.0055714692
0.54183406 0.048029739 0.0049562682
0.54106385 0.048939418 0.0043410766
0.5410794 0.049794938 0.0043434962
0.54030925 0.050709404 0.0037282808
0.53953916 0.051627051 0.0031131117
0.53955477 0.05248576 0.0031155401
0.5387848 0.053408187 0.0025003846
0.53801489 0.054333795 0.0018852386
0.53724498 0.055262599 0.001270064
0.53647518 0.056194585 0.00065493543
0.53649086 0.057059664 0.00065738178
0.53572118 0.05799643 4.2266718e-05
0.53495151 0.05893638 -0.00057283934
0.53418189 0.059879519 -0.0011879364
0.53419769 0.060749374 -0.0011854765
0.53342813 0.061697297 -0.0018005971
0.5318734 0.062728055 -0.0030332098
0.59272605 0.25104851 0.042596713
0.59197575 0.25305584 0.041984607
0.59198958 0.2538158 0.041986756
0.59200335 0.25457573 0.041988902
0.59123945 0.25583112 0.041374691
0.59125328 0.25659266 0.041376844
0.59126711 0.25735417 0.041378997
0.59128094 0.25811571 0.04138115
0.59129477 0.25887722 0.041383304
0.59130859 0.25963876 0.041385457
0.59209996 0.25989524 0.042003948
0.59211379 0.26065519 0.042006094
0.59212756 0.26141512 0.042008244
0.59291887 0.26166525 0.042626735
0.59371012 0.2619122 0.043245196
0.59372383 0.26266894 0.043247338
0.59451497 0.26291111 0.043865785
0.5953061 0.26315007 0.044484243
0.59531975 0.26390365 0.044486374
0.55822778 0.012424915 0.017192954
0.55824268 0.013245387 0.017195275
0.55825758 0.01406586 0.017197596
0.55748659 0.014878346 0.016580895
0.55828738 0.015706804 0.017202236
0.55751646 0.016522476 0.016585544
0.55753136 0.017344542 0.016587868
0.55754632 0.018166607 0.016590193
0.55756122 0.018988673 0.016592517
0.55757618 0.019810738 0.016594842
0.55759108 0.020632803 0.016597167
0.55760604 0.021454869 0.016599491
0.55683535 0.022283286 0.015982836
0.55685031 0.023106944 0.015985167
0.55607975 0.02394014 0.015368523
0.55609471 0.024765391 0.015370857
0.5553242 0.025603367 0.014754191
0.55533922 0.026430212 0.01475653
0.55456877 0.027272966 0.014139914
0.55458385 0.028101405 0.014142256
0.55381352 0.028948938 0.013525655
0.55304325 0.029799659 0.012909062
0.55305833 0.030631283 0.012911414
0.55228812 0.031486783 0.012294834
0.55230325 0.03232 0.012297191
0.5515331 0.033180282 0.011680587
0.55076307 0.034043744 0.01106403
0.55077827 0.03488015 0.011066396
0.55000836 0.035748392 0.010449853
0.54923844 0.036619823 0.0098333182
0.54846859 0.037494443 0.0092167929
0.5476988 0.038372248 0.0086002396
0.54771405 0.039215025 0.0086026229
0.54694438 0.040097605 0.0079861199
0.54617476 0.040983375 0.0073696268
0.54540515 0.04187233 0.0067531415
0.54542059 0.042719886 0.0067555388
0.54465103 0.043613624 0.0061390302
0.5438816 0.044510547 0.0055225678
0.54389703 0.045361288 0.0055249734
0.54312772 0.046262987 0.0049085254
0.5423584 0.047167875 0.0042920853
0.5415892 0.048075948 0.0036756548
0.54160476 0.048931468 0.0036780741
0.54083556 0.049844325 0.0030616196
0.54006648 0.050760362 0.0024452114
0.54008204 0.051619075 0.0024476396
0.53931308 0.052539889 0.0018312456
0.53854412 0.053463895 0.0012148598
0.53777516 0.054391086 0.000598446
0.53700638 0.055321466 -1.792179e-05
0.53702205 0.056186549 -1.5475423e-05
0.53625333 0.057121702 -0.00063182972
0.53548467 0.058060046 -0.0012481742
0.53471601 0.059001576 -0.0018645105
0.53473181 0.059871435 -0.0018620506
0.53396326 0.060817748 -0.0024784103
0.53319478 0.061767243 -0.0030947241
0.59242857 0.25152892 0.041391384
0.59245616 0.25304878 0.041395679
0.59246999 0.25380874 0.041397829
0.59248376 0.25456867 0.041399978
0.59172088 0.25582403 0.04078453
0.59173471 0.25658557 0.040786684
0.59174854 0.25734708 0.040788837
0.59176236 0.25810862 0.04079099
0.59177619 0.25887012 0.040793143
0.59179002 0.25963169 0.040795296
0.59258038 0.2598882 0.041415021
0.59259421 0.26064813 0.04141717
0.59260803 0.26140806 0.04141932
0.59339833 0.26165819 0.042039044
0.5934121 0.26241654 0.04204119
0.59342587 0.26317486 0.042043332
0.59421599 0.26341867 0.042663023
0.59422976 0.26417542 0.042665161
0.59501982 0.2644144 0.043284837
0.55719149 0.013215387 0.015318904
0.55720645 0.014039046 0.015321233
0.55722141 0.014862704 0.015323563
0.55723637 0.015686363 0.015325892
0.55725133 0.016510023 0.015328221
0.55805111 0.017336903 0.015950793
0.55728126 0.018157339 0.015332879
0.55729622 0.018980999 0.015335209
0.55731118 0.019804657 0.015337538
0.55732614 0.020628314 0.015339867
0.5573411 0.021451974 0.015342196
0.55657148 0.022281969 0.014724311
0.55658644 0.023107219 0.014726644
0.55660146 0.023932472 0.014728978
0.55583191 0.024768839 0.014111074
0.55584693 0.025595684 0.014113411
0.55507749 0.026436832 0.013495557
0.55430806 0.027281163 0.012877712
0.55432314 0.028111195 0.012880059
0.55355388 0.028960308 0.012262227
0.55356896 0.029791931 0.012264579
0.55279976 0.030645823 0.01164676
0.55203056 0.031502903 0.011028914
0.55204576 0.032337714 0.011031275
0.55127668 0.033199571 0.010413478
0.55129188 0.034035973 0.010415844
0.55052286 0.03490261 0.0097980611
0.54975396 0.035772432 0.0091802869
0.54898512 0.036645442 0.0085625229
0.54821628 0.037521642 0.0079447301
0.5482316 0.038364418 0.0079471134
0.54746288 0.039245393 0.0073293718
0.54669422 0.040129554 0.006711639
0.54592562 0.041016899 0.0060939151
0.545941 0.041864455 0.0060963118
0.54517245 0.042756587 0.0054785642
0.54440397 0.043651897 0.0048608626
0.54441941 0.044502642 0.0048632687
0.54365104 0.045402735 0.0042455811
0.54288274 0.04630601 0.0036279019
0.5421145 0.047212478 0.003010232
0.54213005 0.048067998 0.0030126513
0.54136181 0.048979249 0.0023949584
0.54059374 0.049893677 0.001777311
0.5406093 0.050752386 0.0017797393
0.53984129 0.051671598 0.0011621052
0.53907335 0.052593995 0.00054448092
0.5383054 0.053519577 -7.3172014e-05
0.53753757 0.054448348 -0.00069077901
0.53755325 0.055313431 -0.00068833266
0.53678548 0.056246977 -0.0013059261
0.53601778 0.057183713 -0.0019235099
0.53525013 0.058123633 -0.0025410855
0.53526598 0.058993492 -0.0025386254
0.59216082 0.25353238 0.04018791
0.59217465 0.25429392 0.040190063
0.59218848 0.25505546 0.040192217
0.59220231 0.25581697 0.04019437
0.59221613 0.25657851 0.040196523
0.59222996 0.25734001 0.040198676
0.59224379 0.25810155 0.040200833
0.59225762 0.25886306 0.040202986
0.59227145 0.2596246 0.04020514
0.59306085 0.25988114 0.040826097
0.59307462 0.26064107 0.040828247
0.59308845 0.26140103 0.040830396
0.59310222 0.26216093 0.040832546
0.5938915 0.26240948 0.041453499
0.59390527 0.26316783 0.041455645
0.59391904 0.26392618 0.041457787
0.59393281 0.2646845 0.041459933
0.55692834 0.013196532 0.014059095
0.5569433 0.014021782 0.014061429
0.55774218 0.014855051 0.014685253
0.55775714 0.015678709 0.014687582
0.5577721 0.016502369 0.014689911
0.55778706 0.017326027 0.01469224
0.55701828 0.018148042 0.014073097
0.55703324 0.018973293 0.014075431
0.55704826 0.019798545 0.014077765
0.55706322 0.020623798 0.014080099
0.55707818 0.021449048 0.014082432
0.5570932 0.0222743 0.014084766
0.5563246 0.023107467 0.013465617
0.55633962 0.023934312 0.013467955
0.55557108 0.024772257 0.012848858
0.55558616 0.025600696 0.0128512
0.55481774 0.02644342 0.012232115
0.55483282 0.027273452 0.012234462
0.55406451 0.028120955 0.011615391
0.55407959 0.02895258 0.011617743
0.55331141 0.029804863 0.010998686
0.55254316 0.030660335 0.010379599
0.55255836 0.031495146 0.01038196
0.55179024 0.032355394 0.0097629251
0.55102223 0.033218831 0.0091438992
0.55103743 0.034056827 0.0091462685
0.55026948 0.034925044 0.0085272565
0.54950166 0.035796445 0.007908253
0.54951692 0.036637627 0.0079106316
0.54874909 0.037513811 0.0072916043
0.54798132 0.038393177 0.0066726231
0.54721367 0.039275728 0.0060536512
0.54644603 0.040161468 0.0054346882
0.5464614 0.041009024 0.0054370849
0.54569387 0.041899547 0.0048180982
0.54492635 0.042793252 0.0041991579
0.54494184 0.043643992 0.0042015635
0.54417443 0.04454248 0.0035826368
0.54340708 0.04544415 0.002963719
0.54263985 0.046349008 0.0023448099
0.54265535 0.047204528 0.0023472293
0.54188812 0.048114169 0.0017282965
0.54112101 0.049026992 0.0011094102
0.54113662 0.049885698 0.0011118385
0.54036957 0.0508033 0.00049296563
0.53960258 0.051724091 -0.00012589859
0.53883559 0.052648067 -0.00074479042
0.53806871 0.053575229 -0.0013636362
0.53808445 0.054440308 -0.0013611899
0.53731769 0.055372253 -0.0019800223
0.53655094 0.056307379 -0.0025988459
0.59264225 0.25352532 0.03959775
0.59265608 0.25428683 0.039599907
0.5926699 0.25504836 0.03960206
0.59268373 0.25580987 0.039604213
0.59269756 0.25657141 0.039606366
0.59271139 0.25733295 0.03960852
0.59272522 0.25809446 0.039610673
0.59273905 0.258856 0.039612826
0.59275287 0.25961754 0.039614979
0.59354126 0.25987408 0.040237173
0.59355509 0.26063401 0.040239323
0.59356886 0.26139396 0.040241472
0.59358269 0.26215386 0.040243618
0.5943709 0.26240245 0.040865809
0.59438467 0.26316079 0.040867954
0.59439844 0.26391912 0.040870097
0.59441227 0.26467746 0.040872242
0.55746502 0.014014115 0.013421884
0.55748004 0.014839367 0.013424218
0.557495 0.015664618 0.013426552
0.55751002 0.016489871 0.013428885
0.55752498 0.017315121 0.013431218
0.55754 0.018140374 0.013433552
0.55755496 0.018965626 0.013435886
0.55756998 0.019790877 0.01343822
0.55680227 0.020619249 0.012817823
0.55681729 0.021446094 0.012820161
0.55683231 0.022272939 0.012822499
0.55606472 0.023107683 0.012202158
0.5560798 0.023936123 0.012204501
0.55531234 0.024775645 0.011584172
0.55532742 0.025605677 0.011586519
0.55456007 0.02644998 0.010966204
0.55457515 0.027281605 0.010968557
0.55380785 0.028130688 0.010348255
0.55382299 0.028963905 0.010350611
0.55305576 0.029817767 0.009730286
0.55307096 0.030652579 0.0097326469
0.55230385 0.031511221 0.009112373
0.5515368 0.032373048 0.0084921075
0.551552 0.033211045 0.0084944768
0.55078506 0.034077652 0.0078742253
0.55001813 0.034947444 0.0072539826
0.55003345 0.035788629 0.0072563612
0.54926658 0.036663204 0.0066360952
0.54849982 0.037540961 0.0060158749
0.54773313 0.038421907 0.0053956639
0.54696643 0.039306037 0.0047754617
0.54698187 0.040153593 0.0047778585
0.54621524 0.041042507 0.0041576326
0.54544878 0.041934606 0.0035374528
0.54546422 0.042785347 0.0035398586
0.54469782 0.043682225 0.0029196925
0.54393142 0.044582289 0.0022995353
0.54316515 0.045485537 0.0016793872
0.5431807 0.046341058 0.0016818065
0.54241443 0.04724909 0.001061635
0.54164827 0.048160307 0.00044150942
0.54166389 0.049019013 0.00044393775
0.54089779 0.049935006 -0.00017617433
0.54013181 0.050854187 -0.00079627743
0.53936583 0.051776558 -0.0014164088
0.5393815 0.052640047 -0.0014139669
0.53861564 0.05356719 -0.0020340474
0.53784984 0.054497521 -0.0026541189
0.59312367 0.25351822 0.039007593
0.5931375 0.25427976 0.039009746
0.59315133 0.2550413 0.039011899
0.59316516 0.25580281 0.039014053
0.59317899 0.25656435 0.039016206
0.59319282 0.25732586 0.039018359
0.59320664 0.2580874 0.039020512
0.59322047 0.25884891 0.039022665
0.5932343 0.25961044 0.039024819
0.59402168 0.25986701 0.03964825
0.59403551 0.26062694 0.039650396
0.59404927 0.2613869 0.039652545
0.5940631 0.2621468 0.039654694
0.59407693 0.26290676 0.039656844
0.59486413 0.26315373 0.040280264
0.59410453 0.26442662 0.039661143
0.54622769 0.012163547 0.0034179231
0.55800176 0.014831699 0.012784673
0.55801672 0.01565695 0.012787007
0.55803174 0.016482202 0.01278934
0.5580467 0.017307453 0.012791674
0.55727994 0.018131033 0.012170029
0.55729496 0.018957878 0.012172367
0.55730999 0.019784721 0.012174705
0.55654335 0.020614672 0.011553115
0.55655837 0.02144311 0.011555457
0.55657345 0.022271547 0.011557801
0.55580693 0.023107871 0.010936229
0.55582201 0.023937903 0.010938575
0.55583709 0.024767933 0.010940923
0.5550707 0.025610629 0.010319369
0.55508578 0.026442254 0.010321721
0.5543195 0.027289728 0.00970018
0.55433464 0.028122945 0.0097025363
0.55356836 0.0289752 0.0090809725
0.55280221 0.02983064 0.0084594544
0.5528174 0.030667044 0.00846182
0.55205137 0.031527262 0.0078403158
0.55206656 0.032365263 0.0078426851
0.55130059 0.03323026 0.0072211949
0.55053467 0.034098446 0.0065997127
0.55054992 0.034939628 0.0066020917
0.54978406 0.035812594 0.0059805857
0.54901826 0.036688749 0.0053591263
0.54825252 0.037568085 0.0047376761
0.5482679 0.038414046 0.0047400687
0.54750228 0.039298162 0.0041186316
0.54673666 0.04018547 0.0034971666
0.54597116 0.04107596 0.0028757481
0.54598659 0.041926701 0.0028781539
0.54522115 0.04282197 0.0022567485
0.54445577 0.043720424 0.0016353521
0.54369044 0.044622067 0.0010139649
0.543706 0.045477588 0.0010163842
0.54294074 0.04638401 0.00039497344
0.54217553 0.047293618 -0.00022639136
0.54219115 0.048152328 -0.00022396301
0.54142606 0.049066711 -0.00084531429
0.54066104 0.049984284 -0.0014666566
0.53989601 0.050905049 -0.0020880268
0.53991169 0.051768534 -0.0020855849
0.53914684 0.052694075 -0.0027069047
0.5936051 0.25351116 0.038417432
0.59361893 0.2542727 0.038419586
0.59363276 0.25503421 0.038421739
0.59364659 0.25579572 0.038423892
0.59366041 0.25655729 0.038426045
0.59367424 0.25731879 0.038428202
0.59368813 0.2580803 0.038430355
0.59447449 0.25834006 0.039055027
0.59448832 0.25910002 0.039057173
0.59450209 0.25985995 0.039059322
0.59451592 0.26061988 0.039061472
0.59452975 0.26137984 0.039063621
0.59454352 0.26213974 0.039065771
0.59455734 0.2628997 0.03906792
0.59457111 0.2636596 0.03907007
0.59458494 0.26441956 0.039072219
0.54834175 0.013027303 0.0040127044
0.55696177 0.014807908 0.010894702
0.55775762 0.015642814 0.011522234
0.55699188 0.016464785 0.010899387
0.55778766 0.017296504 0.011526911
0.55780268 0.018123349 0.011529249
0.557037 0.018950099 0.010906415
0.55705202 0.019778537 0.010908758
0.5570671 0.020606974 0.010911101
0.55630153 0.021440096 0.010288285
0.55631661 0.022270128 0.010290632
0.55633169 0.023100158 0.01029298
0.55556625 0.023939652 0.0096701821
0.55558133 0.024771277 0.0096725337
0.55481601 0.025615551 0.0090497499
0.55483115 0.026448768 0.0090521062
0.55406582 0.027297823 0.0084292982
0.55408096 0.028132632 0.0084316591
0.55331582 0.028986465 0.0078089023
0.55333102 0.029822869 0.0078112674
0.55256593 0.030681482 0.0071885237
0.55180085 0.031543277 0.0065657892
0.55181611 0.032382868 0.0065681636
0.5510512 0.033249449 0.0059454427
0.55106646 0.034090631 0.0059478213
0.55030155 0.034961991 0.0053250766
0.54953676 0.035836533 0.0047023781
0.54877198 0.036714263 0.0040796888
0.54878736 0.037560225 0.0040820814
0.54802269 0.038442735 0.0034594052
0.54725808 0.03932843 0.0028367008
0.54649353 0.040217314 0.0022140429
0.54650897 0.041068055 0.0022164488
0.54574454 0.041961715 0.0015938042
0.54498011 0.04285856 0.00097116904
0.5442158 0.043758593 0.00034854253
0.54423136 0.044614118 0.00035096187
0.54346704 0.045518935 -0.0002716881
0.5434826 0.046376046 -0.00026926427
0.54271841 0.047285639 -0.00089186378
0.54195434 0.048198421 -0.0015144543
0.54196995 0.04905872 -0.0015120214
0.54120594 0.049976278 -0.0021345981
0.54044193 0.050897025 -0.0027572033
0.59410036 0.25426561 0.037829429
0.59411418 0.25502715 0.037831582
0.59412801 0.25578865 0.037833735
0.5941419 0.25655019 0.037835889
0.59415573 0.2573117 0.037838042
0.59416956 0.25807324 0.037840195
0.59418339 0.25883475 0.037842348
0.59419721 0.25959629 0.037844501
0.59498256 0.25985289 0.038470399
0.59499633 0.26061282 0.038472548
0.59501016 0.26137277 0.038474698
0.59502393 0.2621327 0.038476847
0.59503776 0.26289263 0.038478997
0.59505159 0.26365253 0.038481146
0.55672073 0.015622165 0.0096286051
0.55673581 0.016452197 0.009630953
0.55753064 0.017285526 0.010259716
0.55676597 0.018112259 0.0096356478
0.55678105 0.018942291 0.0096379947
0.55679613 0.019772321 0.0096403416
0.55681121 0.020602353 0.0096426895
0.55604666 0.021437053 0.0090186438
0.5560618 0.022268677 0.0090209953
0.55607688 0.023100302 0.0090233469
0.55531251 0.023941373 0.0083993189
0.55532759 0.024774592 0.0084016751
0.55456328 0.025620444 0.0077776238
0.55457842 0.026455255 0.0077799847
0.55381417 0.027305886 0.0071559837
0.55382937 0.02814229 0.0071583493
0.55306524 0.028997701 0.0065343622
0.55308044 0.029835697 0.006536732
0.55231643 0.030695887 0.0059127579
0.55233169 0.031535476 0.0059151324
0.55156767 0.032400448 0.0052911723
0.55080372 0.033268604 0.0046671838
0.55081904 0.034111381 0.0046695671
0.55005521 0.034984317 0.0040456294
0.54929143 0.035860438 0.003421701
0.54930681 0.036706403 0.0034240934
0.54854316 0.037587304 0.002800178
0.5477795 0.03847139 0.0021762347
0.54701591 0.039358664 0.0015523379
0.54703134 0.040209409 0.0015547437
0.54626787 0.041101459 0.00093085994
0.54550445 0.041996699 0.00030698554
0.54474109 0.042895123 -0.00031688021
0.54475665 0.043750647 -0.00031446086
0.54399335 0.044653855 -0.00093835004
0.54400891 0.04551097 -0.00093592622
0.54324573 0.046418954 -0.0015597645
0.54248255 0.047330122 -0.0021835943
0.54249823 0.048190426 -0.0021811614
0.54173517 0.049106374 -0.0028049771
0.59459567 0.25502005 0.037241422
0.5946095 0.25578159 0.037243575
0.59462333 0.25654313 0.037245728
0.59463716 0.25730464 0.037247881
0.59465098 0.25806618 0.037250035
0.59466481 0.25882769 0.037252188
0.59467864 0.25958923 0.037254341
0.59546298 0.25984582 0.037881475
0.59547681 0.26060575 0.037883624
0.59549057 0.26136571 0.037885774
0.5955044 0.26212564 0.03788792
0.59551817 0.26288557 0.037890069
0.55648178 0.016439579 0.0083600497
0.55649692 0.017271204 0.0083624013
0.556512 0.018102828 0.0083647529
0.55652714 0.018934453 0.0083671045
0.55654222 0.019766077 0.008369456
0.55577868 0.020600762 0.0077441758
0.55579382 0.021433979 0.0077465321
0.55580896 0.022267198 0.0077488883
0.5558241 0.023100415 0.0077512446
0.55506068 0.023943067 0.0071259495
0.55507588 0.024777876 0.0071283104
0.55431259 0.025625307 0.006503066
0.55432779 0.026461711 0.0065054311
0.55434299 0.027298115 0.0065077967
0.55357981 0.028151918 0.0058825701
0.55359501 0.028989915 0.0058849403
0.55283195 0.029848497 0.0052597271
0.55284721 0.030688087 0.0052621015
0.55208421 0.031551447 0.0046369024
0.55132121 0.032417998 0.0040116748
0.55133653 0.033260774 0.004014058
0.55057371 0.034132101 0.0033888812
0.54981089 0.035006616 0.0027637132
0.54982626 0.035852578 0.0027661056
0.54906356 0.036731873 0.0021409516
0.54830086 0.037614353 0.0015157689
0.54753828 0.038500018 0.0008906328
0.54755372 0.039350759 0.00089303858
0.54679126 0.040241204 0.00026791581
0.54602879 0.041134838 -0.0003571978
0.54526645 0.042031653 -0.00098230259
0.54528195 0.042887174 -0.00097988325
0.5445196 0.043788776 -0.0016050116
0.54453522 0.044645891 -0.0016025878
0.543773 0.045552269 -0.0022276654
0.59511858 0.25729758 0.036657725
0.59513241 0.25805908 0.036659878
0.59514624 0.25882059 0.036662031
0.59516007 0.25958216 0.036664184
0.5951739 0.26034367 0.036666337
0.59595722 0.26059869 0.037294697
0.55545199 0.016422013 0.0064577498
0.55624491 0.017260149 0.0070890328
0.55626005 0.018093368 0.007091389
0.55627519 0.018926585 0.0070937453
0.55551267 0.019761255 0.0064671929
0.55552781 0.020596066 0.0064695538
0.55554295 0.021430878 0.0064719142
0.55555815 0.022265688 0.0064742751
0.5547958 0.023108324 0.0058477828
0.55481094 0.023944728 0.0058501479
0.55482614 0.024781132 0.0058525135
0.55406392 0.025630141 0.0052260389
0.55407912 0.026468137 0.0052284086
0.55409437 0.027306134 0.0052307784
0.55333221 0.028161516 0.0046043219
0.55334747 0.029001106 0.0046066963
0.55258542 0.029861266 0.0039802534
0.55260074 0.030702449 0.0039826324
0.5518387 0.031567391 0.0033561653
0.55185401 0.032410167 0.0033585485
0.55109215 0.033279888 0.0027321328
0.55033034 0.034152795 0.0021057259
0.55034572 0.034998756 0.0021081183
0.54958397 0.035876442 0.0014817248
0.54882228 0.036757313 0.00085530302
0.54806066 0.037641373 0.00022892767
0.54807615 0.038492113 0.00023133348
0.54731458 0.039380949 -0.00039502833
0.54655313 0.040272973 -0.0010213811
0.54579175 0.041168183 -0.0016477249
0.5458073 0.042023703 -0.0016453055
0.54504591 0.042923696 -0.0022716734
0.54506147 0.043780811 -0.0022692494
0.55364954 0.016399452 0.0039204257
0.55521822 0.017245725 0.0051830383
0.55523342 0.018082129 0.0051854039
0.55524862 0.018918533 0.005187769
0.55526376 0.019754937 0.0051901345
0.55527896 0.020591341 0.0051924996
0.55529416 0.021427745 0.0051948647
0.55453283 0.022270367 0.0045671379
0.55454803 0.023108363 0.0045695077
0.55456328 0.023946362 0.0045718774
0.55457848 0.024784358 0.0045742472
0.55381727 0.025634944 0.0039465427
0.55383253 0.026474535 0.0039489167
0.55384779 0.027314125 0.0039512911
0.5530867 0.028171085 0.0033236046
0.55310196 0.029012268 0.0033259834
0.55234092 0.029874008 0.0026982729
0.55235624 0.030716784 0.0027006562
0.55159527 0.031583302 0.0020729965
0.55161065 0.032427672 0.0020753844
0.5508498 0.033298969 0.0014477384
0.550089 0.034173455 0.00082010141
0.55010444 0.035021011 0.00082249823
0.54934371 0.035900276 0.00019483719
0.54858309 0.036782723 -0.00043277725
0.54859853 0.037633467 -0.00043037144
0.54783797 0.038520698 -0.0010579723
0.54707748 0.039411113 -0.0016855643
0.54631704 0.040304713 -0.0023131471
0.5463326 0.041160233 -0.0023107277
0.54951036 0.015512805 -0.00052085897
0.55107731 0.016371854 0.00074429699
0.55264407 0.01722453 0.0020093974
0.55343515 0.01806907 0.0026431677
0.55345041 0.018910252 0.0026455466
0.55346566 0.019751435 0.0026479254
0.55425656 0.020589601 0.0032816401
0.55349624 0.021433802 0.0026526828
0.5535115 0.022274986 0.0026550617
0.55352682 0.023116169 0.0026574405
0.55354208 0.023957353 0.0026598193
0.55355734 0.024798535 0.0026621982
0.55357265 0.025639718 0.002664577
0.55358791 0.026480902 0.0026669556
0.55360317 0.027322086 0.0026693344
0.55284309 0.028180623 0.0020403801
0.55285841 0.029023401 0.0020427634
0.55209845 0.029886717 0.0014138604
0.55211377 0.030731088 0.0014162482
0.55135387 0.031599183 0.0007873585
0.55136925 0.032445148 0.00078975077
0.55060947 0.033318024 0.00016087473
0.55062485 0.03416558 0.00016327153
0.54986513 0.035043236 -0.00046562872
0.54910547 0.035924077 -0.0010944823
0.5491209 0.036774822 -0.0010920765
0.54836136 0.037660442 -0.0017209166
0.54760182 0.038549248 -0.0023497476
0.54928786 0.016349101 -0.0018091154
0.55085278 0.017206585 -0.00054149452
0.55164284 0.01805592 9.34864e-05
0.55243289 0.018902067 0.00072845834
0.55244821 0.019746436 0.00073084614
0.55246353 0.020590806 0.00073323393
0.55247885 0.021435175 0.00073562172
0.55249423 0.022279546 0.00073800952
0.55328405 0.023116134 0.0013729545
0.55329937 0.02395891 0.0013753377
0.55331469 0.024801688 0.001377721
0.55332994 0.025644464 0.0013801043
0.55257088 0.026501395 0.00074994855
0.55258626 0.027345764 0.00075233635
0.55260158 0.028190134 0.00075472414
0.55261689 0.029034503 0.00075711193
0.55185795 0.029899398 0.00012697866
0.55187333 0.030745361 0.00012937096
0.5518887 0.031591322 0.00013176327
0.55112988 0.032462593 -0.00049835199
0.55037111 0.033337049 -0.0011284959
0.55038649 0.034186199 -0.0011260946
0.54962784 0.035065431 -0.0017561873
0.54886919 0.035947852 -0.002386271
0.54888469 0.036800187 -0.0023838608
0.5498566 0.018042682 -0.0024636029
0.55064571 0.018893622 -0.0018273828
0.55066115 0.019742772 -0.0018249815
0.55145019 0.020588934 -0.0011887372
0.55146557 0.02143649 -0.0011863403
0.55148095 0.022284046 -0.0011839436
0.55226988 0.023123836 -0.0005477551
0.55228525 0.023969799 -0.00054536277
0.55230057 0.024815762 -0.00054297049
0.55231595 0.025661724 -0.00054057816
0.55233133 0.026507687 -0.00053818588
0.55234671 0.02735365 -0.00053579354
0.55236208 0.028199613 -0.00053340127
