# .PCD v0.7 - Point Cloud Data file format
VERSION 0.7
FIELDS x y z
SIZE 4 4 4
TYPE F F F
COUNT 1 1 1
WIDTH 1378
HEIGHT 1
VIEWPOINT 0 0 0 1 0 0 0
POINTS 1378
DATA ascii
0.58248949 0.009790998 0.048511896
0.5832966 0.010599134 0.049084082
0.58329093 0.011384582 0.049072292
0.5840981 0.01218794 0.049644563
0.58409244 0.012971793 0.049632799
0.58408684 0.013755647 0.049621031
0.58408117 0.014539501 0.049609262
0.58407551 0.015323355 0.049597494
0.58488274 0.016117154 0.050169896
0.58487713 0.016899414 0.050158154
0.58487147 0.017681673 0.050146408
0.58486587 0.018463934 0.050134666
0.58486027 0.019246196 0.050122924
0.5848546 0.020028457 0.050111178
0.58403605 0.02081033 0.049515124
0.58403039 0.021594185 0.049503356
0.58402479 0.022378039 0.049491592
0.58320618 0.023166286 0.048895422
0.58238751 0.02395772 0.048299223
0.58238184 0.02474476 0.04828741
0.58156317 0.025540974 0.047691122
0.5807445 0.026340375 0.047094803
0.57992584 0.027142961 0.04649844
0.57992011 0.02793478 0.046486553
0.57910132 0.028742148 0.045890097
0.57828259 0.029552702 0.045293611
0.57746381 0.030366439 0.04469708
0.57664496 0.031183364 0.044100463
0.57582611 0.032003477 0.043503836
0.57500726 0.032826774 0.042907156
0.57418841 0.033653259 0.042310432
0.57255632 0.034509629 0.041128907
0.57173741 0.035344079 0.040532064
0.57091844 0.036181714 0.039935172
0.57009947 0.037022538 0.039338235
0.56928045 0.037866551 0.038741209
0.56846142 0.038713746 0.038144175
0.56682914 0.039600387 0.03696223
0.56601012 0.04045555 0.036365077
0.56519091 0.041313898 0.035767838
0.56355858 0.042216469 0.034585655
0.56273943 0.043082785 0.033988331
0.56110698 0.043996509 0.032805946
0.56028771 0.04487079 0.032208502
0.5586552 0.045795664 0.031025985
0.55783588 0.046677917 0.030428389
0.55620331 0.047613945 0.029245704
0.55538398 0.048504155 0.028648023
0.55375129 0.049451336 0.027465135
0.55293185 0.050349519 0.026867334
0.5512991 0.05130785 0.025684312
0.55047965 0.052214 0.025086356
0.54966015 0.053123329 0.024488389
0.54802728 0.054097593 0.023305127
0.54720777 0.05501489 0.022707041
0.54557478 0.056000311 0.021523578
0.54475516 0.056925572 0.020925373
0.5439356 0.057854019 0.020327117
0.54311591 0.058785662 0.01972878
0.54229623 0.059720483 0.019130429
0.54147655 0.060658492 0.01853203
0.54147035 0.061525188 0.018519018
0.54065061 0.062467974 0.017920548
0.54064435 0.063336268 0.017907513
0.5398246 0.064283833 0.017308971
0.58316606 0.25470662 0.04658816
0.58397681 0.25501132 0.04716792
0.5839712 0.25579196 0.0471562
0.5839656 0.25657263 0.047144484
0.58477634 0.25687096 0.047724321
0.58477074 0.25765005 0.047712624
0.58476514 0.25842911 0.04770093
0.58557594 0.25872105 0.048280865
0.58557039 0.25949854 0.048269194
0.58638126 0.25978568 0.048849218
0.58637565 0.26056159 0.048837569
0.58138812 0.0049984767 0.046795096
0.58219415 0.005819371 0.04736834
0.58218849 0.0066080038 0.047356501
0.58218282 0.0073966375 0.047344662
0.58298892 0.0082111591 0.047918018
0.58298326 0.0089981994 0.047906201
0.58378935 0.0098079415 0.048479613
0.58378369 0.010593388 0.048467822
0.5845899 0.011398352 0.049041323
0.58458424 0.012182205 0.049029555
0.58457857 0.012966059 0.049017791
0.58457297 0.013749912 0.049006023
0.58537918 0.014546908 0.049579624
0.58537352 0.015329169 0.049567882
0.58536792 0.01611143 0.049556136
0.58536226 0.01689369 0.049544394
0.58535665 0.017675951 0.049532652
0.58535099 0.018458212 0.049520906
0.58534539 0.019240472 0.049509164
0.58533973 0.020022733 0.049497422
0.58452219 0.020804597 0.048900116
0.58451653 0.02158845 0.048888348
0.58369893 0.022375094 0.048290953
0.58369327 0.02316054 0.048279162
0.58287567 0.023951963 0.047681715
0.58205795 0.024746571 0.047084201
0.58205229 0.025535205 0.047072362
0.58123457 0.026334593 0.046474796
0.58041686 0.027137168 0.045877177
0.57959914 0.027942929 0.045279499
0.57878137 0.028751878 0.044681787
0.57796359 0.029564012 0.044084027
0.5771457 0.030379333 0.043486185
0.57713997 0.031177524 0.043474205
0.57551003 0.032019533 0.042290431
0.57469219 0.032844413 0.041692477
0.57387429 0.033672478 0.041094478
0.57305628 0.034503732 0.040496398
0.57223839 0.035338171 0.039898306
0.57142037 0.036175795 0.039300162
0.57060242 0.037016608 0.038701974
0.56897217 0.037893664 0.037517637
0.5681541 0.038742442 0.036919329
0.56733602 0.039594408 0.036320969
0.56570572 0.040487397 0.035136394
0.56488758 0.041347329 0.034537919
0.56325722 0.042251468 0.033353213
0.56243896 0.043119367 0.032754581
0.56080848 0.04403466 0.031569704
0.55999023 0.044910524 0.030970989
0.55917197 0.04578957 0.030372225
0.55754137 0.046720799 0.029187076
0.55672306 0.047607813 0.028588194
0.55509239 0.048550192 0.027402911
0.55427396 0.049445171 0.026803873
0.55264324 0.050398704 0.025618425
0.55182475 0.051301651 0.025019303
0.55019391 0.052266337 0.023833651
0.54937541 0.053177249 0.023234408
0.54774451 0.054153085 0.022048626
0.5469259 0.055071965 0.021449229
0.54610735 0.055994026 0.02084982
0.54528874 0.056919277 0.020250361
0.54365766 0.057915825 0.019064231
0.54365146 0.058779344 0.019051269
0.54202032 0.059785452 0.01786503
0.54201406 0.060652152 0.01785202
0.54119539 0.061593331 0.017252322
0.54037666 0.0625377 0.016652578
0.53955781 0.063485257 0.016052751
0.53955156 0.064356737 0.016039668
0.58365119 0.2547009 0.0459744
0.58364558 0.25548318 0.045962658
0.58363992 0.25626543 0.045950916
0.58444971 0.25656691 0.046531972
0.58444411 0.25734758 0.046520256
0.5844385 0.25812826 0.046508536
0.58524829 0.25842342 0.04708967
0.58524269 0.25920248 0.047077976
0.58523709 0.25998154 0.047066279
0.58604693 0.26027033 0.04764751
0.58604139 0.26104781 0.047635838
0.58187819 0.0049926955 0.046175085
0.58268327 0.0058136014 0.046749581
0.58267754 0.0066022342 0.046737742
0.58348268 0.007418361 0.047312323
0.58347702 0.0082054017 0.04730051
0.58347136 0.008992441 0.047288693
0.5842765 0.0098021952 0.047863357
0.58427083 0.010587642 0.047851562
0.58507597 0.011392617 0.048426315
0.58507037 0.01217647 0.048414547
0.58506471 0.012960324 0.048402779
0.58586991 0.013758925 0.04897761
0.58586431 0.014541185 0.048965864
0.58585864 0.015323446 0.048954122
0.58585304 0.016105708 0.048942376
0.58584744 0.016887967 0.048930634
0.58584177 0.017670227 0.048918892
0.58583617 0.018452488 0.048907146
0.58583051 0.019234749 0.048895404
0.58582491 0.020017009 0.048883662
0.58500832 0.020798862 0.048285108
0.58500266 0.021582715 0.04827334
0.58418608 0.022369348 0.047674697
0.58418041 0.023154793 0.047662906
0.58336377 0.023946205 0.047064207
0.58254707 0.0247408 0.046465442
0.58173037 0.025538586 0.04586665
0.5817247 0.026328811 0.045854785
0.58090794 0.027131375 0.045255918
0.58009118 0.027937125 0.044656988
0.57927442 0.028746061 0.044058029
0.57845759 0.029558184 0.043459017
0.57764077 0.030373493 0.042859927
0.57682389 0.031191988 0.042260822
0.57600707 0.03201367 0.041661669
0.57519019 0.032838538 0.041062471
0.57437325 0.033666592 0.04046322
0.57355624 0.034497835 0.039863888
0.5727393 0.035332259 0.039264545
0.5711112 0.036199737 0.038077887
0.57029408 0.03704213 0.037478387
0.56947708 0.037887707 0.036878876
0.5678488 0.038771115 0.03569198
0.56703174 0.039624661 0.03509235
0.56621456 0.040481396 0.034492638
0.56458616 0.041380733 0.0333055
0.56376904 0.042245429 0.032705702
0.56214052 0.043155927 0.031518362
0.56132329 0.044028588 0.030918445
0.55969477 0.044950228 0.029730974
0.55887741 0.045830864 0.029130902
0.55724877 0.046763659 0.027943265
0.55643147 0.047652256 0.027343107
0.55480272 0.048596203 0.026155267
0.5539853 0.049492765 0.025554989
0.55235654 0.050447866 0.024367016
0.551539 0.051352397 0.023766585
0.55072153 0.052260112 0.023166141
0.54909265 0.053231146 0.021977928
0.54827511 0.054146823 0.021377366
0.54664612 0.055129014 0.02018895
0.54582852 0.056052659 0.019588267
0.54501086 0.056979489 0.018987536
0.54419321 0.057909507 0.018386722
0.54337555 0.058842719 0.017785894
0.54255784 0.059779111 0.017185019
0.54174012 0.060718685 0.016584098
0.5409224 0.061661448 0.015983127
0.54091614 0.062531337 0.015970068
0.58413637 0.25469518 0.045360643
0.5841307 0.25547746 0.045348898
0.5841251 0.25625971 0.045337155
0.58493388 0.25656122 0.045919463
0.58411384 0.25782421 0.045313668
0.58492267 0.25812256 0.045896024
0.58491701 0.25890321 0.045884304
0.58491141 0.25968388 0.045872584
0.58572024 0.25997585 0.046455022
0.58571464 0.26075491 0.046443325
0.58652353 0.26104215 0.04702583
0.58237398 0.0041966871 0.045566939
0.58317804 0.0050191982 0.046142656
0.58317232 0.0058078314 0.046130817
0.58316666 0.0065964647 0.046118978
0.583161 0.0073850979 0.046107139
0.58396512 0.0081996433 0.046682999
0.58395946 0.0089866836 0.046671182
0.58476359 0.0097964481 0.047247093
0.58475792 0.010581896 0.047235303
0.58556217 0.011386882 0.047811303
0.58555651 0.012170736 0.047799535
0.58555084 0.012954589 0.047787767
0.58635509 0.013753202 0.048363846
0.58634943 0.014535462 0.048352104
0.58634382 0.015317723 0.048340362
0.58633816 0.016099984 0.048328616
0.58633256 0.016882244 0.048316874
0.58632696 0.017664505 0.048305131
0.58632129 0.018446766 0.048293386
0.58631569 0.019229027 0.048281644
0.58631003 0.020011287 0.048269901
0.58549446 0.020793127 0.047670096
0.5854888 0.02157698 0.047658328
0.58467317 0.022363601 0.047058433
0.58385754 0.023153406 0.046458513
0.58385187 0.023940446 0.046446696
0.58303618 0.024735032 0.045846682
0.58222044 0.025532804 0.045246638
0.58140475 0.026333762 0.044646546
0.58058894 0.027137907 0.044046387
0.57977319 0.027945239 0.043446202
0.57895738 0.028755756 0.042845964
0.57814151 0.02956946 0.042245649
0.57813579 0.030367654 0.042233665
0.57731992 0.031186137 0.041633312
0.57650405 0.032007806 0.041032907
0.57487804 0.03285614 0.03984404
0.57406205 0.033685777 0.039243482
0.57324606 0.0345186 0.038642909
0.57243013 0.035354607 0.038042292
0.57161409 0.036193803 0.037441626
0.57079804 0.037036188 0.036840878
0.56917179 0.03791479 0.035651553
0.56835568 0.038765136 0.03505072
0.56672931 0.039654896 0.033861194
0.5659132 0.04051321 0.033260241
0.56509703 0.041374706 0.03265924
0.56347054 0.042280398 0.031469472
0.56265432 0.043149866 0.030868351
0.56102777 0.044066705 0.029678453
0.56021154 0.044944134 0.029077213
0.55858487 0.045872129 0.027887112
0.55776852 0.046757527 0.027285753
0.55614185 0.047696672 0.026095519
0.55532539 0.048590038 0.025494006
0.55369866 0.049540333 0.024303604
0.55288219 0.050441664 0.023702005
0.55125529 0.05140312 0.0225114
0.55043882 0.052312415 0.021909684
0.54881185 0.053285018 0.020718947
0.54799527 0.054202281 0.020117074
0.54717869 0.055122729 0.019515188
0.54555166 0.056111261 0.018324213
0.54473495 0.057039682 0.017722173
0.54391825 0.057971276 0.017120119
0.54310161 0.058906067 0.016518019
0.54228485 0.059844039 0.015915871
0.54146814 0.0607852 0.015313675
0.54065132 0.06172955 0.014711395
0.58462709 0.2539072 0.044758625
0.58462149 0.25468946 0.044746879
0.58461589 0.25547171 0.044735137
0.58461022 0.25625399 0.044723395
0.58460462 0.25703624 0.044711649
0.58459896 0.25781849 0.044699907
0.58459336 0.25860077 0.044688165
0.58540118 0.25889751 0.045271795
0.58539557 0.25967818 0.045260075
0.58538997 0.26045883 0.045248356
0.58619785 0.26074922 0.045832064
0.58619225 0.26152831 0.045820367
0.58286405 0.004190906 0.044946928
0.5836671 0.0050134282 0.045523897
0.58366144 0.0058020619 0.045512058
0.58365577 0.0065906947 0.045500219
0.58365011 0.0073793279 0.04548838
0.58445323 0.008193885 0.046065487
0.58444756 0.0089809252 0.046053674
0.58525074 0.0097907018 0.046630833
0.58524507 0.010576149 0.046619043
0.58604825 0.011381147 0.047196295
0.58604264 0.012165001 0.047184527
0.58684587 0.012965218 0.047761831
0.58684021 0.013747479 0.047750089
0.58683461 0.01452974 0.047738347
0.58682895 0.015312 0.047726601
0.58682334 0.01609426 0.047714859
0.58681768 0.016876521 0.047703117
0.58681208 0.017658781 0.047691371
0.58680648 0.018441042 0.047679629
0.58680081 0.019223303 0.047667887
0.58679521 0.020005563 0.047656141
0.58598059 0.020787392 0.047055088
0.58597493 0.021571245 0.04704332
0.58516032 0.022357853 0.046442173
0.58434564 0.023147648 0.045841001
0.58433998 0.023934688 0.045829184
0.58352524 0.024729261 0.045227922
0.58271056 0.025527023 0.044626627
0.58189583 0.02632797 0.044025287
0.58108103 0.027132103 0.04342388
0.58026624 0.027939422 0.042822443
0.57945144 0.028749928 0.042220958
0.57863653 0.029563621 0.04161939
0.57782167 0.0303805 0.041017808
0.57700682 0.031200564 0.040416177
0.5761919 0.032023814 0.039814502
0.57537699 0.032850254 0.039212778
0.57456201 0.03367988 0.038610972
0.57374704 0.034512691 0.038009152
0.57293206 0.035348687 0.037407283
0.57130778 0.036217712 0.036215566
0.57049274 0.037061673 0.035613578
0.56967771 0.037908822 0.035011541
0.56805336 0.038793776 0.033819623
0.56723821 0.039648894 0.033217434
0.56642306 0.040507194 0.032615229
0.56479859 0.041408081 0.03142307
0.56398332 0.042274348 0.030820712
0.56235886 0.043186385 0.029628385
0.56154358 0.044060618 0.029025944
0.55991894 0.044983812 0.027833413
0.55910361 0.045866009 0.027230851
0.5574789 0.046800353 0.02603819
0.55666357 0.047690518 0.025435507
0.55503875 0.048636016 0.024242645
0.5542233 0.049534146 0.023639843
0.55259842 0.050490797 0.022446811
0.55178297 0.051396895 0.02184389
0.55015802 0.052364696 0.020650726
0.54853302 0.053338867 0.019457432
0.54771745 0.054257713 0.01885432
0.54690182 0.055179738 0.01825116
0.54608619 0.056104954 0.017647952
0.54446101 0.057099842 0.016454346
0.54364532 0.058033023 0.015851021
0.54282963 0.058969393 0.015247645
0.54201388 0.059908949 0.014644223
0.54119807 0.060851693 0.014040717
0.54119182 0.061723173 0.014027635
0.53065526 0.06447538 0.0063251168
0.58510661 0.25468373 0.044133123
0.58510101 0.25546598 0.044121381
0.58509535 0.25624827 0.044109635
0.58508974 0.25703052 0.044097893
0.58508414 0.25781277 0.044086151
0.58507848 0.25859505 0.044074405
0.58507288 0.2593773 0.044062663
0.58587974 0.25967246 0.044647567
0.58587414 0.2604531 0.044635847
0.58668101 0.26074353 0.045220803
0.58667541 0.26152262 0.04520911
0.58335418 0.0041851248 0.04432692
0.58415622 0.0050076586 0.044905141
0.58415055 0.0057962919 0.044893302
0.58414489 0.0065849251 0.044881463
0.58494699 0.0074010869 0.045459796
0.58494133 0.0081881266 0.045447979
0.58493567 0.0089751668 0.045436163
0.58573782 0.0097849555 0.046014577
0.58573216 0.010570403 0.046002783
0.58653438 0.011375412 0.046581287
0.58652878 0.012159266 0.046569519
0.587331 0.012959495 0.047148075
0.58732539 0.013741756 0.047136329
0.58731973 0.014524017 0.047124587
0.58731413 0.015306277 0.047112841
0.58730847 0.016088538 0.047101099
0.58730286 0.016870799 0.047089357
0.5872972 0.017653059 0.047077611
0.5872916 0.01843532 0.047065869
0.587286 0.019217581 0.047054127
0.58728033 0.019999841 0.047042381
0.58646673 0.020781657 0.046440076
0.58565307 0.021566659 0.045837708
0.5856474 0.022352107 0.045825917
0.58483374 0.023141889 0.045223493
0.58402002 0.02393486 0.044621002
0.5832063 0.024731014 0.044018481
0.58320063 0.025521241 0.04400662
0.58238685 0.026322177 0.043404028
0.58157307 0.027126297 0.042801369
0.58075929 0.027933605 0.042198684
0.57994545 0.0287441 0.041595947
0.5791316 0.029557781 0.040993128
0.5783177 0.030374648 0.040390298
0.5775038 0.0311947 0.039787419
0.5766899 0.032017939 0.039184492
0.57506776 0.032867823 0.037990563
0.5742538 0.033699028 0.037387516
0.57343984 0.034533419 0.036784422
0.57262582 0.035370998 0.036181282
0.57181174 0.036211766 0.035578057
0.57018948 0.037087135 0.034383778
0.56937534 0.037935864 0.03378047
0.56856126 0.038787782 0.033177115
0.56774706 0.039642889 0.032573674
0.56612462 0.04053897 0.031379085
0.56531042 0.041402042 0.03077556
0.56368786 0.042309277 0.02958077
0.5628736 0.043180313 0.028977126
0.56125104 0.044098701 0.027782204
0.56043667 0.044977702 0.027178403
0.55881399 0.045907244 0.025983313
0.55799967 0.04679421 0.025379431
0.55637687 0.047734905 0.024184138
0.55475408 0.048681971 0.022988783
0.55393958 0.049581684 0.022384709
0.55231667 0.0505399 0.021189153
0.55150217 0.051447581 0.02058496
0.54987925 0.05241695 0.01938927
0.54906458 0.053332597 0.018784922
0.54825002 0.054251429 0.01818056
0.54662693 0.055236731 0.016984632
0.54581225 0.056163531 0.016380116
0.54499757 0.057093512 0.015775587
0.54418284 0.058026683 0.015171009
0.5433681 0.058963042 0.014566384
0.54174483 0.059973836 0.013370041
0.54173857 0.060845315 0.013356958
0.53849822 0.062014539 0.010977132
0.53364056 0.063348569 0.0074136271
0.52797431 0.064779341 0.0032581373
0.52311641 0.066153206 -0.00030596575
0.5847804 0.25515392 0.042921651
0.58477473 0.25593778 0.042909883
0.58476907 0.25672165 0.042898115
0.58476347 0.25750548 0.04288635
0.58556926 0.25780705 0.043472391
0.58556366 0.25858933 0.043460645
0.585558 0.25937158 0.043448903
0.58555239 0.26015383 0.043437161
0.58635825 0.26044741 0.044023339
0.58635265 0.26122808 0.044011619
0.58715856 0.26151693 0.044597849
0.5830375 0.0041454309 0.043115601
0.58383852 0.0049695699 0.043695044
0.58383286 0.0057597966 0.043683182
0.58463395 0.0065791551 0.0442627
0.58462828 0.0073677888 0.044250861
0.58542943 0.0081823692 0.044830468
0.58542377 0.0089694094 0.044818655
0.58622497 0.0097792093 0.045398314
0.58621931 0.010564657 0.045386523
0.58702052 0.011369677 0.045966275
0.58701491 0.012153531 0.045954507
0.58700925 0.012937385 0.045942739
0.58781052 0.013736033 0.046522569
0.58780491 0.014518294 0.046510827
0.58779925 0.015300554 0.046499081
0.58779365 0.016082814 0.046487339
0.58778799 0.016865075 0.046475597
0.58778238 0.017647335 0.046463851
0.58777672 0.018429596 0.046452109
0.58777112 0.019211857 0.046440367
0.58695853 0.019992068 0.045836832
0.58695287 0.020775922 0.045825068
0.58614022 0.021560913 0.045221444
0.58613455 0.022346361 0.045209654
0.58532184 0.023136131 0.044605982
0.58450913 0.023929089 0.044002242
0.58369642 0.024725232 0.04339847
0.58288366 0.025524564 0.042794652
0.58207083 0.026327079 0.042190772
0.58125806 0.027132783 0.041586857
0.58044523 0.027941672 0.040982895
0.57963234 0.02875375 0.04037885
0.57881951 0.029569011 0.039774794
0.57800663 0.030387459 0.03917069
0.57719368 0.031209094 0.038566537
0.57638073 0.032033913 0.037962336
0.57556772 0.032861926 0.037358053
0.57475477 0.03369312 0.036753755
0.57394177 0.034527499 0.036149412
0.57232147 0.035393286 0.034952741
0.57150841 0.036235634 0.034348279
0.57069534 0.037081167 0.033743769
0.56907499 0.037962887 0.032546896
0.5682618 0.038816389 0.03194223
0.56744868 0.039673075 0.031337548
0.5658282 0.040570728 0.030140437
0.5650149 0.04143538 0.029535605
0.56420165 0.042303216 0.028930759
0.56258112 0.043216802 0.027733408
0.56176782 0.044092603 0.027128441
0.56014711 0.045017343 0.025930887
0.55933374 0.045901112 0.025325803
0.55771303 0.046837002 0.024128117
0.5560922 0.047779266 0.0229303
0.55527872 0.048675783 0.022325022
0.55365783 0.049629197 0.021127038
0.55284435 0.050533675 0.020521641
0.5512234 0.051498245 0.019323524
0.55040985 0.052410692 0.018718008
0.54878873 0.053386416 0.01751969
0.54797512 0.054306824 0.016914055
0.546354 0.055293698 0.015715567
0.54554033 0.056222077 0.015109813
0.54553407 0.057087183 0.015096826
0.54391289 0.058088392 0.013898158
0.54309911 0.059026334 0.01329226
0.5414778 0.060038697 0.01209339
0.53904897 0.061130267 0.010301549
0.53661996 0.062231392 0.0085095288
0.53257585 0.063494116 0.0055314465
0.52691644 0.064927995 0.0013671238
0.58527213 0.25436434 0.042318407
0.58526653 0.25514817 0.042306639
0.58526087 0.25593206 0.042294871
0.58525521 0.25671589 0.042283103
0.5852496 0.25749975 0.042271338
0.58524394 0.25828359 0.04225957
0.58604878 0.25858361 0.042846885
0.58604318 0.25936586 0.042835142
0.58603752 0.26014811 0.0428234
0.58603191 0.26093036 0.042811655
0.58683681 0.26122236 0.043399107
0.58764172 0.26151124 0.043986589
0.58352858 0.0041396376 0.042494342
0.58432865 0.0049637887 0.043075036
0.58432293 0.0057540149 0.043063171
0.58512306 0.0065733856 0.04364394
0.5851174 0.0073620188 0.043632101
0.58591759 0.0081766108 0.04421296
0.58591193 0.008963651 0.044201143
0.58671206 0.009773463 0.044782057
0.58670646 0.01055891 0.044770267
0.58750665 0.011363943 0.045351267
0.58750105 0.012147796 0.045339499
0.58749539 0.012931651 0.04532773
0.58829564 0.01373031 0.045908809
0.58829004 0.014512571 0.045897067
0.58828443 0.015294831 0.045885324
0.58827877 0.016077092 0.045873579
0.58827317 0.016859353 0.045861837
0.58826751 0.017641611 0.045850091
0.5882619 0.018423874 0.045838349
0.58825624 0.019206135 0.045826606
0.58744466 0.019986333 0.045221824
0.587439 0.020770188 0.045210056
0.5866273 0.021555167 0.044605188
0.58581561 0.022343334 0.044000287
0.58580995 0.023130374 0.043988474
0.58499825 0.023923321 0.043383483
0.58418649 0.024719452 0.042778462
0.58337474 0.025518771 0.042173393
0.58256292 0.026321275 0.041568261
0.58175111 0.027126968 0.040963098
0.58093929 0.027935844 0.040357888
0.58012736 0.028747909 0.039752591
0.57931548 0.029563161 0.039147284
0.57850361 0.030381598 0.038541928
0.57769167 0.03120322 0.037936527
0.57607353 0.032049868 0.036737643
0.57526153 0.032879457 0.036132123
0.57444954 0.033712231 0.035526555
0.57363749 0.034548193 0.034920935
0.57282543 0.035387345 0.034315232
0.57120711 0.036259484 0.033116005
0.57039499 0.037106596 0.032510217
0.56958288 0.037956897 0.031904384
0.56877065 0.038810387 0.03129847
0.5671522 0.039703235 0.030098928
0.56634003 0.04056469 0.029492928
0.56472147 0.041468691 0.028293185
0.56390917 0.042338111 0.027687065
0.56229055 0.043253265 0.026487188
0.5614782 0.044130653 0.025880916
0.56066585 0.045011222 0.025274627
0.5590471 0.045942307 0.024074513
0.5574283 0.046879772 0.022874268
0.55661589 0.047773089 0.022267789
0.55499703 0.048721697 0.021067411
0.5541845 0.049622983 0.020460777
0.55256557 0.050582748 0.019260231
0.55175298 0.051491998 0.018653514
0.55013394 0.052462917 0.017452767
0.54932135 0.053380132 0.01684593
0.54770225 0.054362196 0.01564505
0.54688954 0.05528738 0.015038057
0.54527038 0.056280602 0.01383701
0.54445761 0.057213746 0.013229934
0.54283834 0.058218122 0.012028683
0.54121906 0.059228871 0.010827373
0.53959972 0.060245991 0.0096259667
0.53717375 0.061342306 0.0078302678
0.53394115 0.06252259 0.0054402417
0.52990192 0.063791625 0.0024558133
0.52586257 0.06507659 -0.00052885438
0.58575827 0.25435862 0.041703399
0.58575267 0.25514245 0.041691631
0.585747 0.25592631 0.041679863
0.58574134 0.25671017 0.041668095
0.58573574 0.25749403 0.04165633
0.58653957 0.2577956 0.04224487
0.58572441 0.25906172 0.041632794
0.5865283 0.25936013 0.042221382
0.5865227 0.26014239 0.04220964
0.58651704 0.26092464 0.042197898
0.58732098 0.26121664 0.042786598
0.58731538 0.26199734 0.042774878
0.58321482 0.0040999088 0.041279256
0.58401394 0.0049256645 0.041861195
0.58481306 0.0057482338 0.042443164
0.58480734 0.00653846 0.042431302
0.58480167 0.0073286868 0.042419437
0.58560079 0.0081448825 0.043001503
0.58640003 0.0089578927 0.043583635
0.58639437 0.0097449329 0.043571819
0.58719355 0.010553163 0.044154007
0.58799279 0.011358208 0.044736255
0.58798718 0.012142061 0.04472449
0.58798152 0.012925915 0.044712722
0.58878082 0.013724587 0.045295049
0.58877516 0.014506848 0.045283306
0.58876956 0.015289107 0.045271564
0.58876395 0.016071368 0.045259818
0.58875829 0.016853629 0.045248076
0.58875269 0.017635889 0.045236334
0.58874702 0.01841815 0.045224588
0.58874142 0.019200411 0.045212846
0.5879308 0.0199806 0.044606816
0.58792514 0.020764453 0.044595048
0.58711445 0.02154942 0.043988928
0.58630377 0.022337576 0.043382779
0.58549303 0.023128917 0.042776562
0.58468229 0.023923444 0.042170316
0.58467656 0.024713671 0.042158451
0.58386582 0.025512978 0.041552134
0.58305496 0.026315471 0.040945753
0.58224416 0.027121151 0.040339336
0.58062816 0.027943878 0.039138313
0.58062238 0.028742069 0.039126333
0.57900637 0.029574355 0.037925202
0.57819545 0.030394373 0.037318572
0.57738447 0.031217577 0.036711894
0.57657349 0.032043967 0.036105137
0.57576251 0.032873549 0.035498362
0.57495147 0.033706311 0.034891542
0.57333517 0.034568869 0.03368992
0.57252413 0.035409596 0.033082981
0.57171303 0.036253516 0.032475993
0.57009661 0.037132002 0.03127417
0.56928545 0.037983887 0.030667027
0.56847423 0.038838953 0.030059872
0.56766307 0.039697208 0.029452669
0.56604648 0.040596411 0.028250499
0.56523526 0.04146263 0.027643176
0.56361866 0.042372983 0.026440872
0.56280732 0.043247171 0.02583343
0.56199592 0.044124544 0.025225906
0.56037927 0.04505083 0.024023363
0.55876249 0.045983482 0.022820724
0.55795103 0.046873607 0.022213008
0.55633414 0.047817413 0.021010203
0.55552268 0.048715495 0.020402402
0.55390573 0.049670462 0.019199394
0.55309415 0.050576512 0.018591473
0.55147719 0.051542629 0.017388331
0.55066556 0.052456647 0.016780257
0.54904842 0.05343391 0.015576948
0.54823679 0.05435589 0.01496879
0.54661959 0.055344313 0.013765278
0.5450024 0.0563391 0.012561708
0.54419065 0.057273827 0.011953358
0.54176778 0.058347803 0.010154244
0.54015046 0.059361715 0.0089503853
0.53772748 0.060453214 0.007151009
0.53530443 0.061554272 0.0053514875
0.53207576 0.06273929 0.0029563892
0.5862444 0.25435287 0.041088387
0.5862388 0.25513673 0.041076623
0.58623314 0.25592059 0.041064855
0.58622748 0.25670442 0.041053087
0.58622187 0.25748828 0.041041318
0.58621621 0.25827214 0.041029554
0.58621055 0.259056 0.041017786
0.58701342 0.25935441 0.041607622
0.58700782 0.26013666 0.04159588
0.58700222 0.26091892 0.041584138
0.58780515 0.26121095 0.04217409
0.58779955 0.26199165 0.04216237
0.58210504 0.0032296104 0.039478585
0.58290309 0.0040601566 0.040061686
0.58370119 0.0048875171 0.040644832
0.5844993 0.0057116915 0.041228049
0.58529747 0.0065326784 0.041811291
0.58529174 0.0073229051 0.04179943
0.58608991 0.008139113 0.042382743
0.58608425 0.0089277467 0.042370904
0.58688247 0.0097391754 0.042954311
0.5876807 0.010547417 0.043537747
0.58767503 0.011332864 0.043525957
0.58847332 0.012136327 0.044109479
0.58846766 0.01292018 0.044097714
0.58926594 0.013718864 0.044681292
0.58926034 0.014501124 0.044669546
0.58925468 0.015283384 0.044657804
0.58924907 0.016065646 0.044646062
0.58924347 0.016847907 0.044634316
0.58923781 0.017630165 0.044622574
0.58923221 0.018412426 0.044610832
0.58842254 0.019191012 0.044003572
0.58841693 0.019974865 0.043991808
0.5876072 0.020758228 0.043384459
0.58679754 0.021544777 0.042777084
0.58679187 0.022331819 0.042765267
0.58598208 0.023123147 0.042157803
0.58517236 0.023917664 0.041550305
0.58436257 0.024715364 0.040942762
0.58355278 0.025516253 0.040335152
0.58274293 0.026320329 0.039727513
0.58193308 0.02712759 0.039119825
0.58112317 0.027938038 0.038512055
0.58031327 0.028751671 0.03790427
0.57950336 0.029568492 0.03729644
0.57869345 0.030388499 0.036688562
0.57707924 0.031231912 0.035484727
0.57626927 0.032059886 0.03487673
0.57545924 0.032891046 0.034268685
0.57464921 0.033725392 0.033660591
0.57383907 0.034562923 0.033052411
0.5722248 0.035431828 0.031848229
0.57141465 0.036277328 0.03123997
0.5706045 0.037126012 0.03063166
0.56899005 0.038010851 0.029427202
0.56817985 0.038867496 0.028818775
0.56736958 0.039727338 0.028210299
0.56575501 0.040628105 0.027005604
0.56494474 0.041495908 0.026397007
0.56413442 0.042366896 0.025788361
0.56251973 0.0432836 0.024583427
0.56170934 0.044162557 0.023974665
0.56009459 0.045090407 0.022769598
0.55928421 0.045977328 0.022160714
0.55766928 0.046916336 0.020955445
0.55685884 0.047811225 0.020346442
0.55524391 0.048761383 0.019141005
0.55443335 0.049664237 0.018531883
0.55281836 0.050625548 0.017326314
0.55120331 0.051593237 0.016120613
0.55039269 0.052508831 0.015511301
0.549582 0.053427614 0.014901939
0.54796684 0.054411236 0.013696
0.5471561 0.055337984 0.013086518
0.54473639 0.05639758 0.011283906
0.54312104 0.057400316 0.01007768
0.54150569 0.058409419 0.0088713933
0.53908575 0.059494518 0.0070683626
0.53586119 0.06066037 0.0046685496
0.53344113 0.06176617 0.0028652437
0.58672494 0.25513098 0.040461611
0.58671927 0.25591487 0.040449847
0.58671361 0.2566987 0.040438078
0.58670801 0.25748256 0.04042631
0.58670235 0.25826639 0.040414542
0.58669668 0.25905025 0.040402777
0.58749861 0.25934869 0.040993866
0.58749294 0.26013094 0.04098212
0.58829492 0.26042455 0.041573301
0.58828932 0.26120523 0.041561581
0.58909124 0.26149413 0.042152811
0.58259332 0.0040203813 0.038841616
0.58419323 0.0048817126 0.040022325
0.58418757 0.0056751249 0.040010411
0.58418185 0.0064685377 0.039998502
0.584979 0.0072895377 0.040583014
0.58577615 0.0081073502 0.041167557
0.58657336 0.0089219762 0.041752145
0.58656764 0.0097106099 0.041740306
0.58736491 0.010520457 0.042324986
0.58816218 0.011327118 0.042909693
0.58895946 0.012130592 0.04349447
0.58895379 0.012914446 0.043482702
0.58894819 0.013698299 0.043470934
0.58974546 0.014495401 0.04405579
0.58973986 0.015277661 0.044044044
0.5897342 0.016059922 0.044032302
0.58972859 0.016842183 0.044020556
0.58972299 0.017624443 0.044008814
0.58891433 0.018401422 0.043400332
0.58890867 0.019185277 0.043388564
0.58890307 0.01996913 0.043376796
0.58809435 0.020752482 0.042768199
0.58728564 0.021539019 0.042159572
0.58647686 0.022328744 0.041550882
0.58566815 0.023121655 0.040942159
0.58566242 0.023911882 0.040930297
0.58485365 0.024709571 0.040321503
0.58404481 0.025510449 0.039712641
0.58323598 0.026314512 0.039103754
0.58242714 0.027121762 0.038494814
0.58161819 0.027932197 0.037885796
0.58000612 0.028761251 0.036679711
0.57919723 0.029579652 0.036070608
0.57838827 0.030401241 0.035461456
0.5775792 0.031226015 0.034852218
0.57677019 0.032053977 0.034242969
0.575158 0.032908522 0.033036504
0.57434887 0.033744447 0.032427099
0.57353979 0.034583561 0.031817682
0.57192743 0.035454035 0.030610979
0.5711183 0.036301114 0.030001443
0.57030904 0.037151385 0.029391823
0.56949985 0.038004834 0.028782193
0.56788737 0.038896021 0.027575178
0.56707805 0.039757442 0.026965391
0.5662688 0.040622044 0.026355593
0.5646562 0.041529164 0.025148336
0.56384689 0.042401735 0.024538418
0.56303746 0.043277495 0.023928417
0.56142473 0.044200543 0.022720922
0.5606153 0.045084264 0.022110837
0.55900246 0.04601847 0.020903138
0.55819297 0.046910159 0.020292934
0.55658013 0.047855515 0.019085104
0.55577052 0.048755173 0.018474745
0.55415756 0.049711678 0.017266747
0.55254453 0.050674558 0.016058655
0.55173486 0.051586963 0.015448103
0.55092525 0.05250255 0.01483754
0.54931211 0.053481359 0.013629207
0.54850239 0.054404918 0.013018488
0.54688913 0.05539488 0.01180999
0.54447234 0.056456041 0.010003568
0.54285902 0.057460338 0.0087948525
0.54044205 0.058539022 0.0069881668
0.53802508 0.059627265 0.0051813736
0.58720541 0.25590912 0.039834835
0.58719975 0.25669295 0.039823066
0.58719414 0.25747681 0.039811302
0.58718848 0.25826067 0.039799534
0.58798939 0.25856072 0.040391847
0.58798373 0.25934297 0.040380105
0.58797812 0.26012522 0.04036836
0.58877909 0.26041886 0.040960789
0.58877343 0.2611995 0.040949069
0.5895744 0.26148841 0.04154155
0.58228552 0.0039805807 0.037619013
0.58388346 0.0048435302 0.038802233
0.5846796 0.00566932 0.039387904
0.58467388 0.0064627328 0.039375991
0.58466816 0.0072561461 0.039364081
0.58546436 0.0080755642 0.039949868
0.58626056 0.0088917958 0.040535681
0.58705676 0.0097048404 0.041121546
0.58785301 0.0105147 0.041707475
0.58784735 0.01130174 0.041695662
0.58864361 0.012106818 0.042281643
0.58943993 0.012908711 0.04286769
0.58943433 0.013692565 0.042855926
0.58942866 0.014476418 0.042844158
0.59022498 0.015271938 0.043430284
0.59021938 0.016054198 0.043418542
0.59021372 0.016836459 0.043406796
0.58940607 0.017611833 0.042797089
0.58940047 0.018395687 0.04278532
0.58939481 0.019179542 0.042773552
0.58858711 0.019961288 0.04216373
0.5877794 0.020746222 0.041553877
0.58777374 0.02153326 0.041542064
0.58696598 0.022322975 0.040932123
0.58615822 0.023115873 0.040322147
0.58535045 0.023911959 0.039712131
0.58454257 0.024711231 0.039102044
0.58373475 0.02551369 0.038491927
0.58292693 0.026319334 0.037881766
0.58211899 0.027128166 0.037271518
0.58131105 0.027940182 0.03666126
0.58050317 0.028755387 0.036050949
0.57969522 0.029573778 0.035440598
0.57808501 0.030413959 0.034231812
0.577277 0.031240316 0.033621334
0.57646894 0.032069858 0.033010814
0.57566088 0.032902587 0.032400243
0.57485276 0.033738505 0.03178959
0.57324243 0.034604177 0.030580455
0.57243431 0.035448056 0.029969718
0.57082385 0.036324885 0.028760381
0.57001567 0.037176728 0.028149525
0.56920743 0.038031764 0.027538618
0.56839919 0.038889982 0.026927667
0.56678855 0.039787523 0.025718018
0.56598026 0.040653706 0.025106946
0.56517196 0.04152308 0.024495827
0.5635612 0.042436548 0.023285938
0.56275284 0.043313887 0.0226747
0.56194448 0.044194411 0.022063412
0.56033367 0.045123812 0.020853322
0.55952513 0.046012305 0.020241879
0.55791426 0.046952855 0.019031622
0.55710578 0.047849312 0.018420095
0.55549473 0.04880102 0.017209632
0.55468619 0.049705442 0.016597986
0.55307513 0.050668299 0.015387394
0.55226648 0.051580694 0.014775593
0.55065531 0.052554701 0.013564833
0.54984665 0.053475052 0.012952946
0.54823542 0.05446022 0.011741984
0.54662412 0.055451754 0.010530961
0.54421026 0.056514468 0.008720764
0.54179639 0.057586741 0.0069104601
0.54018492 0.058600582 0.0056990655
0.53696829 0.059759974 0.0032893496
0.53375155 0.060932104 0.00087944034
0.5305348 0.062116977 -0.0015306233
0.58769155 0.25590339 0.039219823
0.58768588 0.25668722 0.039208058
0.58768028 0.25747108 0.03919629
0.58848017 0.25777271 0.039789833
0.58847451 0.258555 0.039778087
0.58846891 0.25933725 0.039766345
0.58926886 0.2596325 0.04036
0.58926326 0.26041314 0.04034828
0.5892576 0.26119381 0.04033656
0.59005761 0.26148272 0.040930294
0.58118469 0.003105399 0.035807163
0.58197975 0.0039407588 0.036393944
0.58357573 0.0048053251 0.037579637
0.58437079 0.0056327195 0.038166538
0.58436507 0.0064277258 0.038154602
0.58516026 0.0072503416 0.038741574
0.58515453 0.0080437539 0.03872966
0.58594978 0.0088615911 0.039316721
0.58674496 0.0096762404 0.039903812
0.58754021 0.010487704 0.040490948
0.58833545 0.011295982 0.04107815
0.58832979 0.012083022 0.041066337
0.5891251 0.012886519 0.041653592
0.58992046 0.01368683 0.042240918
0.5899148 0.014470684 0.042229149
0.58990914 0.015254538 0.042217381
0.58990353 0.016038392 0.042205613
0.58989787 0.016822245 0.042193845
0.58989221 0.017606098 0.04218208
0.58988661 0.018389951 0.042170312
0.58907992 0.019170094 0.041559264
0.58827317 0.019953422 0.040948186
0.58826751 0.020740462 0.040936369
0.58746076 0.021528572 0.040325202
0.58665401 0.022319866 0.039714001
0.58664829 0.023110092 0.03970214
0.58504039 0.023912014 0.038491447
0.58503467 0.024705427 0.038479533
0.58342665 0.025516907 0.037268713
0.58261973 0.026324132 0.03665724
0.582614 0.027122326 0.036645256
0.58100593 0.027948145 0.03543422
0.58019894 0.02876493 0.034822643
0.57939202 0.029584901 0.034211013
0.57858497 0.030408062 0.033599298
0.57777792 0.031234406 0.032987576
0.57616967 0.032085717 0.031776156
0.57536256 0.032920029 0.031164277
0.57455546 0.033757526 0.030552385
0.57294708 0.034624767 0.029340727
0.57213992 0.035470229 0.028728716
0.57133269 0.03631888 0.028116621
0.5697242 0.037202053 0.026904725
0.56891698 0.038058668 0.026292546
0.56810963 0.038918473 0.025680283
0.56650102 0.039817579 0.024468148
0.56569374 0.040685344 0.023855802
0.56488639 0.041556299 0.023243407
0.56407899 0.042430442 0.02263093
0.5624702 0.043350257 0.021418482
0.56166279 0.044232365 0.020805921
0.56005388 0.045163337 0.01959327
0.55924642 0.04605341 0.018980591
0.55763751 0.046995532 0.017767807
0.55682993 0.047893573 0.017154971
0.5552209 0.048846845 0.015942022
0.55441332 0.049752846 0.015329102
0.55280423 0.050717276 0.01411595
0.55199659 0.051631253 0.01350291
0.55118889 0.052548409 0.012889822
0.54957962 0.053528767 0.011676431
0.54797041 0.0545155 0.010462979
0.54636109 0.055508599 0.009249432
0.5439502 0.056572877 0.007435462
0.54153919 0.05764671 0.0056213476
0.53912818 0.058730099 0.0038071261
0.53591549 0.059892628 0.0013923614
0.53270268 0.061067902 -0.0010225947
0.58817202 0.2566815 0.03859305
0.5889709 0.25698471 0.039187815
0.5889653 0.25776699 0.039176073
0.58895969 0.25854927 0.039164327
0.58975863 0.2588461 0.039759211
0.58975303 0.25962678 0.039747491
0.58974737 0.26040742 0.039735772
0.59054637 0.26069793 0.04033073
0.59054077 0.26147702 0.040319033
0.57610035 0.00041282809 0.031014681
0.57769412 0.001302909 0.032202493
0.580082 0.0030283616 0.033978336
0.58167589 0.0039009138 0.035166375
0.58326983 0.0047670947 0.036354508
0.58326411 0.0055652866 0.036342528
0.58405828 0.006392695 0.03693071
0.5848524 0.0072169155 0.037518907
0.58564663 0.008037949 0.038107153
0.58564091 0.0088313622 0.03809524
0.58643514 0.009647618 0.038683575
0.58722937 0.010460686 0.039271936
0.5880236 0.011270568 0.039860349
0.58881789 0.012077264 0.040448826
0.58881223 0.012864304 0.040437009
0.58960658 0.013666219 0.041025542
0.58960092 0.014451667 0.041013751
0.58959526 0.015237113 0.041001961
0.59038967 0.016032657 0.041590605
0.59038401 0.01681651 0.041578837
0.58957833 0.017593455 0.040966585
0.58957267 0.0183789 0.040954795
0.58876693 0.019160625 0.040342491
0.58876127 0.019947665 0.040330674
0.58795553 0.020734169 0.039718281
0.58794987 0.021522801 0.039706443
0.58714408 0.022314085 0.039093994
0.58633828 0.023108553 0.038481496
0.58553243 0.023906209 0.037868936
0.58472657 0.024707049 0.037256341
0.58392072 0.025511079 0.036643703
0.5831148 0.026318293 0.036030982
0.58230889 0.027128695 0.035418246
0.58150291 0.027942281 0.034805462
0.58069694 0.028759057 0.034192629
0.57909071 0.029596006 0.032978892
0.57828468 0.030420745 0.032365941
0.57747865 0.03124867 0.031752944
0.57667261 0.032079782 0.031139897
0.57506621 0.032937445 0.029925847
0.57426012 0.033776522 0.029312681
0.57265365 0.034645334 0.028098499
0.57184744 0.035492379 0.027485179
0.57104123 0.03634261 0.026871845
0.57023501 0.037196029 0.026258465
0.56862843 0.038085554 0.025043936
0.56782216 0.038946934 0.024430435
0.56701583 0.039811503 0.023816887
0.56540912 0.040716961 0.022602156
0.56460273 0.041589499 0.021988451
0.56379634 0.042465217 0.021374736
0.56298995 0.043344129 0.020760972
0.56138313 0.044270296 0.01954593
0.56057662 0.045157172 0.018932009
0.55896968 0.046094488 0.017716801
0.55816317 0.046989333 0.017102797
0.55655611 0.047937803 0.015887383
0.55574954 0.048840608 0.015273262
0.55414248 0.049800232 0.014057716
0.55333579 0.050711006 0.013443439
0.55172867 0.051681787 0.012227726
0.55092198 0.052600522 0.011613365
0.54931468 0.053582452 0.01039745
0.54850793 0.054509159 0.0097829681
0.54610002 0.055565432 0.0079653673
0.54369211 0.05663126 0.0061476585
0.54128408 0.05770665 0.0043297708
0.53887594 0.058791604 0.0025117388
0.53566724 0.059955675 9.1986127e-05
0.58945608 0.25697899 0.038574055
0.58945042 0.25776127 0.038562313
0.58944482 0.25854355 0.038550567
0.5902428 0.25884038 0.039146699
0.59023714 0.25962105 0.039134979
0.59023154 0.26040173 0.039123259
0.59102952 0.26069221 0.03971947
0.59102392 0.26147133 0.039707772
0.5726161 -0.00061550684 0.027383385
0.57500666 0.00032612708 0.029174743
0.57978213 0.0029868747 0.032745752
0.58057523 0.0038270403 0.033334997
0.58216715 0.0046964302 0.034525584
0.58375913 0.0055594472 0.035716269
0.58375341 0.0063576396 0.035704285
0.58454657 0.0071834666 0.036293741
0.58533978 0.0080061052 0.036883213
0.58613294 0.0088255582 0.037472732
0.58612722 0.0096189706 0.037460819
0.5869205 0.010433644 0.038050428
0.58771378 0.011245131 0.038640067
0.58850706 0.012053431 0.039229751
0.58850139 0.012842065 0.039217912
0.58929473 0.013645586 0.039807685
0.58928907 0.014432626 0.039795872
0.59008241 0.015231367 0.040385701
0.59007674 0.016016813 0.04037391
0.59007108 0.016802261 0.040362116
0.59006542 0.017587708 0.040350325
0.58926076 0.018367827 0.039736796
0.58925503 0.019154867 0.03972498
0.58845031 0.019939765 0.039111361
0.58844465 0.020728398 0.039099522
0.58763987 0.021518076 0.038485847
0.58683503 0.022310941 0.037872124
0.58603019 0.02310699 0.037258334
0.58522534 0.023906227 0.036644518
0.5844205 0.024708651 0.036030654
0.58361554 0.025514262 0.035416704
0.58281064 0.026323058 0.034802742
0.58200568 0.027135041 0.034188733
0.58120072 0.027950209 0.033574674
0.58039576 0.028768564 0.032960571
0.57959068 0.029590108 0.032346383
0.57878566 0.030414836 0.031732183
0.5771814 0.031262912 0.03051581
0.57637626 0.032095607 0.029901454
0.57557112 0.032931488 0.029287087
0.57396674 0.033795495 0.028070478
0.57316154 0.03463934 0.027455991
0.57155704 0.035514504 0.026239177
0.57075179 0.036366317 0.02562457
0.56994653 0.037221316 0.025009915
0.56834191 0.038112409 0.023792863
0.56753659 0.038975377 0.023178088
0.56673127 0.039841525 0.022563266
0.5659259 0.040710863 0.021948395
0.5643211 0.041622672 0.020731032
0.56351572 0.042499971 0.020116042
0.56271029 0.043380465 0.019501004
0.56190485 0.044264141 0.01888592
0.56029987 0.04519666 0.017668245
0.55949438 0.046088297 0.01705304
0.55788934 0.047031973 0.015835198
0.55708379 0.047931578 0.015219874
0.55547869 0.0488864 0.0140019
0.55387354 0.049847595 0.012783797
0.55306786 0.050759949 0.01216828
0.55226219 0.051675491 0.011552717
0.55065691 0.05265262 0.010334373
0.54985118 0.053576123 0.0097186891
0.54824591 0.054564402 0.0085002137
0.54584098 0.055622235 0.0066788387
0.54343599 0.056689624 0.0048573562
0.54103088 0.057766572 0.0030356946
0.53782618 0.058921039 0.00061104883
0.53542095 0.060018703 -0.0012109241
0.5899356 0.25775555 0.037948553
0.59073257 0.25805402 0.03854591
0.59072697 0.25883469 0.038534191
0.59072131 0.25961536 0.038522471
0.59071571 0.260396 0.038510751
0.59151274 0.26068652 0.039108209
0.59150714 0.26146561 0.039096512
0.57073748 -0.0015727355 0.024944695
0.57312495 -0.00062150968 0.026739625
0.57471472 0.0002797698 0.027932269
0.57948422 0.0029453661 0.031510707
0.58027625 0.003787135 0.032101139
0.58186626 0.0046581435 0.033294242
0.58265841 0.0054919459 0.033884794
0.5834505 0.0063225627 0.034475394
0.58424264 0.0071499925 0.035066042
0.58503491 0.0079742381 0.035656773
0.58502918 0.0087708374 0.035644814
0.58582139 0.0095903017 0.036235582
0.5866136 0.010406579 0.036826398
0.58740586 0.011219671 0.037417281
0.58819818 0.012029576 0.038008191
0.58819246 0.012819802 0.037996329
0.58898479 0.013624928 0.038587313
0.58977717 0.014426867 0.03917836
0.58977151 0.015213908 0.039166547
0.58976585 0.016000949 0.039154731
0.58976018 0.016787989 0.039142914
0.58975452 0.017575027 0.039131101
0.58974886 0.018362068 0.039119285
0.58894509 0.019145362 0.03850444
0.58893937 0.019933995 0.038492601
0.5881356 0.020722069 0.037877701
0.58733183 0.021513328 0.037262753
0.58652794 0.022307774 0.036647737
0.58652228 0.023101186 0.036635827
0.58571839 0.023900412 0.036020759
0.58491451 0.024702823 0.035405643
0.58411056 0.025508422 0.034790441
0.58330667 0.026317205 0.034175232
0.58250272 0.027129177 0.033559974
0.58090049 0.027958114 0.032341391
0.58009648 0.02877805 0.031725973
0.57929242 0.029601173 0.031110547
0.57848835 0.030427484 0.030495074
0.576886 0.031277131 0.029276142
0.57608187 0.032111406 0.028660549
0.57527775 0.03294887 0.028044907
0.57367533 0.033814449 0.026825773
0.57287109 0.034659877 0.026209977
0.57206684 0.035508487 0.025594167
0.57046431 0.036390003 0.024374794
0.56966001 0.037246581 0.023758829
0.5688557 0.038106348 0.023142852
0.56725305 0.039003793 0.02192324
0.56644869 0.039871525 0.021307142
0.56564426 0.040742446 0.020690965
0.56483984 0.041616552 0.020074772
0.56323701 0.042534705 0.018854849
0.56243259 0.043416776 0.018238537
0.56162804 0.044302039 0.017622141
0.5600251 0.045236122 0.01640198
0.55922061 0.046129346 0.0157855
0.55761755 0.047074586 0.014565134
0.55681294 0.047975775 0.013948536
0.55520982 0.048932169 0.012728039
0.55440515 0.049841322 0.012111285
0.55280197 0.050808866 0.010890621
0.55199724 0.051725995 0.010273783
0.55039394 0.052704688 0.0090529146
0.54958916 0.053629775 0.0084359581
0.54798585 0.054619625 0.0072149588
0.54558384 0.055679012 0.0053898096
0.54318178 0.056747962 0.0035645172
0.54077971 0.057826467 0.0017391174
0.53757894 0.05898248 -0.00069055182
0.59122235 0.25726762 0.037945118
0.59121674 0.2580483 0.037933398
0.59121108 0.25882897 0.037921678
0.59120548 0.25960964 0.037909962
0.59119987 0.26039028 0.037898242
0.59199589 0.26068082 0.038496949
0.59199029 0.26145992 0.038485255
0.572837 -0.00066950684 0.025492175
0.57442474 0.00023338827 0.026687296
0.57839143 0.002868213 0.029669378
0.57997936 0.0037472083 0.030864824
0.58156741 0.0046198331 0.0320604
0.58315539 0.0054860832 0.033256035
0.58314961 0.0062874616 0.033244003
0.58394074 0.0071164966 0.033835877
0.58473194 0.007942345 0.034427799
0.58472621 0.0087405378 0.034415819
0.58551747 0.0095616085 0.035007849
0.58630872 0.010379491 0.035599891
0.58709997 0.011194187 0.036191978
0.58789128 0.012005698 0.036784135
0.58868259 0.012814022 0.037376318
0.58867687 0.013604248 0.037364457
0.58946824 0.014407792 0.037956715
0.58946252 0.015196425 0.037944876
0.58945686 0.015985059 0.037933037
0.58945119 0.016773691 0.037921198
0.58944553 0.017562326 0.037909359
0.58943987 0.018350959 0.03789752
0.58863705 0.019135835 0.037281416
0.58863139 0.01992606 0.037269551
0.58782858 0.020715715 0.036653377
0.58782291 0.021507535 0.03664149
0.58702004 0.022301968 0.036025226
0.58621716 0.023099588 0.035408933
0.58541429 0.023900397 0.034792591
0.58461136 0.024704389 0.034176167
0.58380842 0.025511568 0.033559728
0.58300549 0.026321935 0.032943245
0.58220249 0.027135488 0.032326709
0.5813995 0.027952226 0.031710129
0.58059645 0.028772153 0.031093465
0.57899612 0.029612217 0.029872214
0.57819307 0.030440107 0.029255467
0.5773899 0.031271186 0.028638633
0.57578951 0.032127183 0.027417144
0.5749864 0.032966226 0.026800226
0.57418317 0.033808455 0.026183264
0.5725826 0.034680385 0.024961498
0.57177937 0.035530582 0.024344414
0.57097614 0.036383964 0.023727283
0.56937546 0.037271827 0.02250528
0.56857216 0.038133174 0.021888029
0.56697142 0.039032187 0.020665891
0.56616801 0.039901502 0.020048486
0.5653646 0.040774003 0.019431068
0.56456119 0.041649688 0.018813603
0.56375778 0.042528562 0.018196089
0.5621568 0.043453068 0.016973535
0.56135333 0.044339906 0.0163559
0.5605498 0.045229934 0.015738219
0.55894876 0.046170369 0.014515425
0.55814517 0.047068361 0.013897625
0.55654407 0.048019949 0.0126747
0.55494291 0.048977915 0.011451642
0.5541392 0.049888652 0.01083365
0.55253798 0.05085776 0.009610462
0.55173421 0.051776472 0.0089923143
0.55013293 0.052756734 0.0077689588
0.54932916 0.053683404 0.0071507278
0.5477277 0.054674823 0.0059271683
0.54532874 0.055735771 0.0040982813
0.54292965 0.056806277 0.0022692147
0.54053044 0.057886343 0.0004400046
0.53813124 0.058975965 -0.0013893128
0.59170085 0.2580426 0.03732089
0.59169525 0.25882325 0.03730917
0.59168965 0.25960392 0.03729745
0.59168404 0.26038459 0.03728573
0.59167838 0.26116526 0.037274014
0.59247345 0.26145422 0.037873995
0.57096523 -0.0016284131 0.023044724
0.57255101 -0.00071752735 0.024242224
0.57413673 0.0001869816 0.025439788
0.57492673 0.0010463017 0.026032493
0.57809848 0.0028266446 0.028428048
0.57968444 0.003707258 0.029626003
0.5812704 0.0045814975 0.030824019
0.58285648 0.0054493658 0.032022167
0.58285069 0.0062523377 0.032010112
0.58364087 0.0070829778 0.032603212
0.58443105 0.0079104314 0.03319636
0.58522123 0.0087346984 0.033789556
0.58601153 0.0095557803 0.034382839
0.58600575 0.01035238 0.034370881
0.58679605 0.011168681 0.034964196
0.58758628 0.011981796 0.035557557
0.58837664 0.012791725 0.036150988
0.58837092 0.013583545 0.036139101
0.58916128 0.014388693 0.036732584
0.58915561 0.01517892 0.036720719
0.58914989 0.015969146 0.036708858
0.58914423 0.016759373 0.036696997
0.58913857 0.017549599 0.036685131
0.58913285 0.018339826 0.03667327
0.58912718 0.019130053 0.036661405
0.58832538 0.019918103 0.036044005
0.58831966 0.020709923 0.036032118
0.5875178 0.02150275 0.035414629
0.58671594 0.022298766 0.03479711
0.58591408 0.023097968 0.034179542
0.58511209 0.023900358 0.033561889
0.58510637 0.02469855 0.033549905
0.58350825 0.025514694 0.032326512
0.58270627 0.026326641 0.031708755
